#!ascii file
17171  16850  17169  0
17169  17172  17171  0
16843  16848  17170  0
17170  16848  17173  0
16544  16244  17174  0
16851  17175  16538  0
16852  16538  17175  0
16850  17171  16854  0
17171  17176  16854  0
16244  16547  17174  0
17175  16851  16856  0
17177  16848  16858  0
16848  17177  17173  0
17178  16546  16854  0
17179  17180  17181  0
17180  17179  17182  0
17183  17182  17179  0
17182  17183  17184  0
17185  17184  17183  0
16856  17186  17175  0
16853  17187  16545  0
17188  16545  17187  0
16546  17178  16253  0
16865  17189  17180  0
17180  17189  17190  0
17180  17182  16865  0
16862  16865  17182  0
17182  17184  16862  0
16866  16862  17184  0
17184  17185  17191  0
17184  17191  16866  0
16855  15912  17192  0
17193  17192  15912  0
16545  17188  16553  0
16860  16553  17194  0
16553  17188  17194  0
16857  16859  16858  0
17195  16858  16859  0
16253  17178  17196  0
17197  17198  17189  0
17189  16865  16874  0
16866  17191  16867  0
16869  17193  15912  0
16861  16871  16859  0
16253  17196  16872  0
17189  16874  17199  0
17189  17199  17197  0
16867  17191  17200  0
16557  17201  16869  0
16557  16868  17201  0
17202  17201  16868  0
16876  16870  16875  0
16871  17203  16859  0
17204  17197  17199  0
17199  16874  17204  0
16877  17204  16874  0
16867  17200  16879  0
16868  16880  17202  0
16261  16880  16558  0
17205  16881  16559  0
16559  16882  17205  0
17206  17205  16882  0
16884  17206  16882  0
16871  16876  17203  0
16872  17207  16556  0
16556  17208  16260  0
16565  16260  17208  0
16556  17207  17208  0
17208  17197  16565  0
16566  16565  17197  0
17197  17204  16566  0
16877  16566  17204  0
16879  17200  17209  0
17210  17202  16880  0
16880  16261  17210  0
17211  17210  16261  0
16261  16881  17211  0
17212  17211  16881  0
16881  17205  17212  0
17213  17212  17205  0
17205  17214  17213  0
17205  17206  17215  0
17205  17215  17214  0
16884  16883  17216  0
16884  17216  17206  0
16883  16885  17216  0
17209  16887  16886  0
17209  16886  16879  0
17209  17217  16887  0
17216  16885  17218  0
17216  17218  17219  0
16885  16564  17218  0
17220  17221  16890  0
17220  16890  16887  0
17220  16887  17217  0
17220  17217  17222  0
17220  17222  17223  0
17220  17223  17221  0
16887  16890  16888  0
16564  16889  17218  0
17221  17224  16890  0
17221  17223  17225  0
17221  17225  17224  0
17218  16889  17226  0
16891  16568  17227  0
16568  17228  17227  0
16568  16569  17228  0
16569  16892  17228  0
17225  17229  17224  0
17225  17230  17229  0
17224  16893  16890  0
17226  16889  17231  0
17226  17232  17218  0
16889  16574  17231  0
16891  17227  17233  0
16891  17233  16575  0
17228  16892  17234  0
16892  16894  17234  0
17229  17235  17236  0
17229  17236  17224  0
17224  17236  16893  0
17231  16574  17237  0
17231  17238  17226  0
16575  17233  17239  0
17234  16894  17240  0
17234  17240  17241  0
16894  16896  17240  0
17236  16897  16893  0
17237  16574  16593  0
17237  17242  17231  0
16575  17239  16900  0
17240  16896  17243  0
17240  17243  17241  0
16896  16895  16901  0
16896  16901  17243  0
16903  17244  16904  0
16593  16906  17245  0
16593  17245  17237  0
17243  16901  16909  0
17243  16909  17246  0
16909  16594  17247  0
16909  17247  17248  0
16909  17248  17246  0
16594  16595  17249  0
16594  17249  17247  0
16595  16596  17249  0
16913  16915  17250  0
16913  17250  16914  0
16914  17250  16921  0
16914  16921  16609  0
16906  16620  16934  0
16918  17251  16910  0
16915  17252  17250  0
17250  17252  16921  0
16921  17253  16922  0
16922  17253  16925  0
17254  16915  16919  0
16915  17254  17252  0
17255  17252  17254  0
17252  17255  16921  0
17256  16921  17255  0
16921  17256  17253  0
17257  17253  17256  0
17253  17257  16925  0
16926  16925  17257  0
17258  16918  16923  0
16919  16928  17254  0
17254  17259  17255  0
17260  17255  17259  0
17261  17259  17254  0
17255  17260  17256  0
17262  17256  17260  0
17256  17262  17257  0
17263  17257  17262  0
17257  17263  16926  0
17264  16926  17263  0
16926  17264  16927  0
17265  16927  17264  0
16927  17265  16929  0
16934  16321  17266  0
16940  17266  16321  0
17267  16322  16917  0
16322  17267  16323  0
16323  17267  16623  0
16624  17258  16923  0
17268  16617  17269  0
16617  17268  16931  0
16928  17270  17254  0
17261  17254  17270  0
17271  17270  16928  0
17272  17263  17262  0
17263  17272  17264  0
17264  17272  17265  0
17273  16929  17265  0
16929  17273  16932  0
16930  16932  16320  0
16933  16320  16932  0
16623  17267  16632  0
17274  16935  16931  0
16935  17274  16936  0
17275  16936  17274  0
16936  17275  16937  0
17276  16937  17275  0
16937  17276  16643  0
17277  16643  17276  0
16928  16938  17271  0
17278  16932  17273  0
17279  16933  16932  0
16933  17279  16940  0
16632  16941  16633  0
17280  16642  16941  0
16642  17280  16942  0
16643  17277  16943  0
17281  16943  17277  0
16938  16939  17271  0
17282  17271  16939  0
17283  17282  16939  0
16648  16338  17284  0
16648  17284  16947  0
16338  16027  17285  0
17286  17285  16027  0
16027  16948  17286  0
16943  17281  17287  0
16943  17287  16949  0
16939  16951  17283  0
17288  17283  16951  0
17289  16649  16947  0
16947  17290  17289  0
17291  16955  16956  0
16956  16957  17291  0
17292  17291  16957  0
16957  16962  17293  0
16964  17293  16962  0
16957  17293  17292  0
17294  17292  17293  0
17293  16964  16949  0
16958  16949  16964  0
17293  16949  17294  0
17287  17294  16949  0
16951  16959  17288  0
17295  17288  16959  0
16959  16960  17296  0
17297  16960  16952  0
16952  16953  17297  0
16953  16954  16966  0
16649  17289  16651  0
17298  16651  17289  0
16959  17296  17295  0
17299  17296  16960  0
16960  17297  17299  0
16966  17297  16953  0
16339  16966  16954  0
17300  16965  16651  0
16651  17298  17300  0
17298  17289  17301  0
17298  17301  17300  0
16965  17300  16967  0
17302  16967  17300  0
16968  15706  17303  0
17304  17303  15706  0
15706  16655  17304  0
16655  16967  17304  0
17302  17304  16967  0
16037  16968  16969  0
16969  16968  17305  0
16969  17306  17307  0
17308  16352  16354  0
17308  16970  16352  0
17308  16354  17309  0
16969  17310  16971  0
16969  17307  17310  0
16354  16656  17311  0
16354  17311  17309  0
16658  17311  16656  0
16658  16972  17311  0
17310  17312  16660  0
17310  16660  16971  0
16972  16975  17313  0
17314  16673  16672  0
17314  17315  16673  0
16660  17312  16984  0
16666  17316  16667  0
16666  16360  17316  0
16661  16667  16977  0
16974  16978  17317  0
16974  17317  16979  0
16980  16979  17318  0
16980  17318  16981  0
16981  17318  17319  0
16981  17319  16982  0
16982  17319  16983  0
16669  16983  17320  0
16669  17320  16670  0
16975  16674  16368  0
16975  16368  16986  0
16975  16986  17321  0
16975  17321  17313  0
16986  17322  17315  0
16986  17315  17321  0
17322  16986  16369  0
17322  16369  16673  0
17322  16673  17315  0
16665  16985  17323  0
16665  17323  17316  0
16665  17316  16360  0
16374  17324  16672  0
16678  16987  16990  0
16987  16675  16988  0
16989  16370  17325  0
16676  16677  16374  0
16681  17326  16992  0
16681  16990  17326  0
17327  16677  16991  0
16374  16677  17327  0
17328  16684  16992  0
17329  16993  16995  0
17329  17330  16993  0
16993  17330  16991  0
17327  16991  17330  0
16994  16684  17331  0
16997  17332  17329  0
17329  16995  16997  0
16693  16994  17331  0
16997  16998  17333  0
16999  16693  17334  0
17335  16998  17002  0
17335  17002  17336  0
16998  17000  17002  0
16999  17334  16698  0
17002  17337  17338  0
17002  17338  17336  0
17339  17017  17340  0
17339  17340  17341  0
17339  17342  17017  0
17343  17337  17344  0
17343  17345  17337  0
17338  17337  17345  0
17337  17002  17003  0
17337  17003  17344  0
17346  17006  17011  0
17347  17346  17011  0
17346  17348  17006  0
17349  17006  17348  0
17006  17349  17004  0
17340  17004  17349  0
17004  17340  17008  0
17017  17008  17340  0
17017  17342  17350  0
17351  17350  17342  0
17352  17343  17344  0
17344  17003  17352  0
17353  17352  17003  0
17010  17353  17003  0
17003  17009  17010  0
17013  17020  17354  0
17355  17354  17356  0
17354  17020  17356  0
17354  17012  17013  0
17354  17355  17012  0
17347  17012  17355  0
17012  17347  17011  0
17017  17350  17016  0
17357  17016  17350  0
17350  17351  17357  0
17358  17357  17351  0
17351  17359  17358  0
17360  17358  17359  0
17361  17360  17359  0
17343  17352  17362  0
17363  17352  17353  0
17353  17010  17363  0
17364  17363  17010  0
17365  17022  17366  0
17022  17365  17021  0
17021  17365  17020  0
17356  17020  17365  0
17367  17024  17016  0
17016  17357  17367  0
17358  17367  17357  0
17360  17368  17369  0
17370  17369  17368  0
17360  17361  17368  0
17371  17370  17368  0
17010  17018  17364  0
17019  17372  16714  0
16714  17372  16715  0
17366  17022  16715  0
17031  17024  17367  0
17367  17358  17031  0
17032  17031  17358  0
17358  17360  17032  0
17369  17032  17360  0
17369  17370  17373  0
17374  17373  17370  0
17370  17371  17374  0
17375  17374  17371  0
17018  16708  17376  0
17377  17376  16708  0
17378  16708  17028  0
17028  16710  17378  0
17033  17378  16710  0
17032  17369  17044  0
17041  17044  17369  0
17369  17373  17041  0
17045  17041  17373  0
17373  17374  17045  0
17379  17045  17374  0
17374  17375  17379  0
17378  17377  16708  0
17034  17033  16713  0
17032  17044  17040  0
17380  17045  17379  0
17034  17381  17033  0
17034  16716  17382  0
16716  17047  17382  0
17383  17047  16717  0
16717  16718  17383  0
17045  17380  17049  0
17049  17380  17384  0
17049  17384  17052  0
17052  17384  17385  0
17052  17385  17054  0
17386  16723  16722  0
16732  17054  17056  0
17387  17056  17054  0
17054  17385  17387  0
16722  16407  17059  0
16722  17388  17386  0
16722  17059  17389  0
16722  17389  17388  0
16721  17058  17390  0
16721  17390  17053  0
17056  17387  17391  0
16108  17392  17057  0
16725  17060  17058  0
17056  17391  16743  0
16736  16738  17393  0
16736  17393  17059  0
16738  16739  17394  0
17392  17395  17396  0
17392  17396  17397  0
17392  17397  17057  0
17057  17398  16413  0
16413  17398  16737  0
16737  17398  17060  0
17060  17399  17058  0
17399  17060  17400  0
17399  17400  17058  0
16743  17391  17401  0
16743  17401  17066  0
16739  17061  17394  0
17398  17057  17397  0
17400  17060  17402  0
16746  16747  17403  0
16746  17403  16745  0
16747  17065  17404  0
16747  17404  17403  0
17065  16748  17404  0
16748  17066  17405  0
16748  17405  17404  0
17067  17406  17407  0
17067  17407  17064  0
16429  16750  17070  0
17398  17402  17060  0
17408  17409  17406  0
17410  17406  17409  0
17406  17410  17407  0
16752  16749  17411  0
16749  17070  17411  0
17070  16750  17412  0
16750  17074  17412  0
17069  17413  17072  0
17069  17073  17413  0
16752  17411  17079  0
17411  17070  17414  0
17070  17412  17415  0
17070  17415  17414  0
17072  17413  17416  0
17073  16435  17413  0
17073  16433  16435  0
17077  17417  17418  0
17077  17078  17419  0
17077  17419  17417  0
17078  17420  17419  0
17412  17421  17415  0
17421  17412  17074  0
16754  17422  16753  0
16753  17080  16436  0
17423  17080  16753  0
17424  17080  17423  0
16755  17425  17426  0
16755  17426  16757  0
16755  16756  17425  0
17080  17081  16448  0
17080  17424  17081  0
17424  17427  17081  0
17428  17081  17427  0
17084  17429  16443  0
17081  17428  16762  0
16763  16762  17428  0
17085  16763  17428  0
17428  17430  17085  0
17086  17085  17430  0
17430  17431  17086  0
17087  17086  17431  0
17430  17432  17431  0
17431  17433  17087  0
17083  16757  17426  0
17093  17434  17435  0
17434  17093  17436  0
17094  17436  17093  0
17087  17433  17088  0
16765  17096  17089  0
17437  17089  17096  0
17089  17437  17090  0
17091  16451  17090  0
17092  16767  17091  0
17083  17438  16760  0
17099  17084  16459  0
17103  17435  17102  0
17435  17439  17102  0
17435  17103  17093  0
17094  17104  17440  0
17441  17104  17105  0
17105  17106  17442  0
16775  17442  17106  0
17105  17442  17441  0
17443  17441  17442  0
17442  16775  17088  0
16770  17088  16775  0
17442  17088  17443  0
17444  17443  17088  0
17088  17433  17444  0
17096  17095  17445  0
17096  17445  17437  0
17090  17437  17446  0
17090  17446  17091  0
17091  17447  17092  0
17092  17448  17082  0
17082  17448  17449  0
16760  17438  17098  0
16772  17109  17450  0
17102  17439  17451  0
17102  17451  17100  0
17098  17438  17119  0
17098  17119  17108  0
17109  17110  17452  0
17453  17452  17110  0
17110  17100  17453  0
17100  17451  17453  0
17113  17114  17115  0
17454  17115  17114  0
17114  16782  17454  0
17116  17454  16782  0
17116  16783  17455  0
17456  17455  16783  0
16783  17117  17456  0
17457  17456  17117  0
17118  17457  17117  0
17458  17459  17460  0
17461  17112  17115  0
17115  17454  17461  0
17462  17461  17454  0
17454  17116  17462  0
17455  17462  17116  0
17455  17456  17463  0
17464  17463  17456  0
17456  17457  17464  0
17121  17457  17118  0
17465  17460  17466  0
17466  17460  17467  0
17468  17460  17465  0
17460  17468  17458  0
17458  17469  17470  0
17119  17471  17120  0
17457  17121  17472  0
17466  17473  17474  0
17466  17474  17465  0
17468  17465  17474  0
17475  17458  17468  0
17458  17475  17469  0
17476  17471  17469  0
17471  17476  17120  0
17123  17120  17476  0
17126  17474  17124  0
17474  17473  17477  0
17474  17477  17124  0
17474  17126  17468  0
17128  17468  17126  0
17468  17128  17475  0
17129  17475  17128  0
17475  17129  17469  0
17476  17469  17129  0
17122  16794  17478  0
17125  17478  16794  0
17125  17124  17479  0
17477  17479  17124  0
17129  17130  17476  0
17476  17130  17123  0
17131  17132  16805  0
16814  17135  17480  0
16814  17480  16816  0
16816  17480  17481  0
16816  17481  16817  0
16817  17481  16818  0
17482  17483  17145  0
17482  17145  17143  0
17482  17143  17484  0
17482  17484  17485  0
17483  17486  17145  0
17487  17486  17488  0
17135  17134  17139  0
17135  17139  17489  0
17135  17489  17480  0
17480  17489  17490  0
17480  17490  17481  0
17481  17490  17491  0
17481  17491  16818  0
16818  17491  17492  0
16818  17492  17136  0
17136  17492  17493  0
17136  17493  17137  0
17137  17493  17494  0
17484  17143  17142  0
17484  17142  17495  0
17484  17495  17496  0
17145  17486  17146  0
17486  17487  17146  0
17139  17138  17152  0
17139  17152  17497  0
17137  17494  17140  0
17498  17141  17140  0
17151  17146  17487  0
17499  17500  17501  0
17499  17502  17500  0
17500  17502  17503  0
17504  17503  17502  0
17141  17498  17147  0
17147  17505  17155  0
17147  17155  17149  0
17147  17498  17505  0
17506  17155  17505  0
17144  17150  17507  0
17144  17507  17508  0
17144  17508  17142  0
17501  17500  17158  0
17501  17158  17509  0
17500  17503  17158  0
17503  17510  17159  0
17503  17159  17158  0
17503  17504  17510  0
17511  17510  17504  0
17510  17512  17513  0
17510  17513  17159  0
17510  17511  17512  0
17514  17512  17511  0
17515  17512  17514  0
17512  17515  17513  0
17155  17516  17156  0
17155  17506  17516  0
17517  17156  17516  0
17507  17518  17508  0
17151  17519  16841  0
17167  16841  17519  0
17509  17158  17520  0
17159  17513  17521  0
17159  17521  17157  0
17513  17515  17521  0
17156  17517  17162  0
17150  17163  17522  0
17150  17522  17507  0
17507  17522  17518  0
17509  17520  17523  0
17158  17157  17524  0
17158  17524  17520  0
17157  17521  17525  0
17157  17525  17524  0
17153  17164  17526  0
17162  17527  17166  0
17162  17517  17527  0
17523  17520  17528  0
17520  17524  17529  0
17520  17529  17528  0
17525  17521  17530  0
17164  17531  17526  0
17166  17527  17169  0
16844  16846  17532  0
16844  17532  17163  0
17163  17532  17533  0
17163  17533  17522  0
17167  17534  16847  0
17528  17529  17535  0
17524  17525  17536  0
17524  17536  17529  0
17525  17530  17536  0
17537  17536  17530  0
17170  17531  17164  0
17527  17538  17169  0
17539  17169  17538  0
17540  16847  17534  0
17536  17541  17529  0
17536  17537  17541  0
17542  17541  17537  0
17170  17173  17531  0
17172  17169  17539  0
17174  16846  16544  0
16846  17174  17532  0
17543  17532  17174  0
16847  17540  16548  0
17535  17529  17544  0
17529  17541  17544  0
17171  17172  17176  0
17545  17174  16547  0
16856  16548  17540  0
17546  16854  17176  0
17547  17179  17181  0
17179  17547  17183  0
17548  17183  17547  0
16853  16852  17175  0
17177  17549  17173  0
17546  17178  16854  0
17180  17190  17181  0
17183  17548  17185  0
17550  17185  17548  0
17175  17186  17187  0
17175  17187  16853  0
16858  17195  17177  0
17549  17177  17195  0
17189  17198  17190  0
17190  17198  17551  0
17185  17550  17552  0
17185  17552  17191  0
17195  17553  17549  0
17197  17554  17198  0
16859  17203  17195  0
17195  17203  17553  0
17197  17555  17554  0
17554  17555  17556  0
17191  17552  17200  0
17201  17557  16869  0
17558  17201  17202  0
16869  17557  17193  0
17194  17559  16860  0
17196  17560  16872  0
17207  16872  17560  0
17560  17555  17207  0
17208  17207  17555  0
17555  17197  17208  0
17561  17200  17562  0
17552  17562  17200  0
17561  17562  17563  0
17564  17558  17202  0
17561  17217  17200  0
17209  17200  17217  0
17561  17563  17217  0
17202  17210  17564  0
17565  17564  17210  0
17566  17565  17210  0
17567  17211  17212  0
17212  17213  17567  0
17216  17215  17206  0
17217  17563  17222  0
17222  17563  17568  0
17210  17211  17566  0
17567  17566  17211  0
17567  17213  17569  0
17570  17569  17213  0
17213  17214  17570  0
17215  17570  17214  0
17219  17215  17216  0
17571  17223  17222  0
17571  17222  17572  0
17573  17570  17215  0
17215  17219  17573  0
17218  17573  17219  0
17574  17575  17223  0
17230  17223  17575  0
17571  17574  17223  0
17225  17223  17230  0
17573  17576  17577  0
17573  17218  17576  0
17575  17578  17230  0
17576  17579  17577  0
17576  17218  17579  0
17218  17232  17579  0
17578  17229  17230  0
17579  17232  17580  0
17232  17226  17238  0
17227  17228  17581  0
17228  17582  17581  0
17228  17234  17582  0
17578  17583  17235  0
17578  17235  17229  0
17578  17575  17583  0
17232  17238  17584  0
17232  17584  17580  0
17238  17231  17242  0
17238  17242  17584  0
17233  17227  17585  0
17233  17585  17239  0
17227  17586  17585  0
17227  17581  17586  0
17582  17234  17587  0
17234  17241  17587  0
17235  17583  17588  0
17235  17588  17236  0
17242  17589  17584  0
17242  17237  17245  0
17242  17245  17589  0
17239  17585  17590  0
17241  17243  17246  0
17241  17246  17591  0
17241  17591  17587  0
17245  17592  17589  0
16900  17239  17590  0
17246  17248  17593  0
17246  17593  17594  0
17246  17594  17591  0
16897  17236  16596  0
16906  16934  17595  0
17247  17249  17248  0
17249  16596  17596  0
16917  16900  17267  0
16918  17597  17251  0
17598  17251  17597  0
17259  17261  17260  0
16632  17267  17599  0
17597  16918  17258  0
17268  17600  16931  0
17261  17270  17601  0
17261  17601  17260  0
17260  17601  17602  0
17260  17602  17262  0
17262  17602  17603  0
17262  17603  17272  0
16634  17258  16624  0
16931  17600  17274  0
17604  17274  17600  0
17274  17604  17275  0
17605  17275  17604  0
17275  17605  17276  0
17282  17270  17271  0
17270  17282  17601  0
17606  17601  17282  0
17601  17606  17602  0
17607  17602  17606  0
17602  17608  17603  0
17602  17607  17608  0
17609  17608  17607  0
17610  17272  17603  0
17272  17610  17265  0
17611  17265  17610  0
17265  17611  17273  0
17278  17273  17611  0
16932  17278  17279  0
17612  16940  17279  0
16942  17280  16634  0
17613  17282  17283  0
17608  17609  17603  0
17614  17603  17609  0
17603  17614  17610  0
17615  17279  17278  0
17612  17279  17615  0
17284  16338  17616  0
16338  17285  17616  0
17617  17286  16948  0
16948  16955  17618  0
17291  17618  16955  0
16948  17618  17617  0
17619  17618  17291  0
17620  17287  17281  0
17283  17288  17613  0
17621  17290  16947  0
16947  17284  17621  0
17291  17292  17619  0
17622  17619  17292  0
17292  17294  17622  0
17623  17622  17294  0
17294  17287  17623  0
17620  17623  17287  0
17288  17295  17613  0
17624  17613  17295  0
17625  17289  17290  0
17295  17296  17624  0
17626  17624  17296  0
17296  17299  17626  0
17289  17627  17301  0
17289  17625  17627  0
17624  17626  17628  0
17629  17628  17626  0
17626  17299  17629  0
16970  17299  17297  0
17297  16966  16970  0
17300  17301  17302  0
17630  17302  17301  0
17629  17299  17631  0
17632  17631  17299  0
17299  16970  17633  0
17299  17633  17632  0
17634  17305  16968  0
16968  17303  17634  0
17635  17303  17304  0
17304  17302  17635  0
17636  17635  17302  0
17637  17636  17302  0
17302  17630  17637  0
16351  16970  16966  0
17305  17306  16969  0
17305  17638  17306  0
17633  16970  17308  0
17309  17633  17308  0
17638  17639  17306  0
17306  17639  17640  0
17306  17640  17307  0
17309  17311  17641  0
17311  16972  17641  0
17642  17641  16972  0
17307  17643  17310  0
16972  17313  17642  0
17644  17642  17313  0
17313  17321  17644  0
17645  17644  17321  0
17645  17315  17646  0
17647  17646  17315  0
17315  17314  17647  0
17648  17647  17314  0
17312  17310  17643  0
17316  17649  16667  0
16977  16667  17650  0
16977  17650  16973  0
16978  16973  17651  0
16978  17651  17317  0
17317  17651  17652  0
17317  17652  16979  0
16979  17652  17318  0
17318  17653  17319  0
17321  17315  17645  0
16985  17654  17323  0
17323  17654  17655  0
17316  17323  17649  0
17314  16672  17324  0
17312  17656  16984  0
16976  16984  16985  0
17654  16985  17657  0
16370  16671  17325  0
16984  17658  16985  0
16985  17658  17657  0
16987  17659  16990  0
16988  17660  16987  0
16988  16373  17661  0
16988  17661  17660  0
16373  16989  17661  0
17662  17663  17664  0
17662  17327  17665  0
17662  17665  17663  0
17662  16374  17327  0
17662  17664  17324  0
17662  17324  16374  0
17326  16990  17659  0
17666  17667  17330  0
17666  17668  17665  0
17666  17665  17667  0
17667  17327  17330  0
17667  17665  17327  0
16992  17326  17328  0
17329  17669  17330  0
17666  17330  17669  0
17329  17332  17670  0
17329  17670  17669  0
16684  17328  17331  0
17332  16997  17671  0
17332  17671  17672  0
17332  17672  17670  0
17671  17673  17674  0
17672  17671  17675  0
17671  17674  17675  0
17671  16997  17333  0
17671  17333  17673  0
17675  17674  17345  0
17674  17673  17335  0
17674  17335  17345  0
17673  17333  16998  0
17673  16998  17335  0
17345  17335  17336  0
17676  17675  17343  0
17676  17343  17677  0
17676  17677  17678  0
17675  17345  17343  0
17345  17336  17338  0
17679  16698  17334  0
17341  17340  17680  0
17341  17680  17339  0
17339  17681  17342  0
17682  17342  17681  0
17342  17682  17351  0
17683  17347  17355  0
17684  17346  17347  0
17346  17684  17348  0
17685  17348  17684  0
17348  17685  17349  0
17686  17349  17685  0
17349  17686  17340  0
17680  17340  17686  0
17351  17682  17359  0
17687  17359  17682  0
17677  17343  17688  0
17689  17690  17365  0
17690  17356  17365  0
17691  17356  17690  0
17356  17691  17355  0
17683  17355  17691  0
17359  17687  17361  0
17692  17361  17687  0
17688  17693  17677  0
17343  17362  17688  0
17352  17363  17364  0
17352  17364  17362  0
16698  17679  17019  0
17694  17366  17695  0
17366  17372  17695  0
17366  16715  17372  0
17696  17366  17694  0
17366  17696  17365  0
17689  17365  17696  0
17697  17698  17699  0
17699  17700  17697  0
17361  17692  17368  0
17371  17368  17692  0
17701  17688  17362  0
17362  17364  17701  0
17702  17701  17364  0
17364  17018  17702  0
17376  17702  17018  0
17695  17019  17679  0
17019  17695  17372  0
17703  17704  17705  0
17706  17705  17704  0
17707  17708  17704  0
17704  17708  17706  0
17709  17706  17708  0
17708  17707  17710  0
17708  17710  17709  0
17711  17709  17710  0
17712  17699  17713  0
17713  17699  17714  0
17699  17712  17700  0
17715  17700  17712  0
17700  17715  17716  0
17717  17716  17715  0
17700  17716  17697  0
17371  17697  17716  0
17716  17717  17371  0
17375  17371  17717  0
17718  17693  17688  0
17688  17701  17718  0
17719  17718  17701  0
17701  17702  17719  0
17702  17376  17720  0
17702  17720  17719  0
17721  17719  17720  0
17377  17720  17376  0
17722  17723  17724  0
17703  17724  17723  0
17725  17703  17723  0
17703  17725  17704  0
17726  17704  17725  0
17727  17704  17726  0
17704  17727  17707  0
17707  17727  17710  0
17728  17710  17727  0
17710  17728  17713  0
17710  17713  17711  0
17714  17711  17713  0
17712  17713  17728  0
17715  17729  17717  0
17730  17717  17729  0
17717  17730  17375  0
17379  17375  17730  0
17720  17377  17721  0
17731  17721  17377  0
17377  17378  17732  0
17378  17033  17732  0
17381  17732  17033  0
17733  17722  17734  0
17722  17733  17723  0
17735  17723  17733  0
17723  17735  17725  0
17726  17725  17735  0
17736  17727  17737  0
17727  17736  17728  0
17738  17728  17736  0
17728  17738  17712  0
17712  17738  17715  0
17739  17715  17738  0
17715  17739  17729  0
17740  17729  17739  0
17729  17740  17730  0
17741  17730  17740  0
17730  17741  17379  0
17380  17379  17741  0
17377  17732  17731  0
17742  17731  17732  0
17732  17381  17742  0
17034  17382  17381  0
17743  17744  17734  0
17745  17734  17744  0
17734  17745  17733  0
17746  17733  17745  0
17733  17746  17735  0
17747  17735  17746  0
17735  17747  17726  0
17737  17726  17747  0
17726  17737  17727  0
17739  17748  17740  0
17741  17384  17380  0
17741  17740  17749  0
17741  17749  17384  0
17382  17742  17381  0
17051  17050  17750  0
17744  17751  17752  0
17744  17752  17745  0
17745  17752  17746  0
17746  17752  17753  0
17746  17753  17747  0
17747  17753  17754  0
17747  17754  17737  0
17737  17755  17736  0
17736  17755  17756  0
17736  17756  17738  0
17738  17756  17757  0
17738  17757  17739  0
17748  17739  17757  0
17384  17749  17758  0
17050  17759  17750  0
17050  17053  17759  0
17751  17760  17752  0
17753  17752  17761  0
17753  17761  17754  0
17737  17754  17762  0
17737  17762  17755  0
17384  17758  17385  0
17053  17763  17759  0
17752  17760  17761  0
17754  17761  17762  0
17762  17764  17755  0
17385  17765  17387  0
16723  17386  17055  0
17053  17390  17766  0
17053  17766  17763  0
17760  17767  17761  0
17387  17765  17768  0
17387  17768  17391  0
17389  17059  17393  0
17389  17393  17769  0
17389  17769  17388  0
17391  17768  17770  0
17393  16738  17394  0
17393  17394  17771  0
17393  17771  17769  0
17772  17773  17774  0
17395  17774  17396  0
17058  17775  17390  0
17058  17400  17775  0
17405  17776  17777  0
17405  17777  17404  0
17776  17405  17066  0
17776  17066  17401  0
17776  17401  17778  0
17391  17770  17401  0
17771  17394  17779  0
17394  17061  17064  0
17394  17064  17780  0
17394  17780  17781  0
17394  17781  17779  0
17774  17782  17396  0
17397  17396  17783  0
17397  17783  17398  0
17400  17402  17784  0
17400  17784  17785  0
17400  17785  17775  0
17785  17784  17786  0
17785  17787  17775  0
17785  17786  17788  0
16434  16745  17789  0
16434  17789  17790  0
16745  17403  17791  0
16745  17791  17789  0
17780  17064  17407  0
17780  17407  17410  0
17780  17410  17792  0
17780  17792  17781  0
17402  17793  17784  0
17786  17784  17793  0
16434  17790  16754  0
17409  17792  17410  0
17783  17794  17398  0
17402  17398  17794  0
17408  17418  17417  0
17408  17417  17795  0
17408  17795  17409  0
17417  17796  17795  0
17078  17079  17797  0
17078  17797  17798  0
17078  17798  17420  0
17799  17420  17798  0
17079  17411  17797  0
17411  17414  17800  0
17422  16754  17801  0
17417  17419  17796  0
17802  17796  17419  0
17419  17420  17802  0
17799  17802  17420  0
17411  17800  17803  0
17415  17800  17414  0
17804  17421  17074  0
17074  17072  17804  0
17072  17416  17804  0
17805  17804  17416  0
17416  17413  17805  0
17413  16435  17805  0
16445  17805  16435  0
17423  16753  17422  0
17806  17807  17800  0
17800  17415  17806  0
17808  17806  17415  0
17415  17421  17808  0
17421  17809  17808  0
17421  17804  17810  0
17811  17810  17804  0
17804  17805  17811  0
17427  17424  17423  0
17423  17812  17427  0
17813  17427  17812  0
16759  17082  17814  0
17426  17425  17815  0
17816  17425  16756  0
16756  16442  17816  0
17817  17816  16442  0
16442  16443  17817  0
17429  17817  16443  0
17427  17813  17428  0
17430  17428  17813  0
17813  17818  17430  0
17432  17430  17818  0
17819  17432  17818  0
17432  17819  17431  0
17820  17431  17819  0
17821  17426  17815  0
17429  17084  17822  0
17436  17823  17434  0
17823  17436  17824  0
17824  17436  17825  0
17440  17825  17436  0
17431  17820  17433  0
17826  17433  17820  0
17433  17826  17444  0
17827  17444  17826  0
17426  17821  17083  0
17828  17435  17434  0
17436  17094  17440  0
17829  17830  17440  0
17440  17104  17829  0
17441  17829  17104  0
17829  17441  17831  0
17832  17831  17441  0
17441  17443  17832  0
17833  17832  17443  0
17827  17833  17444  0
17450  17099  16772  0
17435  17828  17834  0
17435  17834  17439  0
17443  17444  17833  0
17835  17095  17097  0
17095  17836  17445  0
17445  17837  17437  0
17437  17837  17446  0
17446  17447  17091  0
17448  17092  17447  0
17438  17083  17838  0
17439  17834  17839  0
17439  17839  17451  0
17097  17107  17835  0
17840  17835  17107  0
17447  17446  17841  0
17447  17841  17448  0
17838  17842  17438  0
17119  17438  17842  0
17452  17450  17109  0
17451  17839  17843  0
17451  17843  17453  0
17107  17112  17840  0
17844  17840  17112  0
17467  17460  17845  0
17459  17845  17460  0
17459  17458  17470  0
17459  17470  17846  0
17842  17846  17470  0
17842  17470  17471  0
17842  17471  17119  0
17452  17453  17847  0
17843  17847  17453  0
17112  17461  17844  0
17848  17844  17461  0
17461  17462  17848  0
17849  17848  17462  0
17462  17455  17849  0
17455  17463  17850  0
17455  17850  17849  0
17463  17464  17851  0
17463  17851  17852  0
17463  17852  17853  0
17463  17853  17850  0
17464  17457  17472  0
17464  17472  17851  0
17470  17469  17471  0
17472  17121  17122  0
17472  17122  17854  0
17472  17854  17851  0
17473  17855  17856  0
17473  17856  17479  0
17854  17122  17857  0
17122  17478  17858  0
17122  17858  17857  0
17479  17477  17473  0
17478  17125  17859  0
17478  17859  17858  0
17125  17479  17859  0
17860  17861  17483  0
17860  17862  17861  0
17861  17863  17483  0
17860  17482  17485  0
17860  17485  17864  0
17860  17864  17865  0
17860  17483  17482  0
17483  17863  17486  0
17863  17866  17486  0
17496  17485  17484  0
17496  17867  17864  0
17496  17864  17485  0
17496  17868  17867  0
17486  17866  17488  0
17866  17869  17488  0
17870  17502  17871  0
17490  17872  17873  0
17490  17873  17491  0
17490  17489  17872  0
17491  17873  17874  0
17491  17874  17492  0
17492  17874  17875  0
17492  17875  17493  0
17493  17875  17494  0
17496  17495  17868  0
17488  17869  17876  0
17877  17871  17502  0
17870  17878  17504  0
17870  17504  17502  0
17139  17497  17879  0
17139  17879  17489  0
17489  17879  17880  0
17489  17880  17872  0
17494  17881  17140  0
17140  17881  17882  0
17140  17882  17883  0
17140  17883  17498  0
17495  17142  17884  0
17487  17488  17876  0
17487  17876  17151  0
17877  17502  17499  0
17514  17885  17515  0
17514  17886  17885  0
17887  17885  17886  0
17885  17888  17515  0
17885  17887  17888  0
17498  17883  17505  0
17889  17505  17883  0
17505  17889  17506  0
17142  17508  17884  0
17151  17876  17519  0
17890  17519  17876  0
17877  17499  17501  0
17877  17501  17891  0
17877  17891  17892  0
17877  17892  17893  0
17504  17894  17511  0
17888  17895  17515  0
17152  17153  17896  0
17152  17896  17497  0
17497  17896  17879  0
17897  17516  17506  0
17516  17897  17517  0
17891  17501  17898  0
17501  17509  17898  0
17515  17899  17521  0
17899  17515  17895  0
17153  17526  17896  0
17900  17517  17901  0
17519  17890  17167  0
17898  17509  17523  0
17521  17899  17530  0
17517  17900  17527  0
17902  17527  17900  0
17167  17890  17534  0
17530  17899  17903  0
17904  17526  17531  0
17527  17902  17538  0
17530  17903  17537  0
17542  17537  17903  0
17905  17542  17903  0
17906  17539  17538  0
17543  17533  17532  0
17534  17890  17540  0
17523  17528  17907  0
17908  17907  17528  0
17528  17535  17909  0
17910  17542  17905  0
17531  17173  17904  0
17172  17539  17906  0
17172  17906  17176  0
17911  17176  17906  0
17528  17909  17908  0
17544  17909  17535  0
17912  17541  17542  0
17542  17910  17912  0
17913  17904  17173  0
17545  17543  17174  0
17909  17544  17914  0
17915  17914  17544  0
17544  17541  17915  0
17916  17915  17541  0
17541  17912  17916  0
17911  17546  17176  0
17917  17181  17918  0
17181  17919  17918  0
17181  17917  17547  0
17920  17548  17547  0
17921  16547  16855  0
17922  16856  17540  0
17915  17916  17923  0
17924  17912  17925  0
17926  17173  17549  0
17178  17546  17556  0
17181  17190  17919  0
17551  17919  17190  0
17548  17920  17550  0
17927  17550  17920  0
16855  17192  17921  0
16856  17922  17186  0
17928  17186  17922  0
17186  17928  17187  0
17929  17923  17916  0
17916  17912  17929  0
17924  17929  17912  0
17930  17926  17549  0
17551  17198  17931  0
17550  17927  17552  0
17553  17930  17549  0
17178  17556  17196  0
17562  17552  17932  0
17927  17932  17552  0
17933  17192  17193  0
17934  17553  17203  0
17196  17556  17560  0
17560  17556  17555  0
17201  17558  17557  0
17935  17557  17558  0
17557  17933  17193  0
17557  17935  17933  0
17559  16875  16860  0
17559  17923  16875  0
16875  17923  17936  0
16875  17936  17937  0
17938  17568  17562  0
17563  17562  17568  0
16875  17937  16876  0
16876  17937  17934  0
16876  17934  17203  0
17938  17939  17568  0
17940  17564  17565  0
17222  17568  17572  0
17572  17568  17939  0
17565  17566  17940  0
17941  17940  17566  0
17566  17567  17942  0
17566  17942  17941  0
17567  17569  17942  0
17943  17942  17569  0
17572  17574  17571  0
17942  17944  17941  0
17942  17943  17944  0
17569  17570  17945  0
17569  17945  17943  0
17570  17573  17945  0
17945  17946  17943  0
17945  17573  17577  0
17945  17577  17947  0
17945  17947  17946  0
17574  17948  17575  0
17577  17579  17949  0
17577  17949  17947  0
17579  17580  17949  0
17580  17950  17951  0
17580  17951  17949  0
17580  17584  17952  0
17580  17952  17950  0
17584  17953  17952  0
17583  17954  17588  0
17584  17589  17953  0
17585  17586  17590  0
17582  17587  17955  0
17582  17955  17956  0
17582  17956  17581  0
17587  17591  17955  0
17588  17957  17236  0
16900  17590  17599  0
17591  17594  17955  0
17958  17236  17957  0
17236  17958  16596  0
17245  16906  17595  0
17245  17595  17592  0
17594  17593  17959  0
16596  17958  17596  0
17960  17596  17958  0
17595  16934  17266  0
17593  17248  17961  0
17593  17961  17959  0
17248  17249  17962  0
17248  17962  17961  0
17249  17596  17960  0
17249  17960  17962  0
17251  17598  17963  0
16900  17599  17267  0
17599  16941  16632  0
17597  17258  17964  0
17269  17965  17268  0
17600  17268  17965  0
17600  17966  17604  0
17605  17604  17966  0
17967  17280  16941  0
17967  17959  17280  0
17968  17280  17959  0
16634  17969  17258  0
17964  17258  17969  0
17605  17970  17276  0
17971  17276  17970  0
17276  17971  17277  0
17972  17277  17971  0
17973  17606  17282  0
17606  17973  17607  0
17609  17607  17973  0
16940  17612  17266  0
17280  17974  16634  0
17277  17972  17281  0
17975  17281  17972  0
17282  17613  17973  0
17976  17973  17613  0
17973  17977  17609  0
17973  17976  17977  0
17978  17977  17976  0
17609  17979  17614  0
17609  17977  17979  0
17980  17611  17610  0
17981  17611  17980  0
17611  17981  17278  0
17982  17278  17981  0
17278  17982  17615  0
17983  17617  17618  0
17618  17619  17983  0
17984  17983  17619  0
17619  17622  17984  0
17985  17984  17622  0
17281  17975  17620  0
17986  17610  17614  0
17610  17986  17980  0
17987  17621  17284  0
17284  17616  17987  0
17622  17623  17985  0
17620  17985  17623  0
17613  17624  17976  0
17988  17976  17624  0
17290  17621  17625  0
17989  17625  17621  0
17624  17628  17988  0
17990  17988  17628  0
17625  17989  17627  0
17991  17627  17989  0
17628  17629  17992  0
17631  17992  17629  0
17628  17992  17990  0
17993  17990  17992  0
17634  17303  17994  0
17635  17994  17303  0
17994  17635  17995  0
17636  17995  17635  0
17301  17627  17630  0
17996  17630  17627  0
17627  17991  17996  0
17992  17631  17997  0
17992  17997  17993  0
17998  17993  17997  0
17631  17632  17997  0
17636  17637  17999  0
18000  17637  17630  0
17630  17996  18000  0
18001  17998  17997  0
17997  17632  18002  0
17633  18002  17632  0
17997  18002  18003  0
17997  18003  18001  0
18004  18003  18002  0
18005  18001  18003  0
18002  17633  18004  0
17309  18004  17633  0
17639  17638  18006  0
18003  18004  18005  0
18007  18005  18004  0
18004  17309  17641  0
18004  17641  18007  0
17639  18008  17640  0
17641  17642  18009  0
18010  18009  17642  0
18011  18012  17647  0
17647  17648  18011  0
17307  17640  18013  0
17640  18008  18014  0
17640  18014  18013  0
17642  17644  18010  0
18015  18010  17644  0
17644  17645  17646  0
17644  17646  18015  0
17646  17647  18015  0
17643  17307  18013  0
17649  18016  16667  0
16667  18016  17650  0
16973  17650  17651  0
17651  18017  17652  0
17652  18017  18018  0
17652  18018  17318  0
17318  18018  17653  0
17319  17653  18019  0
17319  18019  16983  0
16983  18019  18020  0
16983  18020  18021  0
16983  18021  17320  0
17320  18021  18022  0
17320  18022  16670  0
18013  18023  17643  0
18024  17643  18023  0
18013  18014  18023  0
17312  17643  18024  0
18025  17323  17655  0
17323  18025  17649  0
16670  17325  16671  0
16670  18022  18026  0
16670  18026  17325  0
18027  17314  17324  0
18027  17648  17314  0
17655  18028  18029  0
17655  18029  18025  0
17655  17654  18028  0
17325  18026  18030  0
18027  17324  17664  0
18027  17664  18031  0
18024  18032  17312  0
17312  18032  17656  0
16987  17660  18033  0
17661  16989  18034  0
16989  17325  18030  0
16989  18030  18034  0
18035  17663  17665  0
18035  17665  17668  0
18035  17668  18036  0
17656  18037  16984  0
16984  18037  17658  0
17659  18038  17326  0
16987  18033  17659  0
17668  17669  18039  0
17668  18039  18036  0
17668  17666  17669  0
18032  18040  17656  0
17656  18040  18037  0
17326  18038  18041  0
17326  18041  17328  0
17672  17669  17670  0
17672  18042  17669  0
18039  17669  18042  0
17331  17328  18043  0
17328  18044  18043  0
17328  18041  18044  0
18045  18042  17675  0
18042  17672  17675  0
18046  17331  18043  0
18045  17675  17676  0
18045  17676  17678  0
16693  17331  18046  0
16693  18046  17334  0
17678  17677  18047  0
17339  17680  18048  0
17339  18048  17681  0
18049  17347  17683  0
18049  17683  17691  0
18049  18050  17347  0
17684  17347  18050  0
17684  18051  17685  0
18052  17685  18051  0
17685  18052  17686  0
17686  18052  17680  0
18053  17680  18052  0
17680  18053  18054  0
17680  18054  18048  0
18048  18054  18055  0
18048  18055  17681  0
17681  18055  18056  0
17681  18056  17682  0
17682  18056  17687  0
17696  18057  17689  0
17696  18058  18057  0
17689  18057  17690  0
18059  17690  18057  0
17690  18059  17691  0
18049  17691  18059  0
18060  18061  18062  0
18060  18062  18063  0
18060  18063  18051  0
18063  18052  18051  0
18063  18053  18052  0
18064  18053  18063  0
18053  18064  18054  0
18054  18064  18055  0
17698  18055  18064  0
18055  17698  18056  0
17697  18056  17698  0
18056  17697  17687  0
17692  17687  17697  0
17677  17693  18047  0
18065  17694  17695  0
17694  18066  17696  0
18067  17696  18066  0
18058  17696  18067  0
18068  18069  17705  0
18068  17705  18070  0
17706  18070  17705  0
18061  18068  18070  0
18070  17706  18061  0
18061  17706  18062  0
17709  18062  17706  0
18062  17709  18063  0
18071  18063  17709  0
18063  18071  18064  0
17714  18064  18071  0
18064  17714  17698  0
17699  17698  17714  0
17371  17692  17697  0
18072  17036  18073  0
17679  18074  17695  0
18065  17695  18074  0
18075  17724  18076  0
18069  18076  17724  0
17724  17703  17705  0
17724  17705  18069  0
17709  17711  18071  0
17714  18071  17711  0
18077  17718  17719  0
17721  18077  17719  0
18078  17035  17036  0
18072  18078  17036  0
18079  17035  18078  0
18075  18080  18081  0
18082  18081  18080  0
18081  17722  18075  0
18075  17722  17724  0
18083  17693  17718  0
17718  18077  18083  0
18082  17743  18081  0
17734  18081  17743  0
18081  17734  17722  0
18079  16718  17035  0
17744  17743  18084  0
18084  17743  18082  0
17749  17740  17748  0
18085  18086  17742  0
17742  17382  18085  0
18087  18085  17382  0
18088  18087  17382  0
17382  17047  18088  0
17047  17383  18088  0
17751  17744  18089  0
17744  18084  18089  0
18090  17748  17757  0
17748  18090  17749  0
17758  17749  18090  0
17757  18091  18090  0
17758  18090  18092  0
17758  18092  17385  0
17751  18093  17760  0
17751  18089  18093  0
17762  17761  18094  0
17762  18094  17764  0
17755  17764  17756  0
17756  18095  17757  0
17385  18092  18096  0
17385  18096  17765  0
18093  18097  17760  0
17761  17767  18098  0
17761  18098  18094  0
17765  18096  18099  0
17765  18099  17768  0
17760  18097  17767  0
17767  18097  18100  0
17768  18099  17770  0
17769  17771  17779  0
17769  17779  18101  0
17769  18101  17388  0
17779  18102  18101  0
17777  18103  17404  0
17776  17778  18104  0
17776  18104  17777  0
17401  17770  17778  0
17779  17781  18102  0
17773  18105  18106  0
17773  18106  17774  0
17774  18106  17782  0
17396  17782  17783  0
17785  17788  17787  0
17404  18103  17403  0
17781  17792  18107  0
17781  18107  18102  0
17402  17794  17793  0
17793  17794  18108  0
17793  18108  17786  0
16754  17790  17801  0
17792  17409  17795  0
17792  17795  18109  0
17792  18109  18107  0
17783  18110  17794  0
17794  18111  18108  0
18108  18111  17786  0
17786  18111  17788  0
17795  17796  18112  0
17795  18112  18109  0
17797  18113  17798  0
17797  17411  17803  0
17797  17803  18113  0
17801  18114  17422  0
17796  17802  18112  0
17802  17799  18115  0
17802  18115  18112  0
17798  18113  18116  0
17798  18116  17799  0
17803  17800  17807  0
17805  16759  17811  0
17805  16445  16759  0
17422  18117  17423  0
17422  18114  18117  0
18117  17812  17423  0
17807  18118  17803  0
17421  17810  17809  0
17811  16759  17814  0
17812  18119  17818  0
17812  17818  17813  0
17807  17806  18120  0
17807  18120  18118  0
17806  17808  18120  0
17808  17809  18121  0
17809  17810  18121  0
17810  18122  18121  0
17810  17811  18122  0
17818  18123  17819  0
17826  17820  17819  0
18124  17434  17823  0
18124  17823  18125  0
17824  18125  17823  0
17825  17440  17830  0
18126  17825  17830  0
18127  18126  17830  0
17830  17829  18127  0
18128  18127  17829  0
17829  17831  18128  0
17082  17449  18129  0
17821  18130  17083  0
18131  17083  18130  0
17828  17434  18124  0
17831  17832  18128  0
18132  18128  17832  0
17832  17833  18132  0
18133  18132  17833  0
17833  17827  18133  0
18134  18129  17449  0
17099  17450  18135  0
18136  18135  17450  0
18124  18137  17828  0
17095  18138  17836  0
17445  17836  17837  0
18139  17837  17836  0
17448  18134  17449  0
17838  17083  18131  0
17837  18140  17446  0
17446  18140  17841  0
17841  18141  17448  0
17448  18141  18134  0
17845  17459  17846  0
17845  17846  18142  0
17842  18131  17846  0
17846  18131  18142  0
18131  17842  17838  0
17450  17452  18136  0
17452  17847  18136  0
17839  18143  17843  0
17839  17834  18144  0
17839  18144  18143  0
18143  18144  18145  0
18143  18145  17843  0
17467  17845  18146  0
18147  17844  17848  0
17848  17849  18147  0
17473  17466  17855  0
18146  17855  17466  0
17466  17467  18146  0
18148  17850  17853  0
17853  17852  18149  0
17853  18149  18148  0
17854  17852  17851  0
18150  18149  17852  0
17852  17854  18150  0
18151  18150  17854  0
17854  17857  18151  0
17479  17856  17859  0
17857  17858  18152  0
17865  18153  17862  0
17861  17862  18154  0
17861  18154  18155  0
18155  18154  18156  0
17860  17865  17862  0
17861  18155  17863  0
17866  17863  18155  0
18155  18156  17866  0
18157  17866  18156  0
17865  17864  17867  0
17865  17867  18158  0
17866  18157  17869  0
18159  18160  17870  0
18159  17870  17871  0
18159  18161  18160  0
17867  17868  18162  0
17869  18157  18163  0
17871  17877  18164  0
17871  18164  18165  0
17871  18165  18166  0
18160  18167  17878  0
18160  17878  17870  0
17887  18168  18169  0
18169  18170  17888  0
18169  17888  17887  0
18170  17895  17888  0
17895  18170  18171  0
17873  17872  18172  0
17875  18173  17881  0
17875  17881  17494  0
17875  17874  18174  0
17875  18174  18173  0
18173  18175  17882  0
18173  17882  17881  0
17868  17495  18176  0
17868  18176  18162  0
17869  18163  17876  0
17895  18171  18177  0
17882  18175  18178  0
17882  18178  17883  0
17495  17884  18179  0
17495  18179  18176  0
17876  18163  18180  0
18164  17877  17893  0
17878  17894  17504  0
17878  18167  18181  0
17878  18181  17894  0
17886  17514  17894  0
17872  17880  18172  0
18182  17889  17883  0
17889  17897  17506  0
17889  18182  17897  0
18183  17897  18182  0
17876  18180  17890  0
17511  17894  17514  0
17879  17896  18184  0
17879  18184  17880  0
17897  18183  17901  0
17897  17901  17517  0
18185  17901  18183  0
17884  17508  18186  0
17895  18177  17899  0
17901  18185  17900  0
17508  17518  18186  0
17890  18180  18187  0
17891  17898  18188  0
17891  18188  18189  0
17891  18189  17892  0
18190  17899  18177  0
17526  18191  17896  0
17896  18191  18184  0
18188  17898  17907  0
18188  18192  18189  0
17898  17523  17907  0
17899  18190  17903  0
17905  17903  18190  0
17526  17904  18191  0
18191  18193  18184  0
18194  18195  18196  0
18194  18197  18195  0
18198  17538  17902  0
17522  17533  18199  0
17522  18199  17518  0
17890  18187  17540  0
18194  18196  18200  0
18201  18200  18196  0
17906  17538  18198  0
17533  17543  18199  0
17907  17908  18202  0
18203  17910  17905  0
18191  17904  18204  0
17906  18205  17911  0
18206  17908  17909  0
17904  17913  18204  0
18207  18200  18201  0
18194  18200  18208  0
18209  18194  18210  0
18211  17911  18205  0
18212  17917  17918  0
18213  17917  18212  0
17917  18213  17547  0
18214  17547  18213  0
17543  17545  18215  0
17914  18216  17909  0
17909  18216  18206  0
17912  17910  17925  0
17910  18203  17925  0
18217  17925  18203  0
18218  18204  17913  0
18200  18207  18208  0
18210  18194  18208  0
18219  18209  18210  0
17546  17911  18220  0
18211  18220  17911  0
17547  18214  17920  0
18221  17920  18214  0
17921  17545  16547  0
17173  17926  17913  0
18218  17913  17926  0
18222  18208  18207  0
18219  18210  18208  0
18220  17556  17546  0
18223  17919  17931  0
17551  17931  17919  0
17920  18221  17927  0
18224  17927  18221  0
18225  17928  17922  0
17559  17914  17915  0
17194  17188  17914  0
17915  17923  17559  0
18226  17929  17924  0
17924  17925  18227  0
18217  18227  17925  0
17924  18227  18226  0
18208  18228  18219  0
17198  17554  17931  0
18229  17931  17554  0
18224  17932  17927  0
17928  18230  17187  0
17187  18230  17188  0
17914  17559  17194  0
17936  17923  17929  0
17929  18226  17936  0
18226  18227  18231  0
17930  18232  17926  0
18208  18222  18233  0
18208  18233  18228  0
18234  18219  18228  0
18220  17554  17556  0
18220  18229  17554  0
17562  17932  18235  0
17192  17933  18236  0
17937  17936  18226  0
18226  18231  17937  0
18237  17553  17934  0
17553  18237  18238  0
17553  18238  17930  0
18235  17938  17562  0
17933  17935  18239  0
