#!ascii file
36541  36347  36341  0
36341  36538  36542  0
36341  36542  36541  0
36337  36543  36544  0
36337  36544  36527  0
36337  36125  36543  0
36350  36543  36125  0
36127  36545  36129  0
36546  36127  36348  0
36352  36546  36348  0
36342  36539  36547  0
36342  36547  36349  0
36343  36345  36540  0
36548  36345  36344  0
36344  36347  36548  0
36541  36548  36347  0
36545  36351  36129  0
36352  36353  36549  0
36349  36547  36354  0
36350  36355  36550  0
36351  36545  36551  0
36351  36551  36356  0
36353  36357  36552  0
36553  36552  36357  0
36554  35947  36131  0
36131  36356  36554  0
36357  36359  36553  0
36555  36553  36359  0
36359  36360  36555  0
36362  36361  36556  0
36358  36556  36361  0
36366  36363  36364  0
36557  36368  36558  0
36161  36558  36368  0
36559  36368  36557  0
36368  36559  36364  0
36560  36364  36559  0
36364  36560  36366  0
36369  36366  36560  0
36561  36558  36562  0
36563  36562  36558  0
36557  36558  36561  0
36558  36161  36563  0
36166  36563  36161  0
36560  36564  36369  0
36565  36369  36564  0
36369  36566  36154  0
36371  36154  36566  0
36369  36565  36566  0
36159  36567  36374  0
36159  36373  36567  0
36568  36375  36374  0
36375  36568  36376  0
36569  36376  36568  0
36570  36571  36572  0
36573  36572  36571  0
36563  36574  36562  0
36561  36562  36575  0
36562  36574  36575  0
36576  36575  36574  0
36577  36373  36372  0
36376  36569  36165  0
36384  36165  36569  0
36380  36379  36571  0
36571  36379  36573  0
36578  36573  36379  0
36571  36570  36380  0
36382  36380  36570  0
36570  36579  36382  0
36383  36382  36579  0
36570  36580  36579  0
36576  36579  36580  0
36579  36574  36383  0
36581  36383  36574  0
36579  36576  36574  0
36574  36563  36581  0
36386  36581  36563  0
36563  36166  36386  0
36566  36582  36371  0
36387  36371  36582  0
36371  36387  36377  0
36372  36378  36577  0
36379  36381  36578  0
36386  36383  36581  0
36386  36166  36173  0
36582  36388  36387  0
36387  36389  36377  0
36583  36377  36389  0
36377  36583  36378  0
36384  36584  36385  0
36578  36381  36585  0
36381  36390  36585  0
36586  36585  36390  0
35972  36385  36391  0
36393  36586  36390  0
36586  36393  36587  0
36588  36587  36393  0
36589  36388  36590  0
36388  36589  36389  0
36391  36591  36392  0
36393  36394  36588  0
36401  36588  36394  0
36588  36401  36592  0
36405  36592  36401  0
36592  36405  36593  0
36594  36187  36395  0
36396  36397  36179  0
36595  36179  36397  0
36179  36595  36399  0
36596  36398  36399  0
36400  36398  36596  0
36405  36406  36597  0
36408  36597  36406  0
36597  36408  36598  0
36409  36598  36408  0
36598  36409  36599  0
36407  36187  36594  0
36397  36403  36600  0
36397  36600  36595  0
36595  36600  36601  0
36595  36601  36399  0
36399  36601  36602  0
36399  36602  36596  0
36409  36411  36599  0
36403  36412  36600  0
36601  36600  36603  0
36601  36603  36602  0
36404  36604  36196  0
36404  36196  36192  0
36404  36400  36604  0
36605  36196  36604  0
36411  36410  36606  0
36410  36607  36606  0
36196  36605  36414  0
36608  36414  36605  0
36410  36413  36607  0
36609  36186  36407  0
36186  36609  36203  0
36610  36203  36609  0
36412  36416  36611  0
36412  36603  36600  0
36412  36611  36603  0
36414  36608  36415  0
36417  36415  36608  0
36203  36610  36206  0
36417  36612  36418  0
36426  36418  36612  0
36413  36419  36613  0
36614  36206  36610  0
36206  36614  36420  0
36416  36615  36611  0
36430  36426  36616  0
36617  36421  36420  0
36421  36617  36422  0
36424  36422  36617  0
36423  36615  36416  0
36426  36430  36224  0
36429  36430  36618  0
36427  36619  36212  0
36419  36212  36619  0
36424  36620  36428  0
36621  36428  36620  0
36619  36427  36622  0
36427  36431  36622  0
36432  36428  36621  0
36432  36621  36623  0
36432  36623  36433  0
36425  36434  36624  0
36434  36625  36624  0
36435  36433  36626  0
36435  36626  36436  0
36434  36227  36438  0
36434  36438  36625  0
36627  36628  36629  0
36627  36629  36630  0
36429  36631  36230  0
36230  36631  36632  0
36230  36632  36013  0
36437  36436  36633  0
36437  36633  36634  0
36437  36634  36439  0
36438  36018  36635  0
36628  36636  36629  0
36439  36634  36440  0
36018  36242  36635  0
36627  36637  36638  0
36242  36442  36635  0
36638  36639  36640  0
36638  36640  36627  0
36628  36640  36636  0
36636  36640  36641  0
36627  36640  36628  0
36231  36441  36021  0
36021  36441  36642  0
36021  36642  36443  0
36639  36643  36640  0
36443  36642  36644  0
36643  36645  36640  0
36443  36644  36646  0
36443  36646  36447  0
36644  36642  36647  0
36255  36648  36649  0
36255  36649  36445  0
36445  36649  36446  0
36246  36447  36451  0
36646  36644  36647  0
36449  36450  36650  0
36255  36449  36648  0
36454  36651  36450  0
36454  36453  36652  0
35835  36452  36457  0
36448  36455  36653  0
36448  36653  36453  0
36453  36653  36652  0
36654  36655  36656  0
36654  36656  36657  0
36654  36657  36658  0
36654  36658  36659  0
36657  36656  36660  0
36653  36455  36661  0
36653  36661  36662  0
36653  36662  36663  0
36653  36663  36652  0
36662  36661  36664  0
36662  36664  36665  0
36662  36665  36666  0
36662  36666  36663  0
36665  36664  36667  0
36665  36668  36666  0
36665  36667  36669  0
36665  36669  36668  0
36669  36667  36670  0
36669  36670  36655  0
36669  36655  36654  0
36671  36661  36455  0
36661  36671  36664  0
36672  36664  36671  0
36664  36672  36667  0
36670  36673  36655  0
36655  36673  36656  0
36656  36674  36660  0
36270  36456  36675  0
36458  36463  36455  0
36469  36455  36463  0
36455  36469  36671  0
36667  36672  36676  0
36667  36676  36670  0
36670  36676  36673  0
36673  36677  36656  0
36656  36677  36678  0
36656  36678  36674  0
36270  36675  36467  0
36469  36679  36680  0
36469  36680  36671  0
36469  36471  36679  0
36671  36680  36681  0
36671  36681  36672  0
36275  36467  36682  0
36275  36682  36473  0
36481  36473  36682  0
36473  36481  36474  0
36480  36474  36481  0
36483  36474  36480  0
36474  36483  36468  0
36282  36468  36483  0
36468  36282  36475  0
36683  36476  36477  0
36477  36465  36683  0
36684  36683  36465  0
36465  36478  36684  0
36682  36685  36481  0
36482  36481  36685  0
36686  36679  36471  0
36471  36476  36686  0
36687  36686  36476  0
36476  36683  36687  0
36472  36054  36478  0
36685  36485  36482  0
36484  36482  36485  0
36478  36054  36284  0
36285  36485  36688  0
36688  36485  36685  0
36688  36487  36285  0
36688  36689  36487  0
36487  36690  36486  0
36287  36065  36691  0
36490  36491  36692  0
36693  36692  36491  0
36490  36692  36694  0
36490  36694  36492  0
36489  36492  36695  0
36489  36695  36292  0
36696  36073  36486  0
36491  36493  36693  0
36697  36493  36495  0
36495  36496  36697  0
36698  36697  36496  0
36696  36497  36073  0
36496  36300  36699  0
36496  36699  36698  0
36700  36497  36696  0
36701  36500  36702  0
36703  36702  36500  0
36300  36704  36699  0
36300  36498  36704  0
36705  36704  36498  0
36304  36303  36706  0
36707  36306  36497  0
36306  36707  36499  0
36499  36707  36500  0
36703  36500  36707  0
36312  36500  36701  0
36091  36312  36701  0
36701  36708  36091  0
36709  36091  36708  0
36498  36501  36705  0
36710  36705  36501  0
36309  36304  36711  0
36706  36711  36304  0
36309  36711  36504  0
36305  36316  36712  0
36713  36712  36316  0
36091  36709  36502  0
36714  36502  36709  0
36501  36503  36710  0
36711  36715  36504  0
36316  36505  36713  0
36502  36714  36507  0
36716  36507  36714  0
36503  36508  36717  0
36718  36717  36508  0
36508  36089  36718  0
36509  36718  36089  0
36314  36510  36719  0
36720  36512  36504  0
36504  36715  36720  0
36721  36505  36513  0
36722  36517  36323  0
36323  36322  36722  0
36723  36722  36322  0
36322  36325  36724  0
36327  36724  36325  0
36322  36724  36723  0
36725  36723  36724  0
36724  36327  36507  0
36724  36507  36725  0
36716  36725  36507  0
36503  36717  36726  0
36727  36726  36717  0
36717  36718  36727  0
36719  36509  36314  0
36514  36719  36510  0
36510  36511  36514  0
36728  36318  36512  0
36512  36729  36728  0
36730  36728  36729  0
36513  36319  36731  0
36513  36731  36721  0
36732  36721  36731  0
36319  36320  36731  0
36733  36731  36320  0
36515  36733  36320  0
36734  36518  36735  0
36718  36509  36736  0
36737  36736  36509  0
36509  36719  36737  0
36719  36514  36737  0
36522  36102  36318  0
36318  36728  36522  0
36738  36732  36731  0
36731  36733  36738  0
36739  36738  36733  0
36733  36515  36739  0
36740  36739  36515  0
36515  36516  36740  0
36329  36324  36518  0
36522  36728  36730  0
36522  36730  36741  0
36520  36521  36742  0
36518  36734  36329  0
36743  36329  36734  0
36744  36519  36330  0
36522  36741  36523  0
36521  36525  36745  0
36329  36743  36331  0
36528  36331  36743  0
36330  36526  36744  0
36523  36741  36524  0
36746  36524  36741  0
36525  36527  36544  0
36525  36544  36747  0
36528  36748  36529  0
36749  36530  36529  0
36530  36750  36338  0
36530  36749  36750  0
36750  36534  36338  0
36750  36751  36534  0
36752  36534  36751  0
36524  36746  36533  0
36534  36752  36535  0
36536  36753  36531  0
36526  36531  36753  0
36536  36537  36753  0
36533  36754  36538  0
36533  36746  36755  0
36533  36755  36754  0
36535  36752  36756  0
36535  36756  36757  0
36535  36757  36539  0
36758  36539  36757  0
36538  36754  36759  0
36538  36759  36542  0
36543  36350  36760  0
36127  36761  36545  0
36762  36545  36761  0
36127  36546  36761  0
36546  36352  36549  0
36546  36549  36761  0
36763  36547  36539  0
36763  36539  36758  0
36763  36758  36764  0
36765  36763  36764  0
36540  36345  36766  0
36345  36548  36767  0
36345  36767  36766  0
36541  36542  36768  0
36541  36768  36548  0
36549  36353  36552  0
36549  36552  36769  0
36549  36769  36761  0
36769  36552  36770  0
36763  36765  36547  0
36771  36547  36765  0
36547  36771  36354  0
36772  36354  36771  0
36550  36355  36773  0
36355  35947  36774  0
36355  36774  36775  0
36355  36775  36773  0
36774  35947  36554  0
36774  36554  36776  0
36774  36776  36775  0
36554  36356  36551  0
36554  36551  36777  0
36554  36777  36776  0
36551  36545  36777  0
36552  36553  36778  0
36552  36778  36770  0
36354  36772  36358  0
36779  36358  36772  0
36553  36555  36780  0
36553  36780  36778  0
36781  36358  36779  0
36556  36358  36781  0
36782  36783  36784  0
36782  36561  36783  0
36782  36557  36561  0
36782  36785  36557  0
36786  36557  36785  0
36557  36786  36559  0
36787  36559  36786  0
36559  36788  36564  0
36559  36564  36560  0
36559  36787  36789  0
36559  36789  36788  0
36790  36791  36568  0
36790  36568  36374  0
36790  36792  36791  0
36793  36794  36570  0
36793  36570  36572  0
36793  36572  36795  0
36794  36783  36796  0
36794  36796  36570  0
36794  36793  36784  0
36794  36784  36783  0
36783  36561  36575  0
36783  36575  36796  0
36788  36797  36566  0
36788  36566  36564  0
36788  36789  36797  0
36564  36566  36565  0
36567  36792  36790  0
36567  36790  36374  0
36567  36373  36798  0
36567  36798  36792  0
36568  36791  36799  0
36568  36799  36569  0
36572  36573  36800  0
36572  36800  36795  0
36570  36796  36580  0
36796  36576  36580  0
36796  36575  36576  0
36797  36582  36566  0
36373  36577  36798  0
36569  36801  36802  0
36569  36802  36384  0
36569  36799  36801  0
36573  36578  36800  0
36582  36803  36804  0
36577  36378  36805  0
36384  36802  36584  0
36578  36585  36806  0
36804  36807  36590  0
36804  36590  36582  0
36582  36590  36388  0
36584  36802  36808  0
36584  36808  36385  0
36585  36586  36806  0
36583  36389  36809  0
36391  36385  36591  0
36385  36808  36591  0
36587  36588  36810  0
36807  36811  36590  0
36590  36811  36589  0
36591  36812  36392  0
36588  36592  36813  0
36588  36813  36810  0
36592  36593  36813  0
36392  36812  36395  0
36593  36405  36597  0
36593  36597  36814  0
36814  36597  36598  0
36598  36599  36814  0
36599  36411  36815  0
36411  36606  36815  0
36596  36816  36400  0
36596  36602  36817  0
36400  36816  36818  0
36400  36818  36604  0
36604  36818  36605  0
36603  36817  36602  0
36607  36413  36819  0
36609  36820  36610  0
36608  36821  36612  0
36608  36612  36417  0
36608  36605  36822  0
36608  36822  36821  0
36610  36820  36823  0
36611  36824  36603  0
36611  36825  36824  0
36612  36616  36426  0
36612  36821  36826  0
36612  36826  36616  0
36413  36613  36819  0
36610  36827  36614  0
36610  36823  36827  0
36611  36615  36825  0
36616  36828  36618  0
36616  36618  36430  0
36614  36829  36420  0
36420  36829  36830  0
36420  36830  36617  0
36617  36830  36424  0
36618  36831  36429  0
36618  36828  36832  0
36618  36832  36831  0
36425  36624  36423  0
36423  36624  36833  0
36834  36833  36624  0
36630  36835  36836  0
36631  36429  36831  0
36831  36837  36631  0
36831  36838  36837  0
36839  36622  36431  0
36622  36840  36619  0
36623  36621  36841  0
36624  36625  36834  0
36630  36629  36835  0
36837  36632  36631  0
36632  36837  36842  0
36013  36632  36842  0
36842  36431  36013  0
36842  36839  36431  0
36436  36626  36843  0
36623  36626  36433  0
36844  36834  36625  0
36845  36637  36630  0
36627  36630  36637  0
36641  36846  36629  0
36633  36847  36634  0
36625  36438  36844  0
36848  36844  36438  0
36635  36848  36438  0
36629  36636  36641  0
36634  36849  36440  0
36850  36848  36635  0
36442  36850  36635  0
36851  36850  36442  0
36639  36638  36852  0
36442  36444  36851  0
36645  36853  36640  0
36854  36851  36444  0
36852  36855  36639  0
36647  36642  36856  0
36642  36441  36856  0
36857  36856  36441  0
36858  36647  36856  0
36859  36856  36857  0
36856  36859  36858  0
36860  36858  36859  0
36854  36446  36861  0
36446  36649  36861  0
36446  36854  36444  0
36639  36855  36643  0
36862  36858  36860  0
36648  36861  36649  0
36855  36863  36643  0
36645  36864  36865  0
36646  36647  36866  0
36867  36866  36647  0
36646  36866  36447  0
36868  36447  36866  0
36647  36858  36867  0
36862  36867  36858  0
36450  36651  36650  0
36869  36449  36650  0
36449  36869  36648  0
36643  36870  36645  0
36871  36645  36870  0
36864  36645  36871  0
36452  36451  36872  0
36868  36872  36451  0
36451  36447  36868  0
36454  36873  36651  0
36454  36652  36873  0
36874  36658  36657  0
36875  36874  36657  0
36657  36660  36875  0
36452  36876  36457  0
36652  36663  36873  0
36877  36873  36663  0
36663  36666  36877  0
36878  36877  36666  0
36666  36668  36878  0
36659  36878  36668  0
36668  36669  36659  0
36654  36659  36669  0
36659  36658  36879  0
36880  36660  36674  0
36881  36882  36880  0
36883  36672  36681  0
36672  36883  36676  0
36884  36676  36883  0
36676  36884  36673  0
36885  36673  36884  0
36673  36885  36677  0
36880  36674  36678  0
36886  36681  36680  0
36681  36887  36883  0
36681  36886  36887  0
36884  36883  36887  0
36885  36888  36677  0
36889  36677  36888  0
36677  36889  36678  0
36880  36890  36881  0
36682  36467  36891  0
36467  36675  36891  0
36892  36680  36679  0
36680  36892  36886  0
36687  36683  36893  0
36687  36893  36894  0
36687  36894  36895  0
36687  36895  36686  0
36683  36684  36893  0
36891  36685  36682  0
36891  36688  36685  0
36893  36684  36896  0
36684  36478  36284  0
36684  36284  36896  0
36896  36284  36287  0
36896  36287  36691  0
36689  36690  36487  0
36897  36486  36690  0
36292  36898  36065  0
36691  36065  36898  0
36899  36492  36694  0
36492  36899  36695  0
36900  36695  36899  0
36695  36900  36292  0
36486  36897  36696  0
36693  36493  36697  0
36693  36901  36692  0
36697  36698  36902  0
36697  36902  36693  0
36698  36699  36704  0
36698  36704  36903  0
36698  36903  36902  0
36696  36904  36700  0
36700  36707  36497  0
36700  36904  36905  0
36700  36905  36707  0
36707  36905  36703  0
36702  36703  36906  0
36702  36906  36701  0
36701  36907  36708  0
36701  36906  36907  0
36907  36908  36708  0
36907  36909  36908  0
36908  36910  36911  0
36908  36909  36912  0
36908  36912  36910  0
36910  36912  36911  0
36704  36705  36903  0
36708  36908  36709  0
36908  36911  36913  0
36908  36913  36709  0
36911  36914  36913  0
36706  36303  36915  0
36303  36305  36915  0
36305  36712  36916  0
36305  36916  36915  0
36709  36913  36714  0
36711  36917  36715  0
36722  36723  36918  0
36722  36918  36919  0
36722  36919  36517  0
36723  36920  36921  0
36723  36921  36918  0
36920  36723  36725  0
36920  36725  36922  0
36920  36922  36923  0
36920  36923  36921  0
36922  36725  36716  0
36922  36716  36714  0
36714  36913  36924  0
36714  36924  36922  0
36913  36914  36924  0
36503  36726  36710  0
36512  36720  36925  0
36512  36925  36729  0
36720  36715  36917  0
36720  36917  36926  0
36505  36721  36927  0
36505  36927  36713  0
36735  36518  36517  0
36735  36517  36928  0
36735  36928  36929  0
36726  36727  36930  0
36727  36718  36736  0
36727  36736  36930  0
36729  36931  36730  0
36729  36925  36931  0
36925  36720  36926  0
36925  36932  36931  0
36930  36736  36933  0
36930  36933  36934  0
36930  36934  36726  0
36736  36737  36935  0
36736  36935  36933  0
36737  36514  36519  0
36732  36738  36936  0
36732  36936  36937  0
36732  36937  36938  0
36732  36938  36721  0
36738  36739  36939  0
36738  36939  36936  0
36739  36940  36939  0
36739  36740  36940  0
36516  36520  36742  0
36516  36742  36740  0
36933  36935  36941  0
36935  36737  36941  0
36737  36942  36941  0
36737  36519  36942  0
36730  36943  36741  0
36730  36931  36943  0
36944  36938  36937  0
36937  36936  36945  0
36936  36939  36946  0
36936  36946  36945  0
36940  36947  36948  0
36940  36948  36939  0
36940  36740  36949  0
36940  36949  36947  0
36740  36742  36949  0
36742  36745  36949  0
36742  36521  36745  0
36942  36519  36744  0
36741  36943  36950  0
36741  36950  36746  0
36944  36937  36951  0
36944  36951  36952  0
36937  36945  36951  0
36946  36939  36948  0
36946  36953  36945  0
36525  36747  36745  0
36743  36954  36528  0
36744  36526  36942  0
36746  36950  36955  0
36951  36945  36953  0
36951  36953  36956  0
36951  36956  36952  0
36748  36957  36529  0
36529  36957  36958  0
36529  36958  36749  0
36749  36958  36959  0
36749  36959  36750  0
36750  36959  36960  0
36750  36960  36751  0
36526  36753  36942  0
36752  36751  36756  0
36753  36537  36961  0
36755  36746  36955  0
36755  36955  36962  0
36963  36764  36757  0
36758  36757  36764  0
36963  36757  36964  0
36963  36964  36965  0
36963  36965  36966  0
36963  36966  36764  0
36757  36756  36964  0
36537  36540  36961  0
36967  36961  36540  0
36542  36759  36768  0
36968  36768  36759  0
36759  36754  36968  0
36969  36968  36754  0
36754  36755  36969  0
36543  36970  36971  0
36543  36971  36544  0
36543  36760  36970  0
36972  36970  36760  0
36761  36973  36762  0
36769  36973  36761  0
36764  36966  36974  0
36764  36974  36765  0
36540  36766  36967  0
36975  36766  36767  0
36767  36548  36975  0
36976  36975  36548  0
36548  36768  36976  0
36350  36550  36760  0
36773  36760  36550  0
36760  36773  36972  0
36977  36972  36773  0
36762  36978  36545  0
36765  36974  36771  0
36773  36775  36977  0
36979  36977  36775  0
36775  36776  36979  0
36980  36776  36777  0
36777  36545  36980  0
36978  36980  36545  0
36770  36778  36981  0
36982  36779  36772  0
36778  36780  36981  0
36983  36981  36780  0
36779  36982  36781  0
36984  36781  36982  0
36781  36984  36556  0
36782  36784  36785  0
36985  36785  36784  0
36785  36985  36786  0
36986  36786  36985  0
36786  36986  36787  0
36789  36787  36986  0
36793  36795  36784  0
36987  36784  36795  0
36784  36987  36985  0
36988  36985  36987  0
36989  36985  36988  0
36985  36989  36986  0
36990  36986  36989  0
36986  36990  36789  0
36797  36789  36990  0
36792  36798  36991  0
36992  36795  36800  0
36795  36992  36987  0
36993  36987  36992  0
36994  36987  36993  0
36987  36994  36988  0
36995  36988  36994  0
36988  36995  36989  0
36803  36989  36995  0
36989  36803  36990  0
36990  36803  36797  0
36582  36797  36803  0
36577  36805  36798  0
36991  36798  36805  0
36996  36801  36799  0
36997  36801  36996  0
36800  36998  36992  0
36999  36993  36992  0
36993  36999  36994  0
37000  36994  36999  0
36994  37000  36995  0
36803  36995  37000  0
36801  36997  36802  0
37001  36802  36997  0
36578  36806  36800  0
37002  36800  36806  0
36800  37002  36998  0
37003  36998  37002  0
36998  37003  36992  0
37004  36992  37003  0
36992  37004  36999  0
36999  37004  37000  0
37005  37000  37004  0
37000  37005  36803  0
36804  36803  37005  0
36583  37006  36378  0
36809  37006  36583  0
37007  36808  36802  0
36802  37001  37007  0
37008  36806  36586  0
36586  36587  37008  0
37009  37008  36587  0
36808  37007  36591  0
37010  36591  37007  0
36587  36810  37009  0
37011  37009  36810  0
36810  36813  37011  0
36804  37012  36807  0
37013  36809  36389  0
36812  36591  37010  0
37014  36813  36593  0
36814  37014  36593  0
36807  37015  36811  0
36589  37013  36389  0
36395  36812  37016  0
36599  37014  36814  0
37014  36599  36815  0
37016  36594  36395  0
36815  36606  37017  0
36607  37017  36606  0
37018  37017  36607  0
36594  37019  36407  0
36596  37020  36816  0
37021  36816  37020  0
36596  36817  37020  0
36824  37020  36817  0
36816  37021  36818  0
37022  36818  37021  0
36818  37022  36605  0
37023  36605  37022  0
36819  37018  36607  0
36609  36407  37019  0
37019  36820  36609  0
36603  36824  36817  0
36822  36605  37023  0
36826  36821  36822  0
36822  37024  36826  0
36820  37025  36823  0
36827  36823  37025  0
36824  36825  37026  0
36828  36616  36826  0
36826  37027  36828  0
36832  36828  37027  0
36819  36613  37028  0
37029  37026  36825  0
37030  36832  37027  0
36613  37031  37028  0
36827  37032  36614  0
36614  37032  36829  0
36620  36424  36830  0
36423  36833  36615  0
37033  36615  36833  0
36615  37033  36825  0
37029  36825  37033  0
36845  37034  37035  0
37034  36630  36836  0
37036  37037  36836  0
36836  36835  37036  0
36832  37030  36831  0
36838  36831  37030  0
37030  37038  36838  0
36619  36840  36419  0
37039  36419  36840  0
36419  37039  36613  0
36830  37040  36620  0
36621  36620  37040  0
37041  36833  36834  0
37034  36845  36630  0
36835  36629  37042  0
36835  37042  37036  0
36838  36839  36842  0
36838  36842  36837  0
36838  37038  36839  0
36622  37039  36840  0
37039  37031  36613  0
37043  36843  36626  0
37043  36626  36623  0
37043  37044  36843  0
36623  36841  37043  0
36834  37045  37041  0
37046  36845  37047  0
36629  36846  37042  0
36843  36633  36436  0
37048  36633  36843  0
36834  36844  37049  0
36834  37049  37045  0
36845  37046  37050  0
36847  36633  37048  0
37050  36637  36845  0
36849  36634  36847  0
36848  36850  37051  0
37050  37052  36638  0
37050  36638  36637  0
36850  37053  37051  0
37052  36852  36638  0
36641  36640  37054  0
37053  36850  36851  0
36852  37052  37055  0
36640  36853  37054  0
36851  36854  37053  0
36853  36645  37056  0
36441  36440  37057  0
37057  36857  36441  0
37058  36854  36861  0
37058  36861  37059  0
36855  37060  36863  0
36645  37061  37056  0
36857  37057  37062  0
36857  37062  36859  0
36859  37063  37064  0
36859  37064  36860  0
36859  37062  37063  0
37063  37062  37065  0
37063  37065  37066  0
37067  36861  36648  0
37067  36648  37068  0
37067  37068  37069  0
36861  37067  37059  0
36863  37060  37070  0
36645  36865  37061  0
37064  37063  37066  0
37064  37071  36860  0
36650  37072  37073  0
36650  37073  36869  0
36869  37073  37068  0
36869  37068  36648  0
36863  37074  36870  0
36863  36870  36643  0
36866  37075  36868  0
36867  36862  36866  0
36862  36860  37071  0
36651  37072  36650  0
36651  36873  37072  0
36872  36868  36876  0
36872  36876  36452  0
36868  37075  36876  0
36873  36877  37072  0
36878  36659  36879  0
36878  36879  37076  0
36878  37076  37077  0
36879  37078  37079  0
36879  37079  37076  0
37078  36879  36658  0
36658  36874  37080  0
36658  37080  37078  0
36875  36660  37081  0
37074  37082  36870  0
36870  37083  36871  0
36870  37082  37083  0
36871  37083  36864  0
36864  37084  36865  0
36877  36878  37077  0
37081  36660  37085  0
37083  37086  36864  0
36864  37086  37084  0
36457  37087  36456  0
36457  36876  37087  0
36660  36880  36882  0
36660  36882  37085  0
36456  37087  36675  0
36881  36890  37088  0
36887  37089  36884  0
36887  37090  37089  0
36884  37089  37091  0
36884  37091  36885  0
36885  37091  36888  0
36888  37091  37092  0
36678  36889  37093  0
36678  37093  36880  0
36880  37093  36890  0
36892  37094  36886  0
36886  37094  37090  0
36886  37090  36887  0
36890  37093  37095  0
36890  37096  37088  0
36679  36686  37097  0
36679  37097  36892  0
36686  36895  37097  0
37093  37098  37095  0
36891  37099  36688  0
36891  37100  37099  0
36893  36896  36894  0
37101  36894  36896  0
37102  37098  37093  0
37102  37093  37103  0
37098  37104  37095  0
37105  37095  37104  0
37095  37096  36890  0
36689  36688  37099  0
37106  37104  37102  0
37102  37104  37098  0
36689  37099  37107  0
36896  36691  37101  0
36898  37101  36691  0
37108  37104  37106  0
37104  37109  37105  0
36690  36689  37110  0
36689  37107  37110  0
37104  37108  37111  0
37104  37111  37109  0
36292  36900  36898  0
37101  36898  37112  0
36898  36900  37112  0
37113  37112  36900  0
37114  36696  36897  0
36692  37115  36694  0
37116  36694  37115  0
36692  36901  37115  0
36694  37116  36899  0
36899  37116  36900  0
37113  36900  37116  0
37117  36901  36693  0
36693  36902  37117  0
37118  37117  36902  0
37119  37120  37121  0
36905  37122  36703  0
37122  36906  36703  0
37122  37123  36906  0
36907  36906  37124  0
36906  37123  37124  0
37125  37124  37123  0
37124  36909  36907  0
37124  37125  36909  0
37126  36909  37125  0
36912  36909  37126  0
37126  37127  36912  0
37128  36912  37127  0
36902  36903  37118  0
37129  37130  37131  0
37132  37119  37131  0
37119  37132  37120  0
36912  37128  36911  0
37133  36911  37128  0
36903  36705  37118  0
37134  37118  36705  0
37135  37136  37129  0
37130  37129  37136  0
37132  37131  37130  0
37137  37120  37132  0
37120  37137  37138  0
36911  37133  36914  0
36705  36710  37134  0
37135  37139  37136  0
37135  37140  37139  0
37130  37141  37132  0
37142  37138  37137  0
37143  36706  36915  0
37144  36918  36921  0
36923  37144  36921  0
37144  36923  37145  0
36922  37145  36923  0
37145  36922  37146  0
36924  37146  36922  0
37145  37146  37147  0
37148  37147  37146  0
37146  36924  36914  0
37146  36914  37148  0
37133  37148  36914  0
37149  37134  36710  0
37150  37130  37136  0
37130  37150  37141  0
37151  37132  37141  0
37132  37151  37137  0
37152  36917  36711  0
36711  36706  37143  0
36711  37143  37152  0
37153  36916  36712  0
36712  36713  37153  0
37154  37153  36713  0
36517  36919  36928  0
37149  36710  36726  0
37139  37155  37136  0
37150  37136  37155  0
37150  37156  37141  0
37157  37141  37156  0
37141  37157  37151  0
37158  37137  37151  0
36713  36927  37159  0
36713  37159  37154  0
37150  37160  37156  0
37161  37156  37160  0
37158  37151  37157  0
36925  36926  36932  0
36926  36917  37162  0
36926  37162  36932  0
36927  36721  37159  0
37163  37159  36721  0
36929  37164  36735  0
36734  36735  37164  0
36726  36934  37149  0
37165  37149  36934  0
37166  37156  37161  0
37156  37166  37157  0
37158  37157  37166  0
37167  36931  36932  0
37162  37168  36932  0
36932  37168  37167  0
36721  36938  37163  0
37169  37163  36938  0
37170  36734  37164  0
36743  36734  37170  0
37171  37165  36934  0
36931  37167  36943  0
37172  37167  37168  0
37173  36948  36947  0
36947  36949  37173  0
37174  37173  36949  0
36949  36745  37174  0
36743  37175  36954  0
37176  37171  36934  0
36934  36933  37176  0
37177  37176  36933  0
36933  36941  37177  0
37178  37177  36941  0
36942  37178  36941  0
37167  36950  36943  0
37179  36938  36944  0
36946  36948  36953  0
37180  36953  36948  0
36948  37173  37180  0
37173  37174  37181  0
37182  37181  37174  0
37173  37181  37180  0
37183  37182  37174  0
37174  36745  37183  0
37184  36528  36954  0
36528  37184  36748  0
36957  36748  37184  0
37184  36958  36957  0
37184  37185  36958  0
37186  36958  37185  0
36958  37186  36959  0
37187  36959  37186  0
36960  36959  37187  0
37176  37188  37171  0
36950  37167  37189  0
36950  37189  36955  0
36944  36952  37179  0
36956  36953  37190  0
36953  37180  37190  0
36745  36747  37183  0
36960  37191  36751  0
37176  37177  37192  0
37176  37192  37188  0
37177  37178  37193  0
37177  37193  37194  0
37177  37194  37192  0
37178  36942  36753  0
37178  36753  37193  0
36955  37189  37195  0
36955  37195  37196  0
36955  37196  37197  0
36747  36544  37198  0
36756  37191  36964  0
36756  36751  37191  0
37193  36753  36961  0
37193  36961  37199  0
37193  37199  37194  0
36969  37200  37201  0
37200  36969  36755  0
37200  36755  36962  0
36962  36955  37197  0
36962  37197  37200  0
36544  36971  37198  0
36965  36964  37202  0
36965  37202  37203  0
36965  37203  36966  0
36961  36967  37204  0
36961  37204  37199  0
36976  36768  37205  0
36976  37205  37206  0
36976  37206  37207  0
36768  36968  37205  0
36970  37208  36971  0
36970  36972  37209  0
36970  37209  37208  0
36973  37210  37211  0
36973  36769  37212  0
36973  37212  37210  0
36966  37203  37213  0
36966  37213  36974  0
36967  36766  37214  0
36967  37214  37204  0
36766  36975  37214  0
36975  36976  37207  0
36972  36977  37209  0
36978  36762  37211  0
36978  37211  36980  0
36762  36973  37211  0
36769  36770  37212  0
36770  36981  37215  0
36770  37215  37212  0
36974  37216  36772  0
36974  36772  36771  0
36974  37213  37217  0
36974  37217  37216  0
36776  36980  37218  0
36776  37218  36979  0
36981  36983  37219  0
36981  37219  37220  0
36981  37220  37215  0
37219  36983  37221  0
37219  37221  37216  0
37219  37216  37217  0
37219  37217  37220  0
37216  37221  36982  0
37216  36982  36772  0
36983  37222  37221  0
37221  37222  37223  0
37221  37223  36982  0
36982  37223  36984  0
36792  36991  37224  0
36791  36792  37225  0
36791  37225  37226  0
36791  37226  36799  0
36805  37227  36991  0
36805  36378  37228  0
36805  37228  37227  0
36799  37226  36996  0
36378  37006  37228  0
36806  37008  37002  0
37002  37229  37003  0
37002  37008  37229  0
37003  37229  37230  0
37003  37230  37004  0
37004  37230  37231  0
37004  37231  37005  0
37001  36997  37232  0
37005  37231  37233  0
37005  37233  36804  0
37001  37232  37234  0
37001  37234  37007  0
37009  37011  37235  0
37233  37012  36804  0
37012  37015  36807  0
37010  37007  37234  0
37010  37234  37236  0
36813  37014  37237  0
36813  37237  37011  0
36811  37015  36589  0
36589  37015  37013  0
37016  36812  37238  0
36812  37010  37236  0
36812  37236  37238  0
36815  37239  37014  0
36594  37016  37019  0
37019  37016  36820  0
37016  37240  36820  0
37020  37241  37242  0
37020  37242  37021  0
36820  37240  37025  0
37243  37020  36824  0
37021  37244  37022  0
36824  37026  37243  0
37023  37024  36822  0
37023  37245  37024  0
37024  37246  37027  0
37024  37027  36826  0
37024  37247  37246  0
36819  37028  37248  0
37025  37249  36827  0
37026  37250  37251  0
37250  37252  37253  0
37246  37254  37027  0
37246  37255  37254  0
36827  37256  37032  0
37026  37029  37250  0
37252  37250  37029  0
37252  37035  37253  0
37034  37253  37035  0
37253  37034  37257  0
36836  37257  37034  0
37257  36836  37037  0
37027  37254  37030  0
37038  37030  37254  0
37254  37258  37038  0
37254  37255  37258  0
36839  37038  37258  0
37258  37255  37259  0
37260  37028  37031  0
37032  37256  36829  0
36829  37261  36830  0
37041  37033  36833  0
37033  37262  37029  0
37029  37262  37252  0
37252  37263  37035  0
36622  36839  37258  0
37258  37264  36622  0
37039  36622  37264  0
37264  37265  37039  0
37266  37039  37265  0
37267  37260  37031  0
36830  37261  37040  0
37268  37040  37261  0
37040  36841  36621  0
37040  37268  36841  0
37035  37047  36845  0
37035  37263  37047  0
37269  37047  37263  0
37270  37036  37042  0
37039  37266  37031  0
37271  37031  37266  0
37031  37271  37267  0
37043  37272  37044  0
37043  36841  37268  0
37047  37269  37046  0
36846  37270  37042  0
36843  37044  37273  0
37272  37273  37044  0
36843  37273  37048  0
37041  37045  37274  0
37269  37275  37046  0
37276  37046  37275  0
37271  37266  37277  0
37049  36844  37051  0
36848  37051  36844  0
37050  37046  37276  0
36846  36641  37278  0
36849  36847  37279  0
37280  36849  37279  0
37276  37281  37050  0
37052  37050  37281  0
37282  37281  37276  0
37054  37278  36641  0
37051  37053  37283  0
37281  37282  37052  0
37284  37052  37282  0
37058  37283  37053  0
37055  37052  37284  0
37285  36440  36849  0
37286  37287  37288  0
37289  37288  37287  0
37288  37290  37286  0
36854  37058  37053  0
37291  36852  37055  0
36440  37285  37057  0
37062  37057  37292  0
37057  37285  37292  0
37293  37292  37285  0
37292  37287  37062  0
37065  37062  37287  0
37292  37293  37287  0
37289  37287  37293  0
37294  37065  37287  0
37287  37286  37294  0
37295  37294  37286  0
37286  37290  37295  0
37290  37296  37295  0
37297  37295  37296  0
37067  37069  37298  0
37299  37298  37300  0
37298  37069  37300  0
37301  37300  37069  0
37298  37302  37067  0
37059  37067  37302  0
37298  37299  37302  0
37058  37059  37302  0
36852  37060  36855  0
36852  37291  37060  0
37303  37060  37291  0
37056  37061  37304  0
37065  37294  37066  0
37305  37066  37294  0
37294  37295  37305  0
37306  37305  37295  0
37295  37297  37306  0
37068  37073  37069  0
37073  37301  37069  0
37307  37301  37073  0
37308  37060  37303  0
37064  37066  37071  0
37309  37071  37066  0
37066  37305  37309  0
37310  37309  37305  0
37311  37310  37305  0
37305  37306  37311  0
37307  37073  37072  0
37060  37308  37070  0
37074  36863  37070  0
37061  36865  37312  0
37313  37312  36865  0
37314  37075  36866  0
36866  36862  37314  0
37315  37314  36862  0
36862  37071  37315  0
37316  37315  37071  0
37071  37309  37316  0
37317  37316  37309  0
37318  37079  37319  0
37078  37319  37079  0
37319  37078  37080  0
37320  37319  37080  0
36874  37320  37080  0
37320  36874  37321  0
36875  37321  36874  0
37081  37321  36875  0
37070  37308  37074  0
37082  37074  37308  0
36865  37084  37313  0
36876  37075  37322  0
37323  36876  37322  0
37072  36877  37077  0
37077  37076  37324  0
37079  37324  37076  0
37325  37313  37084  0
37323  37087  36876  0
37082  37326  37083  0
37086  37083  37326  0
37087  37327  36675  0
37089  37328  37091  0
37091  37328  37092  0
36892  37097  37094  0
37329  37090  37094  0
37090  37329  37089  0
37328  37089  37329  0
37330  37092  37328  0
37092  37331  36888  0
37092  37330  37331  0
36888  37331  37103  0
36888  37103  36889  0
36889  37103  37093  0
36675  37327  36891  0
36891  37327  37100  0
37331  37332  37103  0
36895  36894  37333  0
36895  37333  37097  0
36894  37101  37334  0
36894  37334  37333  0
37103  37335  37102  0
37103  37332  37335  0
37099  37100  37107  0
37101  37336  37334  0
37335  37337  37106  0
37335  37338  37339  0
37335  37339  37337  0
37335  37106  37102  0
37095  37105  37340  0
37101  37341  37336  0
37337  37342  37108  0
37337  37108  37106  0
37337  37339  37343  0
37337  37343  37342  0
37105  37344  37340  0
37105  37109  37344  0
37107  37345  37110  0
37110  37345  37346  0
37110  37346  36690  0
37342  37111  37108  0
37111  37347  37109  0
36690  37348  37349  0
36690  37349  36897  0
36690  37346  37350  0
36690  37350  37348  0
37348  37351  37349  0
37112  37352  37341  0
37112  37341  37101  0
37112  37113  37352  0
37111  37353  37121  0
37111  37121  37347  0
36897  37349  37114  0
37349  37351  37114  0
37115  36901  37354  0
37116  37115  37355  0
37116  37355  37113  0
37121  37356  37347  0
37347  37356  37357  0
37347  37357  37358  0
36901  37117  37359  0
36901  37359  37354  0
37360  37131  37119  0
37360  37119  37353  0
37353  37119  37121  0
37121  37120  37356  0
37356  37120  37357  0
36696  37114  36904  0
37114  37361  36904  0
37117  37118  37362  0
37117  37362  37359  0
37363  37129  37364  0
37363  37364  37365  0
37364  37129  37131  0
37364  37131  37360  0
37357  37366  37358  0
36904  37361  36905  0
36905  37361  37367  0
36905  37367  37122  0
37122  37367  37123  0
37125  37368  37126  0
37126  37368  37127  0
37127  37368  37369  0
37127  37369  37128  0
37118  37370  37371  0
37118  37371  37372  0
37118  37372  37362  0
37371  37370  37373  0
37371  37373  37372  0
37129  37363  37374  0
37129  37374  37373  0
37129  37373  37135  0
37357  37120  37138  0
37357  37138  37366  0
37128  37369  37375  0
37128  37375  37133  0
37118  37134  37376  0
37118  37376  37370  0
37370  37376  37140  0
37370  37140  37135  0
37370  37135  37373  0
37133  37375  37148  0
37134  37377  37376  0
37376  37377  37139  0
37376  37139  37140  0
37137  37378  37142  0
36915  37379  37143  0
36915  36916  37379  0
36919  36918  37380  0
36919  37380  37381  0
36919  37381  36928  0
36918  37382  37380  0
36918  37144  37382  0
37144  37145  37383  0
37144  37383  37382  0
37145  37147  37384  0
37145  37384  37383  0
37134  37149  37377  0
37377  37155  37139  0
37143  37385  37152  0
36916  37386  37379  0
36916  37153  37386  0
36929  37387  37388  0
36929  36928  37387  0
37149  37389  37377  0
37377  37389  37390  0
37377  37390  37155  0
37155  37390  37160  0
37155  37160  37150  0
37137  37158  37391  0
37137  37391  37378  0
37152  37385  37392  0
37152  37392  37393  0
37152  37393  36917  0
36929  37388  37164  0
37149  37394  37389  0
37389  37394  37390  0
37395  37390  37394  0
37390  37395  37160  0
37161  37160  37395  0
37162  36917  37393  0
37159  37396  37154  0
37159  37163  37396  0
37397  37396  37163  0
37149  37165  37394  0
37398  37394  37165  0
37394  37398  37395  0
37399  37161  37395  0
37161  37399  37166  0
37400  37158  37166  0
37158  37400  37391  0
37401  37391  37400  0
37168  37162  37402  0
37168  37402  37403  0
37163  37169  37397  0
37404  37397  37169  0
37170  37175  36743  0
37165  37171  37398  0
37405  37398  37171  0
37395  37398  37406  0
37395  37406  37399  0
37399  37407  37166  0
37408  37166  37407  0
37166  37408  37400  0
37409  37400  37408  0
37410  37400  37409  0
37400  37410  37411  0
37400  37411  37401  0
37168  37403  37412  0
37168  37412  37172  0
37179  37169  36938  0
37169  37179  37404  0
37413  37404  37179  0
37404  37413  37414  0
37415  37414  37413  0
37175  37416  36954  0
36954  37416  37184  0
37184  37416  37417  0
37184  37417  37185  0
37185  37417  37418  0
37399  37406  37407  0
37408  37407  37419  0
37167  37172  37189  0
36956  37413  37179  0
37413  36956  37415  0
37190  37415  36956  0
37415  37190  37420  0
37180  37420  37190  0
37415  37420  37421  0
37422  37421  37420  0
37420  37180  37181  0
37420  37181  37422  0
37182  37422  37181  0
37182  37183  37423  0
37424  37423  37183  0
37185  37418  37186  0
37187  37186  37418  0
37187  37425  36960  0
37191  36960  37425  0
37171  37188  37405  0
37408  37419  37409  0
37426  37427  37428  0
37201  37429  37426  0
37196  37429  37201  0
37189  37172  37195  0
37412  37195  37172  0
37179  36952  36956  0
37183  36747  37430  0
37191  37425  36964  0
37431  36964  37425  0
37188  37192  37432  0
37433  37205  37428  0
36969  37428  37205  0
37427  37433  37428  0
37434  37205  37433  0
37428  36969  37426  0
37201  37426  36969  0
37201  37200  37196  0
37197  37196  37200  0
37196  37195  37435  0
37430  36747  37198  0
37208  37430  37198  0
37436  37202  36964  0
37431  37436  36964  0
37437  37202  37436  0
37438  37432  37192  0
37192  37194  37438  0
37439  37438  37194  0
37434  37206  37205  0
36968  36969  37205  0
36971  37208  37198  0
37202  37437  37203  0
37194  37199  37439  0
37440  37439  37199  0
37204  37440  37199  0
37206  37441  37207  0
37209  37442  37208  0
37210  37443  37211  0
37444  37440  37204  0
37204  37214  37444  0
37445  37444  37214  0
37214  36975  37445  0
36975  37207  37445  0
37441  37445  37207  0
37209  36977  37446  0
37447  37446  36977  0
37443  37448  37211  0
37211  37448  36980  0
37449  37210  37212  0
37450  37449  37212  0
37212  37215  37450  0
37451  37450  37215  0
37203  37452  37213  0
37453  37213  37452  0
37213  37453  37217  0
37454  37217  37453  0
36977  36979  37447  0
37455  37447  36979  0
36979  37218  37455  0
37456  37455  37218  0
37218  36980  37456  0
37448  37456  36980  0
37215  37220  37451  0
37457  37451  37220  0
37220  37217  37457  0
37454  37457  37217  0
37225  36792  37224  0
37458  37224  36991  0
37459  37226  37225  0
37458  36991  37227  0
37460  36996  37226  0
37461  37228  37006  0
36996  37460  36997  0
37462  36997  37460  0
37229  37008  37463  0
37229  37463  37230  0
37464  37230  37463  0
37230  37464  37231  0
37465  37231  37464  0
37466  37231  37465  0
36997  37462  37232  0
37467  37008  37009  0
37009  37235  37467  0
37231  37466  37233  0
37468  37233  37466  0
37469  37233  37468  0
37233  37469  37012  0
37006  37470  37461  0
37006  36809  37470  0
37471  37234  37232  0
37472  37235  37011  0
37237  37472  37011  0
37012  37469  37015  0
37473  37015  37469  0
37474  36809  37013  0
37475  37236  37234  0
37234  37471  37475  0
37476  37475  37471  0
37477  37237  37014  0
37015  37478  37013  0
37474  37013  37478  0
37236  37475  37238  0
37479  37475  37476  0
37014  37239  37477  0
37238  37480  37016  0
37238  37475  37479  0
37238  37479  37480  0
37239  36815  37017  0
37239  37017  37481  0
37016  37480  37240  0
37241  37020  37243  0
37482  37242  37241  0
37242  37483  37244  0
37242  37244  37021  0
37242  37482  37483  0
37017  37018  37481  0
37240  37480  37484  0
37240  37484  37485  0
37486  37240  37485  0
37487  37022  37244  0
37022  37487  37245  0
37022  37245  37023  0
37488  37245  37487  0
37025  37240  37486  0
37249  37025  37486  0
37026  37251  37243  0
37243  37251  37489  0
37245  37247  37024  0
37245  37488  37247  0
37247  37490  37246  0
37247  37488  37490  0
37018  36819  37491  0
36819  37248  37491  0
37251  37250  37492  0
37251  37492  37493  0
37251  37493  37489  0
37492  37250  37253  0
37492  37253  37494  0
37494  37253  37257  0
37494  37257  37495  0
37246  37496  37255  0
37246  37490  37496  0
37497  37496  37490  0
37249  37498  36827  0
37495  37257  37037  0
37495  37037  37499  0
37495  37499  37500  0
37496  37501  37259  0
37496  37259  37255  0
37501  37502  37259  0
37501  37503  37502  0
37502  37503  37504  0
36827  37498  37256  0
37033  37505  37262  0
37037  37036  37499  0
37499  37036  37506  0
37499  37506  37500  0
37259  37502  37264  0
37259  37264  37258  0
37502  37504  37265  0
37502  37265  37264  0
37028  37260  37248  0
37256  37261  36829  0
37256  37507  37261  0
37262  37508  37263  0
37262  37263  37252  0
37262  37505  37509  0
37262  37509  37508  0
37036  37270  37506  0
37265  37504  37510  0
37265  37510  37266  0
37261  37507  37268  0
37508  37269  37263  0
37272  37043  37511  0
37043  37268  37511  0
37269  37508  37512  0
37269  37512  37275  0
37270  36846  37513  0
37277  37266  37510  0
37277  37510  37514  0
37273  37515  37516  0
37273  37516  37048  0
37273  37272  37515  0
37517  37276  37275  0
37517  37275  37512  0
37517  37512  37518  0
36846  37278  37513  0
37279  36847  37048  0
37279  37048  37516  0
37271  37277  37519  0
37279  37520  37280  0
37283  37521  37522  0
37282  37523  37524  0
37282  37524  37284  0
37054  36853  37525  0
37521  37283  37058  0
37284  37524  37526  0
37284  37526  37055  0
36853  37056  37527  0
36853  37527  37525  0
37285  37528  37293  0
37285  36849  37529  0
37285  37529  37528  0
37528  37530  37293  0
37530  37289  37293  0
37289  37530  37531  0
37289  37531  37288  0
37288  37531  37532  0
37288  37532  37290  0
37290  37533  37296  0
37290  37532  37533  0
37534  37299  37300  0
37534  37300  37535  0
37534  37535  37536  0
37302  37521  37058  0
37302  37299  37521  0
37055  37526  37291  0
37056  37304  37527  0
37296  37533  37537  0
37296  37537  37297  0
37300  37301  37538  0
37300  37538  37535  0
37291  37526  37303  0
37304  37061  37312  0
37304  37312  37539  0
37297  37537  37540  0
37297  37540  37306  0
37301  37307  37538  0
37541  37542  37543  0
37320  37543  37542  0
37541  37544  37542  0
37543  37320  37545  0
37543  37545  37546  0
37543  37546  37541  0
37321  37546  37545  0
37309  37310  37317  0
37547  37311  37306  0
37306  37540  37548  0
37306  37548  37547  0
37072  37077  37307  0
37324  37307  37077  0
37307  37324  37549  0
37318  37549  37324  0
37544  37307  37549  0
37549  37318  37542  0
37319  37542  37318  0
37549  37542  37544  0
37542  37319  37320  0
37321  37545  37320  0
37075  37314  37322  0
37550  37322  37314  0
37314  37315  37550  0
37315  37316  37551  0
37315  37551  37550  0
37552  37317  37310  0
37310  37311  37552  0
37547  37552  37311  0
37324  37079  37318  0
37321  37081  37553  0
37554  37553  37081  0
37322  37550  37555  0
37322  37555  37323  0
37082  37308  37556  0
37557  37087  37323  0
37081  37085  37554  0
37558  37554  37085  0
37086  37559  37084  0
37084  37559  37325  0
36882  37558  37085  0
37082  37556  37326  0
37326  37560  37086  0
37559  37086  37560  0
37327  37087  37557  0
37557  37561  37327  0
37562  36882  36881  0
36881  37088  37562  0
37563  37329  37094  0
37329  37563  37328  0
37564  37328  37563  0
37330  37328  37564  0
37565  37088  37096  0
37094  37097  37563  0
37333  37563  37097  0
37334  37563  37333  0
37330  37332  37331  0
37096  37095  37565  0
37335  37332  37338  0
37332  37566  37338  0
37334  37336  37567  0
37568  37567  37336  0
37567  37568  37338  0
37339  37338  37568  0
37567  37338  37566  0
37095  37340  37565  0
37336  37341  37568  0
37343  37339  37568  0
37346  37569  37350  0
37570  37350  37569  0
37350  37571  37348  0
37350  37570  37571  0
37572  37571  37570  0
37573  37571  37572  0
37574  37571  37573  0
37343  37568  37341  0
37344  37109  37575  0
37576  37575  37109  0
37348  37571  37351  0
37361  37351  37571  0
37577  37361  37571  0
37571  37574  37577  0
37578  37577  37574  0
37579  37352  37355  0
37113  37355  37352  0
37580  37352  37579  0
37581  37579  37355  0
37352  37580  37341  0
37582  37341  37580  0
37341  37582  37343  0
37583  37343  37582  0
37343  37583  37342  0
37109  37347  37576  0
37584  37576  37347  0
37358  37584  37347  0
37367  37361  37577  0
37577  37578  37585  0
37577  37585  37367  0
37581  37115  37354  0
37115  37581  37355  0
37342  37360  37111  0
37353  37111  37360  0
37342  37583  37360  0
37351  37361  37114  0
37586  37367  37585  0
37365  37364  37360  0
37365  37360  37583  0
37123  37367  37586  0
37587  37586  37588  0
37586  37589  37123  0
37125  37123  37589  0
37586  37587  37589  0
37368  37125  37589  0
37589  37590  37368  0
37359  37362  37591  0
37592  37591  37362  0
37362  37372  37592  0
37374  37363  37593  0
37365  37593  37363  0
37592  37374  37593  0
37368  37590  37369  0
37594  37369  37590  0
37372  37373  37374  0
37372  37374  37592  0
37369  37594  37375  0
37366  37138  37595  0
37138  37142  37595  0
37382  37596  37380  0
37597  37596  37382  0
37383  37597  37382  0
37597  37383  37384  0
37597  37384  37598  0
37599  37598  37384  0
37147  37599  37384  0
37599  37147  37600  0
37600  37148  37375  0
37387  36928  37381  0
37147  37148  37600  0
37142  37378  37595  0
37143  37379  37385  0
37386  37153  37601  0
37153  37154  37396  0
37153  37396  37602  0
37153  37602  37601  0
37402  37162  37393  0
37396  37397  37603  0
