#!ascii file
2338  2792  2800  0
3031  2800  2792  0
2564  2569  3030  0
3032  3027  3026  0
3026  2789  3032  0
2565  3032  2789  0
3033  2794  3029  0
2799  2800  3031  0
2802  3030  2569  0
2802  3034  3030  0
3032  2565  3035  0
2565  2583  2805  0
2565  2805  3035  0
2794  3033  2577  0
3035  2805  3036  0
3035  3036  3037  0
2805  2804  3036  0
2583  2806  3038  0
2583  3038  2804  0
2577  3033  2807  0
2802  2809  3039  0
2803  3040  2586  0
2588  3041  3042  0
2811  3043  2809  0
2811  2812  3043  0
2586  3040  3044  0
2586  3044  2813  0
3042  2816  2588  0
2813  3045  2819  0
2813  3044  3045  0
2351  2820  2594  0
3046  2594  2820  0
2594  3046  3047  0
2594  3047  2821  0
2823  2816  3048  0
2823  3048  3049  0
2823  3049  2822  0
2816  3042  3048  0
3050  2812  2817  0
2817  2818  3051  0
3052  3051  2818  0
2818  2596  3052  0
2596  2597  3052  0
3053  3052  2597  0
2597  2819  3053  0
2819  3045  3053  0
3054  3053  3045  0
2826  2820  2592  0
2820  3055  3046  0
2820  2826  3055  0
2827  3055  2826  0
2825  2829  2824  0
2825  2822  3056  0
2817  3051  3050  0
3051  3052  3050  0
3057  3050  3052  0
3058  2827  2602  0
2602  2828  3058  0
3059  3058  2828  0
2828  2829  3059  0
2829  2825  3059  0
3060  3059  2825  0
3061  3062  3063  0
3064  3063  3062  0
2833  3065  3066  0
3065  3067  3066  0
3066  3061  2833  0
2831  2833  3061  0
3061  3063  2831  0
2834  2831  3063  0
3063  3064  3068  0
3063  3068  2834  0
3067  3065  3069  0
2834  3068  3070  0
2834  3070  2838  0
2836  3069  3065  0
3065  2833  2836  0
2838  3070  2839  0
3069  2836  3071  0
3072  3071  2836  0
2840  3072  2836  0
2839  3070  3073  0
3072  2840  3074  0
2839  3073  2841  0
2842  3075  2843  0
2843  3075  3076  0
2843  3076  2612  0
2612  3076  3077  0
2612  3077  2613  0
2613  3077  3078  0
3074  2840  2619  0
3074  2619  2848  0
3074  2848  3079  0
2841  3073  2844  0
2846  3080  2842  0
2613  3078  2847  0
2848  2621  3081  0
2849  3082  2845  0
2845  3083  2853  0
2845  3082  3083  0
2854  3084  3080  0
2854  3080  2846  0
2855  2847  3085  0
2621  2859  3086  0
2621  3086  3081  0
2844  3087  3088  0
2844  3088  2856  0
2853  3089  2851  0
2851  3089  3090  0
2851  3090  2852  0
2852  3090  2857  0
2620  2857  3091  0
2855  3092  2858  0
2859  2860  3093  0
2859  3093  3086  0
2623  2862  2850  0
3094  2856  3088  0
2861  2858  3095  0
3096  3095  2858  0
2860  2863  3093  0
3097  3093  2863  0
2627  2856  3094  0
2628  3098  2862  0
3099  3098  2628  0
2381  2629  2864  0
2629  2861  3100  0
3095  3100  2861  0
3097  2863  2865  0
3094  2635  2627  0
2628  2632  3099  0
2388  2864  2867  0
2864  2629  3100  0
2866  2634  2637  0
2866  3101  2865  0
2635  3094  3102  0
2635  3102  2640  0
2632  3103  3099  0
2636  2867  3104  0
2867  3105  3104  0
3106  2867  2864  0
2869  3107  2637  0
2637  3107  2866  0
2632  3108  3103  0
2632  2638  3108  0
3109  2396  2636  0
2636  3104  3109  0
2642  3110  2870  0
2642  2871  3110  0
2868  3111  2869  0
2645  2640  3112  0
3109  2874  2396  0
2868  2879  3113  0
2868  3113  3111  0
2879  2401  2880  0
2645  3112  3114  0
2645  3114  2881  0
2878  3115  2871  0
2878  3116  3115  0
2644  2873  3117  0
2880  2883  3118  0
2646  2884  2638  0
2882  2887  3119  0
2882  3119  3120  0
2882  3120  2877  0
2877  3116  2878  0
2877  3120  3116  0
2644  3117  2649  0
2881  3114  2889  0
2885  2875  3121  0
2406  2888  2886  0
2887  2407  2886  0
3122  3120  3119  0
2891  2649  3117  0
2654  3123  2650  0
3124  2650  3123  0
3125  3123  2654  0
2650  3124  2883  0
2651  3126  2884  0
2181  2885  3127  0
3128  3127  2885  0
2181  3127  2652  0
2888  3129  2886  0
3130  2886  3129  0
2886  3130  2887  0
3125  2894  3131  0
3132  3131  2894  0
2894  3125  2654  0
2651  2656  3126  0
3133  3126  2656  0
2652  3127  2899  0
3134  2899  3127  0
2653  2415  2888  0
2891  3135  2896  0
2894  2892  3132  0
3136  3132  2892  0
2897  2661  3137  0
2661  2655  3137  0
2898  3133  2656  0
3138  2415  2662  0
2415  3138  2888  0
2892  2893  3136  0
3139  3136  2893  0
2897  3139  2893  0
2664  2899  3140  0
2664  3140  2665  0
2662  2901  3138  0
2900  2902  2666  0
2904  3141  2898  0
2434  2671  3142  0
2434  3142  2904  0
2909  2908  3143  0
3143  2912  2909  0
2910  3144  2671  0
2912  3143  3145  0
2912  3145  2913  0
2672  3146  2910  0
2672  2445  3146  0
2445  2914  3146  0
2915  2913  3147  0
2915  3147  3148  0
2915  3148  2916  0
2676  2917  2918  0
2918  3149  2678  0
2446  2448  3150  0
3151  3152  3153  0
3151  3153  3154  0
3151  3155  3152  0
3151  3154  3156  0
3151  3156  3155  0
3156  3154  2920  0
3156  2920  2916  0
3156  2916  3148  0
3156  3148  3155  0
3157  2921  3158  0
2921  3157  2917  0
2918  2917  3157  0
2679  3159  2919  0
3160  2684  2919  0
2448  2922  3150  0
3161  3162  3153  0
3161  3153  3152  0
3154  3163  2920  0
2923  2920  3163  0
2924  3158  2921  0
2684  3160  2686  0
2926  2922  2461  0
3153  3164  3154  0
3154  3164  3163  0
2925  2927  3165  0
2928  3165  2927  0
2925  3165  2924  0
2686  3166  2687  0
2687  3166  2472  0
2926  2689  3167  0
2930  3167  2689  0
3162  3168  3153  0
3153  3168  3164  0
3169  3164  3168  0
3164  3169  3163  0
3170  3163  3169  0
3163  3170  2923  0
2690  2923  3170  0
3165  2928  2931  0
3171  3165  2931  0
2691  2929  2933  0
2691  2933  2698  0
3167  2930  2935  0
3167  2935  3172  0
3168  3162  3173  0
3168  3173  3174  0
3168  3174  3175  0
3168  3175  3169  0
3169  3175  3170  0
3170  3176  2690  0
2690  3176  2699  0
2932  3171  2931  0
2932  3177  3171  0
2934  3178  2935  0
3174  3173  3179  0
3174  3179  3180  0
3174  3180  3181  0
3174  3181  3175  0
3170  2943  3176  0
3176  2943  2936  0
3176  2936  2699  0
2937  3182  3177  0
2937  3177  2932  0
2937  3183  3182  0
2938  2481  3184  0
2481  2476  3184  0
2476  2939  3184  0
2939  2696  3185  0
3179  2946  3180  0
3180  2948  3181  0
3181  2948  2942  0
3181  2942  3175  0
3175  2942  3170  0
3170  2942  2943  0
2937  3186  3183  0
2937  2940  3186  0
2704  2938  3187  0
2696  2483  3185  0
2947  3180  2946  0
2948  3180  2947  0
2945  3185  2483  0
2710  3188  2949  0
3188  2710  2946  0
2945  2709  3189  0
2714  2949  3190  0
2713  3189  2709  0
2714  3190  3191  0
2715  3192  2950  0
2715  2951  3192  0
2950  3193  2717  0
3194  2717  3193  0
2956  2713  2952  0
3191  2957  2714  0
2721  2714  2957  0
3191  3195  2957  0
3196  2951  3197  0
2954  3197  2951  0
3192  2951  3196  0
3198  3196  3197  0
3199  2717  3194  0
2717  3199  2719  0
2955  2719  3199  0
2961  3200  2959  0
3201  2959  3200  0
2961  3202  3200  0
2959  3201  2724  0
3203  2724  3201  0
2724  3203  2962  0
3204  2962  3203  0
3205  3206  3198  0
3206  3207  3208  0
3206  3208  3198  0
3198  3197  3205  0
3209  3205  3197  0
3197  2954  3209  0
2953  3209  2954  0
3199  3210  3211  0
3199  3211  2955  0
2955  3211  3212  0
2955  3212  2963  0
2963  2964  2728  0
2963  3212  2964  0
2957  2978  2958  0
2957  3195  2978  0
2971  2732  3213  0
2971  3213  3214  0
2971  3214  3215  0
2971  3215  3216  0
3216  3217  2974  0
3216  2974  2971  0
3216  3215  3218  0
3216  3218  3217  0
3217  3219  2975  0
3217  2975  2974  0
3217  3218  3220  0
3217  3220  3219  0
2961  2965  3221  0
2962  3204  3222  0
2962  3222  2968  0
2968  3223  2966  0
2966  3206  2969  0
2966  3223  3206  0
3206  3205  3224  0
3206  3224  2969  0
3209  2953  3225  0
3209  3225  3226  0
3209  3226  3227  0
3209  3227  3205  0
2953  2722  3225  0
2970  3213  2732  0
2975  3219  2976  0
2969  3224  2977  0
3224  3205  3227  0
3224  3227  3228  0
3224  3228  2977  0
2730  3229  2722  0
2979  2978  3230  0
2980  3231  2970  0
2965  2982  3232  0
2982  2983  3233  0
2982  3233  3232  0
2977  3228  2983  0
3234  3229  2730  0
3235  2979  3230  0
2743  3236  2984  0
2980  2984  3236  0
2987  2985  3237  0
2985  2981  3237  0
2976  3237  2981  0
2730  2986  3234  0
2979  3235  2745  0
3236  2743  2744  0
3238  3236  2744  0
3239  2748  2987  0
2992  2748  3239  0
3240  3234  2986  0
2990  2745  3235  0
2991  3238  2744  0
2986  2750  3240  0
2990  3241  2751  0
3242  2751  3241  0
2752  2751  3242  0
3242  3238  2752  0
2991  2752  3238  0
2750  2993  3240  0
2997  3243  2998  0
2993  3003  3240  0
3244  3240  3003  0
2994  2755  3245  0
3001  3245  2755  0
3246  2998  3243  0
2998  3247  3002  0
2998  3246  3248  0
2998  3248  3247  0
2770  3004  3249  0
2770  3249  3001  0
3002  3247  3005  0
3003  2774  3250  0
3003  3250  3244  0
2767  3007  3006  0
3010  3009  3251  0
3010  3251  3252  0
3010  3252  3253  0
3009  3008  3254  0
3009  3254  3251  0
3008  3011  3255  0
3008  3255  3254  0
3011  3012  3256  0
3011  3256  3255  0
2542  3013  3012  0
2769  3257  2779  0
2781  3250  2774  0
2781  3020  3250  0
3007  3018  3258  0
3253  3019  3010  0
2779  3259  2784  0
2784  3259  3260  0
2784  3260  2791  0
2780  3025  3016  0
3020  3021  3261  0
3006  3262  2782  0
3006  3007  3263  0
3006  3263  3262  0
3007  3258  3263  0
3258  3018  3028  0
3015  3023  3264  0
3265  3264  3023  0
3266  2792  2791  0
3266  2791  3260  0
3266  3267  2792  0
2793  3017  2796  0
3268  2796  3017  0
2796  3269  2797  0
2796  3268  3269  0
3269  3021  2797  0
3270  3022  2782  0
2782  3262  3270  0
3263  3258  3271  0
3028  3271  3258  0
3272  3029  2790  0
3023  2795  3265  0
2799  3265  2795  0
3031  2792  3267  0
3024  3273  3025  0
3024  3030  3273  0
3274  2798  3022  0
3022  3270  3274  0
3271  3028  3275  0
2798  3274  2801  0
3276  2801  3274  0
3275  3028  3277  0
3028  3027  3277  0
3278  3029  3272  0
3029  3278  3033  0
3030  3034  3279  0
3277  3027  3280  0
3281  3280  3027  0
3027  3032  3281  0
3035  3281  3032  0
3282  3033  3278  0
3283  3279  3034  0
3034  2802  3039  0
3034  3039  3284  0
3034  3284  3283  0
3285  3283  3284  0
3284  3039  3286  0
3284  3286  3287  0
3284  3287  3285  0
3288  3285  3287  0
3287  3286  3289  0
3287  3289  3290  0
3287  3290  3288  0
3291  3288  3290  0
3290  3289  3292  0
3290  3292  3293  0
3290  3293  3291  0
3292  3294  3293  0
2801  3276  3295  0
2801  3295  2803  0
3277  3280  3296  0
3281  3035  3037  0
3281  3037  3297  0
3036  2804  3298  0
3036  3298  3299  0
3036  3299  3037  0
2804  3300  3298  0
2804  3038  3300  0
3033  3282  3301  0
3033  3301  2807  0
3039  2809  3043  0
3039  3043  3286  0
3286  3043  3302  0
3286  3302  3289  0
3289  3302  3303  0
3289  3303  3292  0
3292  3304  3294  0
2803  3295  3305  0
2803  3305  3040  0
3037  3299  3297  0
2806  3306  3038  0
2807  3301  2808  0
2808  3041  2588  0
2808  3301  3041  0
3043  3307  3302  0
3302  3307  3303  0
3303  3308  3304  0
3303  3304  3292  0
2806  2810  3309  0
2806  3309  3306  0
3041  3048  3042  0
3041  3301  3310  0
3041  3310  3048  0
3043  2812  3307  0
3303  3307  3308  0
3047  3311  2821  0
3047  3046  3312  0
3047  3312  3311  0
2815  2821  3309  0
2815  3309  2810  0
3049  3048  3310  0
2812  3050  3313  0
2812  3313  3307  0
3307  3313  3308  0
3045  3044  3054  0
3055  3058  3312  0
3055  3312  3046  0
3055  2827  3058  0
2825  3056  3060  0
3314  3060  3056  0
3056  2822  3314  0
3049  3314  2822  0
3050  3057  3315  0
3316  3315  3057  0
3053  3057  3052  0
3058  3059  3317  0
3318  3317  3059  0
3059  3060  3318  0
3314  3318  3060  0
3319  3320  3321  0
3322  3320  3319  0
3323  3320  3322  0
3319  3321  3324  0
3325  3326  3327  0
3328  3327  3326  0
3325  3329  3326  0
3330  3326  3329  0
3329  3331  3330  0
3329  3332  3331  0
3333  3331  3332  0
3334  3066  3335  0
3066  3334  3061  0
3062  3061  3334  0
3334  3336  3062  0
3337  3062  3336  0
3326  3330  3338  0
3339  3338  3330  0
3326  3338  3328  0
3340  3328  3338  0
3330  3331  3339  0
3341  3339  3331  0
3331  3342  3341  0
3331  3333  3342  0
3343  3342  3333  0
3344  3341  3342  0
3345  3342  3343  0
3346  3344  3342  0
3342  3345  3346  0
3347  3346  3345  0
3335  3067  3348  0
3335  3348  3349  0
3335  3066  3067  0
3062  3337  3064  0
3339  3350  3338  0
3341  3351  3339  0
3341  3344  3351  0
3346  3352  3344  0
3346  3347  3352  0
3352  3347  3353  0
3354  3348  3355  0
3354  3349  3348  0
3064  3356  3357  0
3064  3357  3068  0
3339  3358  3350  0
3339  3351  3359  0
3339  3359  3358  0
3351  3344  3359  0
3360  3355  3361  0
3355  3348  3361  0
3348  3067  3069  0
3348  3069  3361  0
3068  3357  3362  0
3068  3362  3070  0
3359  3344  3363  0
3361  3364  3365  0
3361  3365  3360  0
3361  3069  3071  0
3361  3071  3364  0
3366  3070  3362  0
3366  3362  3367  0
3366  3073  3070  0
3368  3076  3075  0
3369  3076  3368  0
3076  3369  3077  0
3369  3370  3077  0
3371  3077  3370  0
3366  3372  3073  0
3366  3367  3372  0
3368  3075  3373  0
3077  3371  3078  0
3374  3078  3371  0
3080  3375  2842  0
3075  2842  3375  0
2847  3078  3085  0
3376  3085  3078  0
2848  3081  3079  0
3372  3087  3073  0
2844  3073  3087  0
3082  2849  2850  0
2855  3085  3092  0
3376  3092  3085  0
3377  3081  3086  0
3378  3088  3087  0
3379  3082  2850  0
2854  2620  3091  0
2858  3092  3096  0
3096  3092  3380  0
3086  3093  3377  0
3381  3377  3093  0
3382  3088  3378  0
3379  2850  3383  0
2850  2862  3383  0
3384  2853  3083  0
2853  3384  3089  0
3385  3089  3384  0
3089  3385  3090  0
3386  3090  3385  0
3090  3386  2857  0
3091  2857  3386  0
3091  3084  2854  0
3387  3381  3093  0
3088  3382  3094  0
3388  3383  2862  0
3095  3096  3389  0
3093  3097  3387  0
3098  3388  2862  0
3098  3099  3390  0
3098  3390  3388  0
3094  3391  3392  0
3094  3392  3102  0
3100  3393  2864  0
3100  3394  3395  0
3100  3395  3393  0
3100  3095  3394  0
3101  3396  2865  0
2865  3396  3097  0
3106  2864  3393  0
3397  3398  2869  0
2869  3398  3399  0
2869  3399  3107  0
2866  3107  3101  0
3102  3400  2640  0
3105  2867  3401  0
2867  3106  3401  0
3110  2871  3402  0
2870  3403  2872  0
3397  2869  3111  0
3397  3111  3404  0
3109  3104  3105  0
3109  3105  3405  0
2871  3115  3402  0
2872  3403  2873  0
3404  3111  3406  0
3111  3113  3406  0
3407  3113  2879  0
2638  3408  3108  0
3405  2875  2874  0
2874  3109  3405  0
2879  2880  3118  0
2879  3118  3407  0
3409  3407  3118  0
2638  2884  3408  0
2875  3405  3410  0
2875  3410  3121  0
3411  3115  3116  0
2883  3124  3118  0
3118  3124  3409  0
3412  2889  3114  0
2885  3121  3128  0
2887  3413  3119  0
3120  3122  3116  0
3414  3116  3122  0
3116  3414  3411  0
3117  3415  2891  0
3416  2891  3415  0
2890  2889  3412  0
3413  2887  3130  0
3413  3417  3119  0
3119  3417  3122  0
2891  3416  3135  0
3418  3131  3132  0
3131  3419  3125  0
3123  3125  3419  0
2890  3420  2655  0
3127  3128  3421  0
3127  3421  3422  0
3127  3422  3134  0
3129  3423  3130  0
3129  2888  3424  0
3129  3424  3423  0
3413  3425  3417  0
3417  3425  3122  0
3132  3136  3426  0
3132  3426  3418  0
3427  2897  3428  0
2897  3137  3428  0
3137  2655  3420  0
2888  3138  3424  0
2896  3135  3429  0
2896  3429  2900  0
3426  3136  3430  0
3136  3139  3430  0
3139  2897  3427  0
2898  3431  3133  0
2898  3141  3431  0
3138  2901  3432  0
2902  2900  3433  0
2902  3433  2903  0
3140  2905  2665  0
2907  2903  3434  0
2907  3434  3435  0
2907  3435  2906  0
2904  3142  3141  0
2905  3436  2668  0
2668  3436  3437  0
2668  3437  2901  0
2906  3435  2908  0
3438  2908  3435  0
2908  3438  3143  0
3439  3143  3438  0
3440  3143  3439  0
3142  2671  3144  0
3142  3144  3441  0
3143  3440  3145  0
3442  2913  3145  0
3443  3144  2910  0
2910  3146  3443  0
3444  3146  2914  0
3445  3148  3147  0
3147  2913  3446  0
3442  3446  2913  0
3447  2678  3149  0
2678  3447  2679  0
3448  3444  2914  0
2914  2446  3448  0
3150  3448  2446  0
3152  3155  3449  0
3445  3449  3155  0
3155  3148  3445  0
3157  3158  3450  0
3451  3450  3158  0
3157  3452  2918  0
3149  2918  3452  0
3447  3453  2679  0
3159  2679  3453  0
3160  2919  3159  0
3161  3152  3454  0
3455  3451  3158  0
3158  2924  3455  0
3456  3160  3159  0
3457  3150  2922  0
3458  3459  3460  0
3460  3459  3161  0
3162  3161  3459  0
3460  3161  3454  0
3455  2924  3461  0
3165  3461  2924  0
2686  3160  3462  0
2686  3462  3166  0
2472  3166  3463  0
2472  3463  2929  0
2922  2926  3457  0
2926  3167  3172  0
2926  3172  3457  0
3459  3464  3173  0
3459  3173  3162  0
3461  3171  3177  0
3461  3177  3455  0
3461  3165  3171  0
2929  3463  3465  0
2929  3465  3466  0
2929  3466  2933  0
3178  3467  3457  0
3178  3457  3172  0
3178  2934  3468  0
3178  3468  3467  0
3172  2935  3178  0
3182  3469  3177  0
3182  3470  3469  0
2933  3466  3468  0
2933  3468  2934  0
3464  3471  3179  0
3464  3179  3173  0
3470  3182  3183  0
3471  3472  3188  0
3471  3464  3472  0
3471  3188  2946  0
3471  2946  3179  0
3186  3473  3183  0
3186  2940  3473  0
2940  2944  3474  0
2940  3474  3473  0
3474  2944  3187  0
2704  3187  2944  0
3474  3187  3475  0
3187  3476  3475  0
3187  2938  3476  0
2938  3184  3476  0
3188  3472  3477  0
3478  3477  3472  0
3185  2945  3479  0
3189  3479  2945  0
3190  3477  3480  0
3480  3477  3481  0
3478  3481  3477  0
3477  3190  3188  0
2949  3188  3190  0
3191  3480  3482  0
3480  3191  3190  0
3195  3191  3482  0
3193  2950  3192  0
2956  3483  2713  0
3195  3482  3484  0
3485  3200  3486  0
3487  3486  3200  0
3201  3200  3485  0
3485  3488  3201  0
3489  3201  3488  0
3198  3208  3196  0
3490  3196  3208  0
3196  3490  3192  0
3491  3192  3490  0
3192  3491  3193  0
3492  3193  3491  0
3193  3492  3194  0
3210  3199  3194  0
2956  2964  3493  0
3212  3493  2964  0
3494  3214  3495  0
3494  3495  3496  0
3215  3214  3494  0
3494  3497  3215  0
3218  3215  3497  0
3497  3498  3218  0
3220  3218  3498  0
3497  3499  3498  0
3500  3498  3499  0
3498  3500  3220  0
3501  3220  3500  0
3200  3202  3502  0
3200  3502  3487  0
3201  3489  3203  0
3503  3207  3223  0
3206  3223  3207  0
3503  3504  3207  0
3207  3504  3490  0
3207  3490  3208  0
3194  3505  3210  0
3484  3506  3195  0
3484  3507  3506  0
3214  3213  3508  0
3214  3508  3495  0
3220  3501  3219  0
3202  2961  3221  0
3222  3509  2968  0
2968  3509  3503  0
2968  3503  3223  0
3506  3230  2978  0
3506  2978  3195  0
3506  3507  3510  0
3506  3510  3230  0
3213  2970  3231  0
3213  3231  3508  0
3219  3501  3511  0
3219  3511  2976  0
3227  3226  3512  0
3225  2722  3229  0
3225  3229  3226  0
3231  2980  3236  0
3231  3236  3513  0
3511  3237  2976  0
3511  3514  3237  0
3221  2965  3515  0
2965  3232  3515  0
3232  3516  3515  0
2983  3228  3517  0
2983  3517  3233  0
3228  3227  3518  0
3228  3518  3517  0
3227  3512  3518  0
3519  3512  3226  0
3226  3229  3519  0
3520  3229  3234  0
3230  3510  3235  0
3521  3513  3236  0
3522  3521  3236  0
3523  3239  2987  0
3524  3523  2987  0
3525  3239  3523  0
2987  3237  3524  0
3526  3524  3237  0
3514  3526  3237  0
3233  3516  3232  0
3527  3233  3517  0
3528  3520  3234  0
3235  3529  2990  0
3238  3522  3236  0
3239  3525  2992  0
3530  2992  3525  0
3234  3240  3528  0
2990  3529  3241  0
3531  3241  3529  0
3242  3241  3531  0
3531  3522  3242  0
3238  3242  3522  0
3531  3532  3522  0
2992  3530  2753  0
3533  2753  3530  0
3534  3528  3240  0
2753  3533  2999  0
2995  3535  2996  0
3536  2996  3535  0
2996  3536  2997  0
3537  2997  3536  0
3240  3244  3534  0
3538  3534  3244  0
2994  3245  3539  0
3540  3245  3001  0
2997  3537  3243  0
3541  3243  3537  0
3246  3243  3541  0
3542  3248  3246  0
3248  3543  3247  0
3544  3247  3543  0
3248  3542  3543  0
3251  3254  3545  0
3546  3012  3013  0
3547  3012  3546  0
3000  3257  2769  0
3000  3548  3257  0
3001  3249  3549  0
3001  3549  3540  0
3247  3544  3550  0
3247  3550  3005  0
3544  3551  3550  0
3244  3250  3538  0
3552  3553  3253  0
3552  3253  3252  0
3552  3252  3251  0
3552  3251  3554  0
3254  3255  3555  0
3255  3556  3555  0
3255  3256  3557  0
3255  3557  3556  0
3256  3012  3547  0
3256  3547  3557  0
3014  3015  3558  0
3014  3558  3559  0
3014  3559  3013  0
3257  3259  2779  0
3257  3560  3259  0
3259  3560  3561  0
3004  3016  3562  0
3004  3562  3249  0
3017  3005  3268  0
3005  3550  3563  0
3005  3563  3268  0
3550  3551  3563  0
3250  3020  3261  0
3553  3552  3564  0
3553  3565  3019  0
3553  3019  3253  0
3558  3015  3264  0
3558  3264  3566  0
3259  3561  3567  0
3259  3567  3260  0
3016  3025  3568  0
3016  3568  3562  0
3268  3563  3269  0
3563  3261  3021  0
3563  3021  3269  0
3563  3551  3569  0
3563  3569  3261  0
3565  3570  3019  0
3019  3570  2790  0
3264  3265  3571  0
3264  3571  3566  0
3265  3572  3571  0
3573  3571  3572  0
3266  3260  3567  0
3266  3567  3574  0
3266  3574  3573  0
3266  3573  3267  0
3025  3273  3568  0
3575  3570  3565  0
3272  2790  3570  0
3265  2799  3572  0
3031  3572  2799  0
3572  3031  3267  0
3572  3267  3573  0
3576  3273  3030  0
3577  3270  3262  0
3262  3263  3577  0
3271  3577  3263  0
3578  3570  3575  0
3570  3578  3272  0
3030  3279  3576  0
3274  3270  3276  0
3270  3577  3276  0
3577  3271  3579  0
3275  3579  3271  0
3272  3578  3278  0
3580  3278  3578  0
3581  3576  3279  0
3288  3582  3285  0
3583  3285  3582  0
3582  3288  3584  0
3582  3584  3585  0
3291  3584  3288  0
3586  3585  3584  0
3587  3586  3584  0
3584  3291  3587  0
3588  3587  3291  0
3291  3293  3588  0
3589  3579  3275  0
3275  3277  3296  0
3275  3296  3589  0
3278  3580  3282  0
3590  3282  3580  0
3279  3283  3581  0
3583  3581  3283  0
3283  3285  3583  0
3293  3294  3591  0
3591  3294  3592  0
3593  3295  3276  0
3296  3594  3595  0
3296  3595  3589  0
3296  3280  3594  0
3297  3594  3280  0
3280  3281  3297  0
3298  3596  3597  0
3298  3597  3299  0
3298  3300  3596  0
3300  3038  3598  0
3300  3598  3596  0
3282  3599  3301  0
3282  3590  3599  0
3294  3600  3592  0
3295  3593  3305  0
3594  3601  3595  0
3594  3297  3602  0
3594  3602  3601  0
3297  3603  3602  0
3297  3604  3603  0
3297  3299  3604  0
3038  3306  3605  0
3038  3605  3598  0
3599  3590  3606  0
3308  3607  3304  0
3304  3600  3294  0
3304  3607  3600  0
3306  3608  3605  0
3306  3309  3609  0
3306  3609  3608  0
3599  3310  3301  0
3305  3610  3040  0
3040  3610  3611  0
3040  3611  3044  0
3311  3612  3613  0
3311  3613  2821  0
3311  3312  3612  0
2821  3613  3609  0
2821  3609  3309  0
3614  3314  3049  0
3614  3049  3310  0
3614  3310  3599  0
3614  3599  3606  0
3313  3050  3315  0
3313  3315  3308  0
3308  3615  3607  0
3308  3315  3615  0
3044  3611  3616  0
3044  3616  3054  0
3312  3058  3317  0
3312  3317  3617  0
3312  3617  3612  0
3618  3314  3614  0
3618  3614  3619  0
3315  3316  3620  0
3315  3620  3615  0
3316  3057  3621  0
3316  3621  3620  0
3057  3053  3622  0
3057  3622  3621  0
3053  3054  3622  0
3317  3318  3617  0
3618  3617  3318  0
3318  3314  3618  0
3623  3624  3625  0
3626  3624  3623  0
3623  3625  3627  0
3623  3627  3628  0
3629  3628  3627  0
3628  3629  3319  0
3319  3629  3322  0
3623  3628  3630  0
3623  3630  3626  0
3628  3319  3630  0
3324  3630  3319  0
3322  3631  3323  0
3632  3323  3631  0
3632  3320  3323  0
3633  3324  3321  0
3321  3320  3633  0
3634  3633  3320  0
3320  3632  3634  0
3635  3634  3632  0
3636  3637  3638  0
3327  3638  3637  0
3637  3636  3325  0
3637  3325  3327  0
3325  3636  3329  0
3639  3329  3636  0
3329  3639  3332  0
3640  3332  3639  0
3641  3332  3640  0
3335  3642  3334  0
3643  3334  3642  0
3336  3334  3643  0
3644  3336  3643  0
3327  3328  3645  0
3646  3645  3328  0
3333  3332  3641  0
3647  3335  3349  0
3648  3336  3644  0
3336  3648  3337  0
3328  3340  3646  0
3649  3646  3340  0
3343  3650  3345  0
3651  3349  3354  0
3356  3064  3337  0
3340  3338  3350  0
3347  3652  3353  0
3353  3653  3352  0
3353  3652  3653  0
3653  3652  3654  0
3655  3354  3355  0
3354  3655  3651  0
3356  3656  3357  0
3340  3350  3657  0
3340  3657  3649  0
3350  3358  3658  0
3344  3352  3363  0
3352  3653  3659  0
3352  3659  3363  0
3653  3660  3659  0
3653  3661  3660  0
3653  3654  3661  0
3661  3662  3660  0
3661  3654  3663  0
3661  3663  3664  0
3664  3665  3661  0
3664  3663  3666  0
3667  3668  3655  0
3667  3655  3355  0
3667  3669  3668  0
3355  3360  3667  0
3357  3656  3670  0
3357  3670  3362  0
3358  3359  3671  0
3358  3671  3658  0
3359  3363  3672  0
3359  3672  3671  0
3363  3659  3673  0
3363  3673  3672  0
3660  3662  3659  0
3662  3661  3674  0
3662  3674  3675  0
3661  3665  3676  0
3661  3676  3674  0
3677  3668  3669  0
3667  3360  3669  0
3360  3365  3669  0
3362  3670  3678  0
3362  3678  3367  0
3674  3676  3369  0
3674  3369  3368  0
3679  3674  3368  0
3676  3680  3370  0
3676  3370  3369  0
3676  3665  3680  0
3669  3365  3681  0
3682  3365  3364  0
3071  3682  3364  0
3367  3678  3683  0
3679  3368  3373  0
3370  3680  3371  0
3681  3365  3682  0
3684  3682  3071  0
3071  3072  3684  0
3074  3684  3072  0
3367  3683  3372  0
3075  3375  3373  0
3375  3685  3373  0
3679  3373  3685  0
3686  3374  3371  0
3682  3684  3687  0
3079  3687  3684  0
3682  3687  3688  0
3684  3074  3079  0
3689  3372  3683  0
3690  3685  3375  0
3078  3374  3376  0
3687  3079  3081  0
3372  3689  3087  0
3691  3087  3689  0
3080  3692  3375  0
3690  3375  3692  0
3092  3376  3693  0
3377  3694  3081  0
3687  3081  3694  0
3695  3694  3377  0
3087  3691  3378  0
3084  3696  3080  0
3692  3080  3696  0
3084  3697  3696  0
3693  3380  3092  0
3381  3695  3377  0
3698  3082  3379  0
3082  3698  3083  0
3699  3096  3380  0
3695  3381  3700  0
3383  3388  3701  0
3383  3701  3379  0
3384  3702  3703  0
3384  3703  3385  0
3385  3703  3704  0
3385  3704  3386  0
3386  3704  3091  0
3091  3697  3084  0
3096  3699  3705  0
3096  3705  3389  0
3391  3094  3382  0
3388  3706  3701  0
3388  3390  3706  0
3097  3707  3387  0
3394  3095  3389  0
3394  3389  3705  0
3394  3705  3708  0
3396  3709  3707  0
3396  3707  3097  0
3395  3394  3708  0
3395  3708  3710  0
3395  3710  3393  0
3399  3711  3107  0
3107  3711  3101  0
3101  3711  3396  0
3102  3392  3712  0
3102  3712  3400  0
3106  3393  3713  0
3393  3710  3713  0
2870  3110  3403  0
3404  3714  3398  0
3404  3398  3397  0
3404  3715  3714  0
3103  3108  3716  0
3717  3716  3108  0
3402  3718  3110  0
3719  3110  3718  0
3110  3719  3403  0
3720  2873  3403  0
3406  3715  3404  0
3721  3406  3113  0
3400  3112  2640  0
3108  3408  3717  0
3405  3722  3410  0
3105  3722  3405  0
3723  3402  3115  0
2873  3720  3117  0
3724  3117  3720  0
3113  3407  3721  0
3725  3721  3407  0
3407  3409  3725  0
3112  3400  3726  0
3727  3112  3726  0
3723  3115  3411  0
3117  3724  3415  0
3728  3415  3724  0
3124  3729  3409  0
3725  3409  3729  0
3114  3112  3727  0
3114  3727  3412  0
3730  3412  3727  0
3731  3408  2884  0
3408  3731  3717  0
3411  3414  3732  0
3415  3728  3416  0
3123  3733  3124  0
3729  3124  3733  0
3734  2884  3126  0
2884  3734  3731  0
3421  3128  3121  0
3735  3414  3122  0
3736  3416  3728  0
2890  3412  3420  0
3413  3737  3425  0
3425  3738  3735  0
3425  3735  3122  0
3425  3737  3738  0
3429  3135  3416  0
3429  3416  3736  0
3429  3736  3739  0
3418  3426  3740  0
3418  3740  3741  0
3428  3137  3742  0
3137  3420  3743  0
3137  3743  3742  0
3126  3133  3744  0
3424  3745  3423  0
3423  3745  3130  0
3130  3745  3413  0
3413  3745  3746  0
3413  3746  3737  0
3739  3433  2900  0
3739  2900  3429  0
3739  3747  3433  0
3740  3426  3748  0
3426  3430  3748  0
3430  3139  3749  0
3430  3749  3750  0
3430  3750  3748  0
3139  3427  3751  0
3139  3751  3749  0
3427  3428  3752  0
3427  3752  3751  0
3428  3742  3752  0
3431  3744  3133  0
3138  3753  3424  0
3138  3432  3753  0
3433  3754  2903  0
3748  3750  3740  0
2899  3134  3755  0
2899  3755  3140  0
3432  2901  3756  0
3434  2903  3754  0
3141  3142  3757  0
3140  3758  2905  0
2905  3759  3436  0
3437  3756  2901  0
3760  3438  3435  0
3438  3760  3439  0
2905  3758  3759  0
3761  3439  3760  0
3439  3761  3440  0
3762  3440  3761  0
3440  3762  3145  0
3763  3442  3145  0
3764  3441  3144  0
3144  3443  3764  0
3765  3443  3146  0
3147  3446  3445  0
3766  3446  3442  0
3442  3763  3766  0
3767  3768  3450  0
3157  3450  3768  0
3768  3769  3157  0
3452  3157  3769  0
3768  3770  3769  0
3771  3452  3769  0
3146  3444  3765  0
3152  3449  3772  0
3773  3772  3449  0
3449  3445  3773  0
3774  3773  3445  0
3775  3774  3445  0
3445  3446  3775  0
3766  3775  3446  0
3767  3450  3451  0
3452  3771  3149  0
3149  3771  3447  0
3453  3447  3771  0
3448  3150  3776  0
3454  3152  3777  0
3772  3777  3152  0
3778  3451  3455  0
3453  3779  3159  0
3456  3159  3779  0
3457  3776  3150  0
3460  3454  3780  0
3460  3780  3458  0
3454  3777  3780  0
3455  3177  3778  0
3458  3781  3459  0
3778  3177  3469  0
3778  3469  3782  0
3166  3462  3783  0
3166  3783  3463  0
3465  3784  3466  0
3466  3784  3785  0
3466  3785  3468  0
3468  3785  3467  0
3781  3478  3464  0
3781  3458  3786  0
3781  3786  3787  0
3781  3787  3478  0
3781  3464  3459  0
3469  3470  3782  0
3478  3472  3464  0
3470  3183  3788  0
3183  3473  3788  0
3473  3789  3788  0
3473  3474  3790  0
3474  3475  3791  0
3474  3791  3790  0
3476  3184  3792  0
3184  2939  3793  0
3184  3793  3792  0
2939  3185  3793  0
3794  3480  3481  0
3479  3189  3795  0
3794  3796  3480  0
3482  3480  3796  0
3189  2713  3797  0
3483  3797  2713  0
3796  3484  3482  0
3798  3799  3800  0
3798  3801  3799  0
3799  3802  3800  0
3803  3800  3802  0
3799  3801  3802  0
3804  3802  3801  0
3802  3805  3803  0
3806  3803  3805  0
3802  3804  3805  0
3807  3805  3804  0
3805  3807  3806  0
3808  3806  3807  0
3483  2956  3493  0
3796  3809  3484  0
3496  3810  3798  0
3811  3798  3812  0
3798  3810  3812  0
3798  3800  3496  0
3494  3496  3800  0
3800  3803  3494  0
3497  3494  3803  0
3499  3497  3803  0
3803  3806  3499  0
3500  3499  3806  0
3806  3808  3500  0
3813  3500  3808  0
3486  3814  3485  0
3488  3485  3814  0
3490  3815  3491  0
3816  3491  3815  0
3491  3816  3492  0
3505  3194  3492  0
3817  3493  3212  0
3484  3809  3507  0
3818  3507  3809  0
3810  3496  3495  0
3500  3813  3501  0
3487  3502  3819  0
3489  3820  3203  0
3203  3820  3821  0
3504  3822  3490  0
3490  3822  3815  0
3492  3816  3505  0
3505  3823  3210  0
3210  3823  3817  0
3210  3817  3211  0
3211  3817  3212  0
3507  3818  3824  0
3825  3495  3508  0
3825  3826  3810  0
3825  3810  3495  0
3502  3202  3819  0
3203  3821  3204  0
3204  3821  3222  0
3222  3827  3509  0
3503  3509  3504  0
3507  3828  3510  0
3829  3514  3511  0
3829  3511  3501  0
3829  3501  3830  0
3829  3831  3514  0
3202  3832  3819  0
3202  3221  3832  0
3513  3833  3508  0
3513  3508  3231  0
3513  3521  3833  0
3524  3526  3834  0
3524  3835  3523  0
3526  3831  3834  0
3831  3526  3514  0
3221  3515  3832  0
3512  3519  3836  0
3512  3836  3518  0
3519  3229  3520  0
3519  3520  3836  0
3510  3837  3529  0
3510  3529  3235  0
3838  3521  3532  0
3838  3532  3531  0
3838  3833  3521  0
3521  3522  3532  0
3839  3525  3523  0
3839  3523  3835  0
3839  3840  3525  0
3517  3518  3527  0
3836  3520  3841  0
3842  3520  3528  0
3529  3837  3531  0
3525  3840  3530  0
3534  3842  3528  0
3533  3843  2999  0
3538  3844  3534  0
2999  3843  3000  0
3845  3000  3843  0
2994  3846  2995  0
3535  2995  3846  0
2994  3539  3846  0
3000  3845  3548  0
3847  3539  3245  0
3542  3848  3543  0
3849  3543  3848  0
3543  3849  3544  0
3551  3544  3849  0
3850  3551  3849  0
3555  3545  3254  0
3548  3851  3257  0
3560  3257  3851  0
3852  3847  3245  0
3245  3540  3852  0
3540  3549  3853  0
3540  3853  3852  0
3551  3850  3569  0
3261  3569  3850  0
3850  3538  3261  0
3250  3261  3538  0
3854  3564  3552  0
3854  3552  3554  0
3854  3554  3855  0
3554  3251  3856  0
3554  3856  3855  0
3545  3555  3857  0
3555  3556  3858  0
3555  3858  3859  0
3555  3859  3857  0
3556  3557  3858  0
3557  3547  3860  0
3557  3861  3858  0
3546  3013  3862  0
3546  3862  3547  0
3013  3559  3862  0
3560  3863  3561  0
3560  3851  3863  0
3564  3854  3864  0
3564  3864  3865  0
3564  3865  3866  0
3564  3866  3553  0
3858  3867  3859  0
3858  3861  3868  0
3558  3566  3869  0
3558  3869  3559  0
3566  3571  3870  0
3566  3870  3869  0
3561  3863  3871  0
3561  3871  3872  0
3561  3872  3567  0
3562  3568  3873  0
3562  3873  3249  0
3866  3874  3875  0
3866  3865  3876  0
3866  3876  3874  0
3866  3875  3553  0
3553  3875  3565  0
3858  3868  3867  0
3571  3573  3574  0
3571  3574  3877  0
3571  3877  3870  0
3574  3567  3872  0
3574  3872  3877  0
3568  3878  3873  0
3568  3273  3878  0
3875  3879  3565  0
3565  3879  3575  0
3273  3880  3878  0
3273  3576  3881  0
3273  3881  3880  0
3874  3882  3875  0
3874  3883  3882  0
3879  3875  3882  0
3884  3879  3882  0
3885  3879  3884  0
3879  3885  3575  0
3886  3575  3885  0
3575  3886  3578  0
3580  3578  3886  0
3582  3585  3887  0
3582  3887  3583  0
3888  3583  3887  0
3889  3587  3588  0
3588  3293  3889  0
3890  3293  3591  0
3591  3592  3890  0
3891  3890  3592  0
3892  3276  3577  0
3577  3579  3892  0
3893  3892  3579  0
3579  3589  3893  0
3882  3894  3884  0
3885  3597  3886  0
3596  3886  3597  0
3886  3596  3580  0
3598  3580  3596  0
3590  3580  3598  0
3576  3581  3895  0
3896  3895  3581  0
3581  3583  3896  0
3897  3896  3583  0
3888  3897  3583  0
3276  3892  3898  0
3276  3898  3593  0
3595  3893  3589  0
3884  3604  3885  0
3299  3885  3604  0
3884  3894  3604  0
3885  3299  3597  0
3605  3590  3598  0
3592  3600  3891  0
3899  3891  3600  0
3900  3593  3898  0
3602  3603  3901  0
3894  3901  3603  0
3603  3604  3894  0
3605  3608  3606  0
3605  3606  3590  0
3600  3607  3902  0
3593  3900  3305  0
3610  3305  3900  0
3608  3609  3619  0
3608  3619  3606  0
3613  3612  3903  0
3613  3903  3609  0
3609  3903  3619  0
3619  3614  3606  0
3615  3620  3607  0
3607  3620  3904  0
3607  3904  3902  0
3612  3617  3618  0
3612  3618  3903  0
3903  3618  3619  0
3622  3054  3905  0
3054  3616  3905  0
3906  3907  3908  0
3906  3909  3624  0
3906  3624  3907  0
3906  3908  3910  0
3906  3910  3909  0
3909  3625  3624  0
3909  3910  3911  0
3907  3624  3912  0
3624  3626  3912  0
3625  3909  3913  0
3625  3913  3627  0
3627  3913  3914  0
3627  3914  3629  0
3629  3914  3915  0
3629  3915  3916  0
3629  3916  3322  0
3322  3916  3631  0
3912  3626  3917  0
3626  3918  3917  0
3626  3630  3918  0
3631  3919  3632  0
3631  3920  3919  0
3919  3920  3921  0
3630  3324  3922  0
3630  3922  3918  0
3632  3919  3635  0
3324  3633  3922  0
3923  3633  3634  0
3924  3923  3634  0
3925  3634  3635  0
3635  3919  3926  0
3635  3926  3925  0
3925  3926  3927  0
3638  3928  3929  0
3929  3636  3638  0
3929  3930  3636  0
3636  3930  3931  0
3634  3925  3924  0
3932  3924  3925  0
3927  3932  3925  0
3928  3638  3933  0
3934  3933  3638  0
3638  3327  3934  0
3935  3934  3327  0
3636  3931  3639  0
3643  3642  3936  0
3937  3936  3642  0
3936  3938  3643  0
3327  3645  3935  0
3640  3939  3641  0
3335  3647  3642  0
3940  3642  3647  0
3643  3941  3644  0
3649  3645  3646  0
3942  3333  3641  0
3333  3942  3343  0
3943  3647  3349  0
3944  3337  3648  0
3945  3345  3650  0
3345  3945  3347  0
3943  3349  3651  0
3946  3356  3337  0
3947  3337  3944  0
3337  3947  3946  0
3948  3347  3945  0
3347  3948  3652  0
3949  3652  3948  0
3652  3950  3654  0
3652  3949  3950  0
3651  3655  3951  0
3946  3656  3356  0
3654  3950  3663  0
3952  3663  3950  0
3663  3952  3666  0
3953  3664  3666  0
3656  3946  3954  0
3656  3954  3670  0
3658  3955  3350  0
3658  3671  3955  0
3671  3956  3955  0
3671  3672  3956  0
3673  3659  3957  0
3659  3662  3675  0
3659  3675  3957  0
3664  3953  3680  0
3664  3680  3665  0
3670  3954  3958  0
3670  3958  3678  0
3955  3956  3959  0
3955  3959  3960  0
3672  3673  3961  0
3672  3961  3956  0
3673  3957  3961  0
3957  3675  3962  0
3957  3962  3963  0
3675  3679  3962  0
3675  3674  3679  0
3680  3953  3964  0
3677  3669  3965  0
3677  3965  3966  0
3677  3966  3668  0
3669  3681  3965  0
3678  3958  3683  0
3962  3685  3967  0
3962  3967  3963  0
3962  3679  3685  0
3680  3964  3371  0
3966  3965  3968  0
3965  3681  3969  0
3681  3682  3969  0
3682  3970  3969  0
3682  3688  3970  0
3683  3958  3971  0
3690  3967  3685  0
3371  3964  3972  0
3371  3972  3686  0
3968  3965  3969  0
3968  3969  3973  0
3683  3971  3974  0
3683  3974  3689  0
3374  3686  3376  0
3975  3376  3686  0
3976  3973  3969  0
3969  3970  3976  0
3977  3976  3970  0
3970  3688  3977  0
3694  3977  3688  0
3688  3687  3694  0
3692  3978  3690  0
3693  3376  3979  0
3975  3979  3376  0
3973  3976  3980  0
3695  3977  3694  0
3981  3982  3380  0
3699  3380  3982  0
3380  3693  3981  0
3979  3981  3693  0
3976  3977  3983  0
3977  3695  3700  0
3977  3700  3983  0
3691  3689  3378  0
3984  3378  3689  0
3985  3083  3698  0
3083  3985  3384  0
3702  3384  3985  0
3700  3381  3986  0
3378  3984  3382  0
3379  3987  3698  0
3379  3988  3987  0
3698  3987  3985  0
3091  3704  3989  0
3091  3989  3697  0
3990  3705  3699  0
3381  3387  3986  0
3382  3984  3391  0
3705  3990  3708  0
3991  3708  3990  0
3391  3992  3392  0
3390  3099  3993  0
3390  3993  3706  0
3708  3991  3710  0
3994  3710  3991  0
3398  3995  3399  0
3399  3995  3996  0
3711  3399  3997  0
3711  3998  3396  0
3709  3396  3998  0
3993  3099  3103  0
3993  3103  3716  0
3401  3106  3999  0
3106  3713  3999  0
3713  3710  3994  0
3713  3994  4000  0
3714  3715  4001  0
3714  4002  3398  0
3398  4002  3995  0
3996  3997  3399  0
3712  4003  3400  0
3401  3999  4004  0
3999  3713  4000  0
3403  3719  4005  0
3403  4005  3720  0
4006  4001  3715  0
3400  4003  3726  0
3722  3105  4007  0
3402  4008  3718  0
3402  3723  4008  0
3715  3406  4006  0
4009  4006  3406  0
3406  3721  4009  0
3729  4009  3721  0
3721  3725  3729  0
3410  3722  4010  0
3410  4010  4011  0
3722  4007  4012  0
3411  4013  4008  0
3411  4008  3723  0
3411  3732  4013  0
3724  4014  3728  0
3724  3720  4015  0
3724  4015  4014  0
4009  3729  3733  0
4016  4009  3733  0
3410  4011  3121  0
4017  3732  3414  0
4018  3728  4014  0
3123  3419  3733  0
3733  3419  4016  0
4019  4016  3419  0
4020  3412  3730  0
3121  4011  3421  0
3414  3735  4017  0
3728  4018  3736  0
3131  4019  3419  0
3131  3418  4019  0
4021  4019  3418  0
3412  4020  3420  0
3743  3420  4020  0
4022  3739  3736  0
3741  4021  3418  0
3741  4023  4021  0
3746  4024  3737  0
3747  3739  4022  0
3741  3740  4025  0
3741  4025  4023  0
4026  3750  3749  0
3752  3742  4027  0
3742  4028  4027  0
3742  3743  4029  0
3742  4029  4028  0
3734  3126  3744  0
3424  3753  3745  0
3754  3433  3747  0
4030  3740  4031  0
4030  4031  4032  0
4030  4033  4025  0
4030  4025  3740  0
4030  4032  4033  0
3740  3750  4031  0
3750  4026  4034  0
3134  4035  3755  0
3432  3756  3753  0
4032  4031  4036  0
4032  4037  4033  0
4031  3750  4034  0
4031  4034  4038  0
4031  4038  4036  0
3757  3431  3141  0
3757  3142  4039  0
3755  3758  3140  0
3756  3437  4040  0
3435  3434  4041  0
4032  4036  4042  0
4032  4042  4037  0
4043  4037  4042  0
3142  3441  4039  0
4044  4039  3441  0
3436  4045  3437  0
3437  4045  4040  0
3761  3760  4046  0
3760  3435  4046  0
3763  3145  3762  0
4042  4036  3767  0
3768  3767  4036  0
4042  3767  4043  0
4036  3770  3768  0
4036  4038  4047  0
4036  4047  3770  0
3441  3764  4044  0
3761  3763  3762  0
3767  3451  4043  0
3770  4048  3769  0
3769  4048  4049  0
3769  4049  3771  0
3771  4049  4050  0
3765  3764  3443  0
3776  3444  3448  0
3772  3773  4051  0
4052  4051  3773  0
3773  3774  4052  0
4053  4052  3774  0
3774  3775  4053  0
3763  4054  3766  0
4055  3766  4054  0
4056  4043  3451  0
3771  4050  3453  0
4057  3453  4050  0
3776  3765  3444  0
3777  3772  4058  0
4051  4058  3772  0
4059  4053  3775  0
3775  3766  4060  0
4055  4060  3766  0
3775  4060  4059  0
3778  4061  3451  0
3451  4061  4056  0
3453  4057  3779  0
3776  3457  4062  0
3776  4062  4063  0
3780  3777  4064  0
3777  4058  4064  0
4058  4051  4065  0
4051  4052  4065  0
4052  4066  4065  0
4052  4053  4066  0
4053  4059  4066  0
3779  4067  3456  0
3456  3462  3160  0
4062  3457  3467  0
4062  3467  3785  0
3778  3782  4061  0
3463  3783  3465  0
3465  4068  3784  0
3784  4069  3785  0
4062  3785  4069  0
4070  3787  3786  0
3458  3780  4071  0
3458  4071  3786  0
3470  3788  4072  0
3783  4068  3465  0
3787  4073  3478  0
3787  4070  4074  0
3787  4074  4073  0
3788  3789  4072  0
3789  3473  4075  0
4075  3473  3790  0
4075  3790  4076  0
4076  3790  4077  0
4073  4074  4078  0
3790  3791  4077  0
3792  4079  3476  0
3481  4073  4080  0
4080  4073  4078  0
4080  4078  4081  0
4080  4081  4082  0
4073  3481  3478  0
4083  3791  3475  0
3475  3476  4083  0
4079  4083  3476  0
3793  4079  3792  0
3793  3185  4084  0
3795  3185  3479  0
4080  3794  3481  0
4080  4082  4085  0
4080  4085  3794  0
4086  3796  3794  0
4086  3794  4085  0
3795  3189  4087  0
3797  4087  3189  0
3796  4086  3809  0
3798  4088  3801  0
3798  3811  4088  0
4089  4088  3811  0
3801  4088  4090  0
3801  4090  3804  0
3804  4090  4091  0
3804  4091  4092  0
3804  4092  3807  0
3807  4093  3808  0
3807  4092  4094  0
3807  4094  4093  0
4095  3814  3486  0
3814  4096  3488  0
4097  3488  4096  0
3489  3488  4097  0
4097  4098  3489  0
3810  4099  3812  0
3811  3812  4100  0
3812  4099  4100  0
4101  4100  4099  0
3808  4093  4102  0
3808  4102  3813  0
4103  3813  4102  0
3487  4095  3486  0
4104  4105  4095  0
4106  3493  3817  0
3483  3493  4106  0
4099  3810  3826  0
3501  3813  4107  0
4103  4107  3813  0
3501  4107  3830  0
4095  3487  4104  0
3487  3819  4104  0
3819  4108  4104  0
3815  3822  4109  0
3815  4109  3816  0
3823  3816  4109  0
3816  3823  3505  0
3823  4106  3817  0
3818  4110  3824  0
3830  4107  3829  0
4111  3829  4107  0
4112  3509  3827  0
3509  4112  3504  0
3504  4112  3822  0
4109  3822  4112  0
3824  3828  3507  0
3833  4113  3825  0
3825  3508  3833  0
3834  3831  4114  0
3834  4114  4115  0
3834  4115  4116  0
4114  3831  3829  0
4114  3829  4111  0
4114  4111  4115  0
3819  3832  4108  0
3824  4117  3828  0
3828  4118  3837  0
3828  3837  3510  0
3828  4117  4118  0
4118  4119  3838  0
4118  3838  3837  0
4119  3833  3838  0
4119  4113  3833  0
4120  3839  3835  0
4120  3835  4121  0
4120  4121  4122  0
4120  4122  4123  0
3835  3524  4121  0
3524  3834  4121  0
3832  4124  4108  0
3832  3515  4124  0
3837  3838  3531  0
4120  4125  3839  0
3840  3839  4125  0
4120  4123  4125  0
4124  3515  4126  0
3515  3516  4126  0
3516  3233  4127  0
3233  3527  4127  0
4128  3527  3518  0
3518  3836  4128  0
4129  4128  3836  0
3836  3841  4129  0
3842  3841  3520  0
3840  4125  4130  0
3840  4130  3530  0
3842  4129  3841  0
3842  3534  4131  0
3533  3530  4132  0
3533  4132  3843  0
3534  3844  4131  0
3843  4132  4133  0
3846  4134  4135  0
4135  4136  3846  0
3538  4137  3844  0
3844  4137  4138  0
3843  4133  3845  0
4134  3846  4139  0
3539  4139  3846  0
3846  4136  3535  0
3535  4136  3536  0
4140  3536  4136  0
3536  4140  3537  0
4141  3537  4140  0
4142  3849  3848  0
3538  4142  4137  0
4142  4138  4137  0
3845  4143  3548  0
3851  3548  4143  0
4139  3539  4144  0
3847  4144  3539  0
3537  4141  3541  0
4145  3541  4141  0
3541  4145  3246  0
3848  3246  4145  0
3246  3848  3542  0
3849  4142  3850  0
4142  3538  3850  0
3251  3545  3856  0
4146  3851  4143  0
3851  4146  3863  0
4147  3863  4146  0
3855  3856  4148  0
3856  3545  4149  0
3856  4149  4148  0
3545  3857  4149  0
3557  3860  3861  0
3860  4150  3861  0
3559  3869  4151  0
3559  4151  3862  0
3863  4147  3871  0
4152  3871  4147  0
3549  3249  4153  0
3549  4153  3853  0
3864  3854  3855  0
3859  3867  3857  0
3861  4154  3868  0
4155  4154  3861  0
3869  3870  4156  0
3870  3877  4156  0
4153  3249  3873  0
4153  3873  3878  0
3865  3864  4157  0
3865  4157  4158  0
3865  4158  3876  0
3867  3868  4159  0
3867  4160  3857  0
3877  3872  4152  0
3877  4152  4161  0
3872  3871  4152  0
4162  4163  3876  0
4162  3876  4158  0
3876  4163  3874  0
3867  4159  4160  0
3868  4154  4164  0
3868  4164  4159  0
3880  4165  3878  0
4163  3883  3874  0
4159  4164  4160  0
3881  4166  3880  0
3881  3576  4167  0
3881  4167  4166  0
4168  3586  3587  0
4168  4169  3586  0
3587  3889  4170  0
3587  4170  4168  0
3889  3293  3890  0
3576  3895  4167  0
3887  4171  3888  0
3585  4172  3887  0
3585  3586  4172  0
4169  4172  3586  0
3883  4173  3882  0
3894  3882  4173  0
3883  4163  4173  0
4174  3898  3892  0
3892  3893  4174  0
3595  4174  3893  0
4173  3901  3894  0
4175  3901  4173  0
4176  3899  3600  0
3898  4174  3900  0
4177  4174  3595  0
4178  3900  4174  0
3595  3601  4177  0
4179  4177  3601  0
3601  3602  4179  0
3901  4179  3602  0
3600  3902  4176  0
3900  4178  3610  0
3611  3610  4178  0
3904  4176  3902  0
4180  3611  4181  0
3611  4180  3616  0
4182  3616  4180  0
3905  3621  3622  0
4182  3905  3616  0
4183  3908  4184  0
3908  4183  3910  0
4185  3908  4186  0
3907  4186  3908  0
4185  4184  3908  0
3913  3909  3911  0
3916  3915  4187  0
4188  4187  4189  0
4187  3915  4189  0
4187  4188  3916  0
4190  3916  4188  0
4185  4186  4191  0
4186  3907  4192  0
4193  4192  3907  0
3912  4193  3907  0
4194  3913  4195  0
3913  4194  3914  0
3915  3914  4194  0
3916  3920  3631  0
3916  4190  3920  0
4196  3920  4190  0
4193  3912  4197  0
3912  3917  4197  0
3917  3918  4198  0
3920  4196  3921  0
3921  4199  3926  0
3921  3926  3919  0
3921  4196  4199  0
3633  3923  3922  0
3926  4200  3927  0
3926  4199  4200  0
3928  4201  4202  0
3928  4202  3929  0
3928  3933  4203  0
3928  4203  4201  0
3929  4202  3930  0
3924  3932  4204  0
3927  4200  4205  0
4206  4207  3936  0
4206  3936  3937  0
4206  3937  4208  0
4207  4209  3938  0
4207  3938  3936  0
3933  3934  4203  0
3934  3935  4203  0
3931  4210  3640  0
3931  3640  3639  0
3938  4211  3941  0
3938  3941  3643  0
3938  4209  4211  0
3640  4210  3939  0
3940  4212  3937  0
3940  3937  3642  0
3941  4211  4213  0
3941  4213  3644  0
3645  4214  3935  0
3645  3649  4214  0
3641  3939  3942  0
3647  3943  3940  0
4215  3940  3943  0
3644  4213  4216  0
3644  4216  3648  0
3648  4216  3944  0
4217  4214  3649  0
3343  3942  3650  0
3649  3657  4217  0
3950  3949  4218  0
4219  3651  3951  0
3651  4219  3943  0
4220  4215  3943  0
3946  3947  4221  0
4222  3950  4218  0
3950  4222  3952  0
4223  3952  4222  0
3952  4223  3666  0
3953  3666  4223  0
4224  3655  3668  0
3655  4224  3951  0
4219  4220  3943  0
4225  4220  4219  0
4226  3954  3946  0
3946  4221  4226  0
4227  4221  3947  0
3657  3350  4228  0
3955  4228  3350  0
3657  4228  4229  0
4230  3953  4223  0
3668  4231  4224  0
4225  4219  3951  0
4232  3958  3954  0
4227  4226  4221  0
3960  4228  3955  0
3961  3959  3956  0
3961  3957  3963  0
3953  4230  4233  0
4233  3964  3953  0
3668  3966  4234  0
3668  4234  4231  0
3961  3963  4235  0
3961  4235  4236  0
3963  3967  4235  0
4237  3964  4233  0
4234  3966  3968  0
4238  3971  3958  0
3967  3690  4239  0
3967  4239  4235  0
3964  4237  3972  0
4240  3972  4237  0
3968  3973  4241  0
3972  4240  4242  0
4243  4241  4244  0
4243  4244  4245  0
4241  3973  3980  0
4241  3980  4244  0
3978  4239  3690  0
3975  3686  4246  0
3686  3972  4242  0
3686  4242  4246  0
3980  4247  4248  0
3980  3976  4247  0
3976  3983  4247  0
3978  3692  3696  0
3978  3696  4249  0
3978  4249  4239  0
3982  3981  4250  0
3982  4250  4251  0
3982  4251  3699  0
3981  3979  4252  0
3981  4252  4250  0
3979  3975  4252  0
4247  4253  4248  0
4247  3983  4254  0
4247  4254  4253  0
3983  3700  4255  0
3689  3974  4256  0
3689  4256  3984  0
3697  4257  3696  0
3697  3989  4257  0
4258  3986  3387  0
3984  4259  3391  0
3379  3701  3988  0
3988  4260  3987  0
3703  3702  4261  0
3703  4261  3704  0
3704  4261  3989  0
3699  4262  3990  0
3387  3707  4258  0
3391  4259  3992  0
4263  3701  3706  0
3701  4263  3988  0
4264  3707  3709  0
3706  4265  4263  0
3706  3993  4265  0
3711  3997  3998  0
3998  4266  3709  0
4264  3709  4266  0
3991  4267  3994  0
3994  4267  4000  0
4268  3714  4001  0
3714  4268  4002  0
4269  4002  4268  0
4002  4269  3995  0
4270  3995  4269  0
