#!ascii file
30665  30451  30450  0
30234  30452  30666  0
30455  30665  30667  0
29975  30668  30235  0
30235  30668  30453  0
30454  30669  30237  0
30237  30669  30670  0
30237  30670  30238  0
29977  30239  30452  0
30455  30667  30671  0
30455  30671  30459  0
30242  30672  30456  0
30461  30238  30670  0
30461  30670  30673  0
30459  30671  30674  0
30459  30674  30464  0
30462  30461  30673  0
30467  30675  30460  0
30467  30460  30243  0
30463  29993  30245  0
30463  30676  29993  0
29994  29993  30676  0
29994  30676  30468  0
30246  30470  30458  0
30470  30677  30678  0
30247  30679  30469  0
30469  30680  30251  0
30677  30470  30471  0
30680  30681  30251  0
30251  30681  30476  0
30472  30479  30682  0
30682  30473  30472  0
30682  30683  30473  0
30684  30473  30683  0
30473  30684  30250  0
30685  30250  30684  0
30250  30685  30474  0
30474  30686  30475  0
30687  30686  30474  0
30677  30471  30688  0
30689  30688  30471  0
30471  30256  30689  0
30478  30690  30691  0
30691  30690  30692  0
30693  30692  30690  0
30691  30479  30478  0
30682  30479  30691  0
30480  30475  30686  0
30256  30486  30689  0
30483  30484  30690  0
30693  30690  30484  0
30690  30478  30483  0
30260  30483  30478  0
30686  30694  30480  0
30695  30480  30694  0
30696  30489  30697  0
30698  30697  30489  0
30489  30699  30488  0
30485  30488  30699  0
30489  30696  30699  0
30699  30484  30485  0
30480  30700  30258  0
30267  30258  30700  0
30480  30695  30700  0
30486  30487  30701  0
30702  30701  30487  0
30481  30703  30268  0
30272  30493  30489  0
30493  30698  30489  0
30704  30698  30493  0
30267  30700  30496  0
30705  30496  30700  0
30702  30487  30265  0
30494  30704  30493  0
30494  30495  30704  0
30706  30704  30495  0
30499  30707  30498  0
30707  30499  30708  0
30278  30708  30499  0
30708  30278  30496  0
30280  30496  30278  0
30709  30490  30497  0
30490  30709  30491  0
30710  30265  30492  0
30265  30710  30702  0
30498  30504  30282  0
30497  30500  30709  0
30492  30491  30709  0
30495  30502  30706  0
30711  30706  30502  0
30706  30711  30712  0
30713  30712  30711  0
30503  30504  30714  0
30715  30505  30716  0
30505  30506  30716  0
30508  30716  30506  0
30505  30715  30500  0
30717  30500  30715  0
30500  30717  30709  0
30718  30709  30717  0
30709  30718  30492  0
30710  30492  30718  0
30507  30503  30714  0
30713  30502  30501  0
30502  30713  30711  0
30508  30288  30719  0
30720  30719  30288  0
30713  30501  30721  0
30720  30288  30290  0
30290  30510  30720  0
30722  30720  30510  0
30509  30723  30289  0
30724  30289  30723  0
30289  30724  30511  0
30725  30291  30511  0
30291  30725  30046  0
30726  30046  30725  0
30046  30726  30512  0
30727  30512  30726  0
30512  30727  30728  0
30729  30728  30727  0
30514  30510  30045  0
30512  30728  30513  0
30728  30730  30513  0
30728  30729  30730  0
30731  30730  30729  0
30513  30730  30518  0
30732  30518  30730  0
30730  30731  30732  0
30733  30732  30731  0
30515  30050  30051  0
30516  30515  30294  0
30518  30732  30517  0
30734  30298  30050  0
30050  30515  30734  0
30515  30516  30735  0
30736  30735  30516  0
30516  30521  30736  0
30522  30736  30521  0
30522  30517  30737  0
30732  30737  30517  0
30297  30055  30738  0
30739  30520  30519  0
30524  30738  30055  0
30740  30524  30741  0
30524  30300  30741  0
30299  30525  30742  0
30299  30742  30526  0
30299  30526  30058  0
30742  30743  30526  0
30526  30743  30744  0
30526  30744  30301  0
30301  30744  30745  0
30301  30745  30302  0
30302  30745  30303  0
30303  30745  30746  0
30303  30746  30304  0
30304  30746  30747  0
30304  30747  30527  0
30527  30747  30305  0
30305  30747  30748  0
30305  30748  30528  0
30530  30749  30531  0
30530  30528  30749  0
30749  30750  30531  0
30531  30750  30751  0
30531  30751  30533  0
30533  30751  30752  0
30533  30752  30535  0
30535  30752  30753  0
30535  30753  30537  0
30537  30753  30754  0
30534  30074  30755  0
30074  30536  30755  0
30537  30754  30538  0
30317  30318  30536  0
30756  30757  30758  0
30756  30758  30759  0
30756  30759  30760  0
30756  30760  30761  0
30757  30756  30762  0
30757  30762  30763  0
30757  30763  30758  0
30763  30764  30758  0
30763  30762  30765  0
30763  30765  30766  0
30763  30766  30764  0
30765  30767  30768  0
30765  30768  30766  0
30767  30320  30538  0
30767  30538  30768  0
30079  30769  30539  0
30539  30769  30770  0
30318  30540  30771  0
30318  30771  30536  0
30761  30772  30756  0
30756  30772  30762  0
30762  30772  30773  0
30762  30773  30765  0
30765  30773  30329  0
30765  30329  30767  0
30767  30329  30320  0
30539  30770  30325  0
30540  30541  30771  0
30541  30774  30771  0
30772  30547  30773  0
30772  30775  30547  0
30773  30547  30333  0
30773  30333  30329  0
30325  30770  30776  0
30325  30776  30544  0
30541  30542  30774  0
30542  30543  30774  0
30543  30328  30545  0
30543  30545  30775  0
30543  30775  30774  0
30775  30545  30546  0
30775  30546  30547  0
30777  30548  30544  0
30777  30544  30776  0
30549  30548  30777  0
30549  30777  30778  0
30549  30778  30779  0
30116  30549  30779  0
30115  30117  30780  0
30117  30551  30781  0
30117  30781  30780  0
30551  30552  30782  0
30551  30782  30781  0
30783  30784  30560  0
30783  30560  30340  0
30783  30340  30785  0
30784  30343  30560  0
30784  30786  30343  0
30343  30787  30554  0
30555  30788  30556  0
30555  30554  30789  0
30555  30789  30788  0
30340  30346  30790  0
30340  30790  30785  0
30556  30788  30791  0
30556  30791  30792  0
30556  30792  30561  0
30346  30564  30790  0
30793  30794  30347  0
30793  30347  30561  0
30793  30561  30792  0
30793  30792  30795  0
30793  30795  30796  0
30793  30796  30794  0
30558  30562  30557  0
30351  30559  30797  0
30564  30563  30566  0
30794  30565  30347  0
30794  30796  30798  0
30562  30349  30799  0
30794  30798  30800  0
30794  30800  30565  0
30565  30800  30801  0
30565  30801  30567  0
30567  30801  30568  0
30569  30802  30349  0
30569  30361  30802  0
30351  30797  30354  0
30803  30580  30577  0
30803  30804  30580  0
30803  30577  30805  0
30580  30804  30571  0
30566  30571  30804  0
30806  30581  30575  0
30806  30807  30808  0
30806  30808  30581  0
30809  30581  30808  0
30806  30575  30574  0
30806  30574  30810  0
30806  30810  30807  0
30574  30573  30811  0
30574  30811  30810  0
30573  30568  30811  0
30361  30812  30802  0
30578  30813  30577  0
30805  30577  30813  0
30814  30813  30578  0
30815  30581  30809  0
30361  30583  30812  0
30587  30354  30816  0
30584  30814  30578  0
30581  30817  30582  0
30585  30582  30817  0
30581  30815  30817  0
30818  30817  30815  0
30587  29870  30354  0
30814  30584  30588  0
30814  30588  30819  0
30820  30819  30588  0
30817  30818  30585  0
30821  30585  30818  0
30380  30377  30585  0
30590  30822  30586  0
30586  30822  30583  0
30823  30820  30588  0
30588  30379  30823  0
30824  30823  30379  0
30589  30824  30379  0
30585  30595  30380  0
30585  30821  30595  0
30825  30824  30589  0
30589  30383  30825  0
30826  30825  30383  0
30383  30593  30826  0
30593  30594  30826  0
30827  30826  30594  0
30594  30595  30827  0
30821  30827  30595  0
30597  30384  30599  0
30602  30599  30384  0
30828  30387  30389  0
30829  30601  30599  0
30599  30602  30829  0
30830  30829  30602  0
30603  30831  30396  0
30396  30831  30608  0
30603  30604  30832  0
30833  30832  30604  0
30834  30833  30604  0
30605  30835  30606  0
30606  30835  30610  0
30836  30610  30835  0
30600  30601  30402  0
30837  30402  30601  0
30602  30391  30607  0
30602  30607  30830  0
30838  30830  30607  0
30839  30405  30608  0
30604  30609  30834  0
30617  30834  30609  0
30840  30834  30617  0
30610  30836  30619  0
30841  30619  30836  0
30619  30841  30620  0
30622  30620  30841  0
30828  30389  30842  0
30389  30611  30842  0
30402  30837  30625  0
30613  30843  30607  0
30607  30843  30838  0
30405  30839  30614  0
30844  30614  30839  0
30617  30618  30845  0
30617  30845  30840  0
30846  30840  30845  0
30845  30847  30846  0
30848  30846  30847  0
30849  30848  30847  0
30847  30629  30849  0
30628  30849  30629  0
30849  30628  30850  0
30631  30850  30628  0
30851  30849  30850  0
30850  30631  30851  0
30852  30851  30631  0
30622  30853  30623  0
30854  30623  30853  0
30623  30854  30624  0
30855  30624  30854  0
30842  30611  30856  0
30611  30401  30856  0
30633  30856  30401  0
30857  30625  30858  0
30859  30860  30843  0
30860  30861  30843  0
30838  30843  30861  0
30862  30861  30860  0
30843  30613  30859  0
30863  30859  30613  0
30613  30614  30864  0
30844  30864  30614  0
30613  30864  30863  0
30865  30863  30864  0
30626  30845  30618  0
30845  30626  30847  0
30637  30847  30626  0
30847  30637  30629  0
30627  30629  30637  0
30631  30630  30852  0
30866  30852  30630  0
30630  30632  30867  0
30638  30867  30632  0
30630  30867  30866  0
30867  30638  30868  0
30639  30868  30638  0
30855  30868  30639  0
30639  30640  30624  0
30424  30624  30640  0
30639  30624  30855  0
30625  30857  30634  0
30860  30859  30645  0
30646  30645  30859  0
30860  30645  30862  0
30859  30863  30646  0
30869  30646  30863  0
30863  30865  30869  0
30870  30869  30865  0
30641  30871  30633  0
30872  30871  30641  0
30873  30642  30425  0
30646  30869  30648  0
30874  30648  30869  0
30869  30870  30874  0
30872  30641  30649  0
30651  30642  30655  0
30873  30655  30642  0
30648  30874  30875  0
30652  30650  30434  0
30652  30653  30876  0
30653  30654  30876  0
30877  30876  30654  0
30654  30656  30877  0
30878  30657  30659  0
30439  30879  30440  0
30440  30879  30880  0
30440  30880  30660  0
30659  30442  30878  0
30881  30878  30442  0
30442  30443  30881  0
30882  30881  30443  0
30883  30884  30661  0
30660  30883  30661  0
30443  30446  30885  0
30443  30885  30882  0
30884  30886  30662  0
30884  30662  30661  0
30446  30887  30885  0
30886  30888  30663  0
30886  30663  30662  0
30446  30447  30889  0
30888  30890  30665  0
30888  30665  30663  0
30447  30664  30889  0
30664  30666  30891  0
30664  30891  30889  0
30890  30667  30665  0
30668  30892  30893  0
30668  30893  30453  0
30668  29975  30892  0
30453  30893  30894  0
30894  30895  30454  0
30894  30454  30453  0
30895  30896  30454  0
30666  30452  30897  0
30456  30898  30899  0
30456  30899  29975  0
30456  30672  30898  0
29975  30899  30892  0
30454  30896  30669  0
30452  30239  30457  0
30452  30457  30900  0
30452  30900  30897  0
30672  30242  30460  0
30672  30460  30901  0
30673  30902  30462  0
30457  30903  30900  0
30460  30904  30901  0
30460  30675  30904  0
30463  30462  30902  0
30903  30457  30458  0
30674  30905  30464  0
30675  30467  30906  0
30676  30463  30907  0
30903  30458  30678  0
30464  30905  30908  0
30464  30908  30465  0
30909  30906  30466  0
30909  30466  30465  0
30906  30467  30466  0
30676  30910  30911  0
30676  30911  30468  0
30676  30907  30910  0
30678  30458  30470  0
30465  30908  30909  0
30679  30247  30468  0
30679  30468  30911  0
30679  30911  30680  0
30678  30912  30913  0
30678  30913  30914  0
30680  30469  30679  0
30680  30915  30681  0
30912  30678  30677  0
30912  30916  30913  0
30683  30917  30918  0
30683  30918  30684  0
30683  30682  30919  0
30683  30919  30917  0
30677  30688  30912  0
30681  30920  30476  0
30921  30682  30691  0
30921  30691  30692  0
30921  30922  30919  0
30921  30919  30682  0
30921  30692  30923  0
30921  30923  30922  0
30684  30924  30685  0
30685  30687  30474  0
30685  30925  30687  0
30688  30689  30926  0
30689  30927  30926  0
30476  30920  30928  0
30476  30928  30481  0
30693  30929  30923  0
30693  30484  30930  0
30693  30930  30929  0
30693  30923  30692  0
30687  30931  30694  0
30687  30694  30686  0
30689  30486  30927  0
30481  30928  30932  0
30697  30933  30934  0
30697  30934  30696  0
30697  30935  30933  0
30696  30484  30699  0
30696  30934  30930  0
30696  30930  30484  0
30931  30936  30695  0
30931  30695  30694  0
30931  30687  30937  0
30931  30937  30936  0
30486  30701  30938  0
30486  30938  30927  0
30481  30932  30703  0
30935  30697  30698  0
30935  30698  30939  0
30935  30939  30940  0
30936  30705  30700  0
30936  30700  30695  0
30936  30937  30941  0
30936  30941  30705  0
30703  30932  30942  0
30698  30704  30939  0
30705  30708  30496  0
30705  30941  30943  0
30705  30943  30944  0
30705  30944  30708  0
30702  30945  30701  0
30704  30946  30939  0
30947  30498  30707  0
30947  30707  30948  0
30707  30708  30944  0
30707  30944  30948  0
30702  30710  30945  0
30268  30703  30501  0
30703  30942  30721  0
30703  30721  30501  0
30706  30946  30704  0
30706  30712  30949  0
30706  30949  30946  0
30950  30714  30504  0
30950  30504  30951  0
30504  30498  30947  0
30504  30947  30951  0
30952  30953  30715  0
30952  30715  30716  0
30952  30954  30953  0
30955  30953  30954  0
30953  30955  30717  0
30953  30717  30715  0
30956  30717  30955  0
30712  30713  30957  0
30712  30957  30949  0
30958  30714  30950  0
30716  30508  30959  0
30716  30959  30952  0
30717  30956  30718  0
30710  30718  30960  0
30507  30714  30958  0
30961  30507  30958  0
30508  30719  30959  0
30962  30959  30719  0
30960  30718  30963  0
30964  30957  30713  0
30719  30720  30962  0
30965  30962  30720  0
30721  30966  30713  0
30967  30713  30966  0
30964  30713  30967  0
30720  30968  30965  0
30969  30965  30968  0
30507  30961  30509  0
30723  30509  30961  0
30970  30971  30972  0
30971  30973  30974  0
30971  30970  30973  0
30975  30974  30973  0
30973  30976  30975  0
30977  30975  30976  0
30720  30722  30968  0
30978  30968  30722  0
30968  30978  30969  0
30723  30979  30724  0
30511  30724  30725  0
30980  30725  30724  0
30725  30980  30726  0
30972  30726  30980  0
30726  30971  30727  0
30726  30972  30971  0
30971  30974  30727  0
30974  30975  30981  0
30982  30981  30975  0
30983  30982  30975  0
30975  30977  30983  0
30984  30722  30510  0
30722  30984  30978  0
30727  30974  30729  0
30974  30981  30729  0
30982  30729  30981  0
30510  30514  30984  0
30729  30982  30731  0
30982  30983  30731  0
30985  30731  30983  0
30986  30733  30731  0
30731  30985  30986  0
30514  30293  30987  0
30522  30988  30736  0
30988  30522  30989  0
30988  30989  30990  0
30991  30990  30989  0
30737  30989  30522  0
30989  30737  30991  0
30992  30991  30737  0
30737  30732  30733  0
30737  30733  30992  0
30986  30992  30733  0
30520  30739  30293  0
30987  30293  30739  0
30993  30734  30515  0
30515  30735  30993  0
30994  30993  30735  0
30736  30994  30735  0
30995  30297  30738  0
30297  30995  30519  0
30739  30519  30995  0
30298  30734  30996  0
30997  30738  30524  0
30740  30997  30524  0
30523  30998  30525  0
30525  30998  30742  0
30744  30999  30745  0
31000  30745  30999  0
30745  31000  30746  0
31001  30746  31000  0
30746  31001  30747  0
31002  30747  31001  0
31003  30747  31002  0
30747  31003  30748  0
31004  30748  31003  0
30748  31004  30528  0
30749  30528  31004  0
31005  30749  31004  0
30749  31005  30750  0
30307  30075  31006  0
30750  31005  30751  0
31007  30751  31005  0
30751  31007  30752  0
31008  30752  31007  0
30752  31008  30753  0
30075  30534  31006  0
31009  31006  30534  0
30753  31010  30754  0
31011  30754  31010  0
30753  31008  31010  0
30079  30532  31012  0
30534  30755  31009  0
31013  31009  30755  0
30755  30536  31013  0
31014  30759  31015  0
30758  31015  30759  0
31014  31015  31016  0
31017  31016  31015  0
31015  30758  31017  0
30764  31017  30758  0
30764  30766  31018  0
30768  31018  30766  0
31018  30768  30754  0
30538  30754  30768  0
31019  31018  30754  0
30754  31011  31019  0
29818  30321  30300  0
30536  31020  31013  0
31021  31013  31020  0
30771  31020  30536  0
31020  30771  31022  0
31020  31022  31021  0
31023  31021  31022  0
31024  31023  31022  0
31022  31025  31024  0
31025  31026  31024  0
30759  31024  31026  0
30760  30759  31026  0
31027  30300  30321  0
30079  31012  30769  0
30769  31028  30770  0
31022  30771  30774  0
31022  30774  31025  0
31025  30774  31029  0
31025  31029  31026  0
31026  31029  30760  0
30760  31029  30761  0
30770  31028  31030  0
31029  30774  30775  0
31029  30775  30761  0
30761  30775  30772  0
31030  30777  30776  0
31030  30776  30770  0
30321  29337  31027  0
30778  30777  31030  0
30116  30779  31031  0
30116  31031  30550  0
30787  30786  31032  0
30787  30789  30554  0
30787  31032  31033  0
30787  31033  30789  0
30789  31034  30788  0
30789  31033  31035  0
30789  31035  31034  0
30781  30782  31036  0
30781  31036  30780  0
30782  30552  31036  0
30552  31037  31036  0
31038  30783  30785  0
31038  30785  31039  0
31038  31040  30783  0
30783  31040  31041  0
30783  31041  30784  0
30784  31041  31042  0
30784  31042  30786  0
30343  30786  30787  0
30788  31034  30791  0
30552  30557  31037  0
31039  30785  30790  0
31039  30790  31043  0
31044  30795  30792  0
31044  31045  30795  0
30792  30791  31046  0
30792  31046  31044  0
31043  30790  30564  0
31043  30564  31047  0
31043  31047  31048  0
30795  31049  30796  0
30795  31050  31049  0
30557  30562  31051  0
31047  30564  30566  0
30796  31049  31052  0
30796  31052  30798  0
30562  30799  31051  0
31053  31054  30805  0
31053  30805  31055  0
31054  30804  30803  0
31054  30803  30805  0
31054  31056  30804  0
30804  31056  31057  0
30804  31057  31047  0
31047  30566  30804  0
30798  31052  31058  0
30798  31058  30800  0
30800  31058  30801  0
30801  31059  30568  0
30799  30349  31060  0
30349  30802  31060  0
30797  31061  30354  0
31055  30805  30813  0
31055  30813  31062  0
31055  31062  31063  0
30808  31064  31065  0
30808  31065  30809  0
30808  30807  31066  0
30808  31066  31064  0
30807  30810  31067  0
30807  31067  31066  0
30810  30811  31068  0
30810  31068  31067  0
30811  30568  31059  0
30811  31059  31068  0
30802  30812  31069  0
30354  31061  30816  0
31062  30813  30814  0
31062  30814  31070  0
31071  31072  30815  0
31071  30815  30809  0
31071  30809  31065  0
31071  31065  31073  0
31071  31073  31072  0
30812  30583  31074  0
30816  31061  31075  0
31070  30814  30819  0
31070  30819  31076  0
31072  31077  30818  0
31072  30818  30815  0
31072  31078  31077  0
30822  31079  31080  0
30822  31080  31074  0
30822  31074  30583  0
30816  31081  31082  0
30816  31082  30587  0
30816  31075  31081  0
31076  30819  30820  0
30818  31077  30821  0
31083  30821  31077  0
30822  30590  31079  0
30587  31082  30592  0
31084  31082  31081  0
31076  30820  31085  0
30820  30823  31086  0
30820  31086  31085  0
30821  31083  30827  0
30590  30386  31087  0
31088  31089  30833  0
30592  31082  30598  0
31082  31084  30835  0
31082  30835  30598  0
31086  30823  31090  0
31086  31090  31085  0
30823  30824  31091  0
30823  31091  31090  0
30824  30825  31092  0
30824  31092  31091  0
30825  30826  31092  0
30826  31093  31092  0
30826  30827  31093  0
30386  30387  31094  0
30386  31094  31087  0
30387  31095  31094  0
31095  30387  30828  0
30832  30831  30603  0
30832  31096  30831  0
31089  30832  30833  0
30833  31097  31088  0
30833  31098  31097  0
30598  30835  30605  0
31099  30835  31084  0
30829  30830  31100  0
31101  30608  30831  0
30833  30834  31098  0
31098  30834  31102  0
31103  31098  31102  0
31104  31103  31102  0
30835  31099  30836  0
30841  30836  31099  0
31099  31105  30841  0
31106  30841  31105  0
31106  31107  31108  0
30601  31109  30837  0
30838  31110  30830  0
30608  31101  30839  0
31111  30839  31101  0
30834  30840  31102  0
30846  31102  30840  0
31102  30846  31104  0
31104  30846  30848  0
31104  30848  31112  0
30849  31113  30848  0
30848  31113  31112  0
31114  31112  31113  0
31115  31114  31113  0
31113  30849  31115  0
30851  31115  30849  0
31115  30851  31116  0
31117  31116  30851  0
30841  31108  30622  0
30853  30622  31108  0
30841  31106  31108  0
30854  30853  31108  0
31108  31107  30854  0
31118  30854  31107  0
31119  30842  30856  0
30625  30837  30858  0
31110  30838  30861  0
31120  31110  30861  0
30839  31111  30844  0
31121  30844  31111  0
30851  30852  31117  0
31122  31117  30852  0
30852  30866  31122  0
30854  31118  30855  0
31119  30856  31123  0
30633  31123  30856  0
30858  31124  30857  0
30862  31125  30861  0
31120  30861  31125  0
30864  30844  30865  0
31126  30865  30844  0
30844  31121  31126  0
31127  31126  31121  0
31128  30866  30867  0
30867  30868  31128  0
30868  30855  31128  0
31118  31128  30855  0
31123  30633  30871  0
31129  31123  30871  0
30634  30857  30425  0
30425  30857  31130  0
30865  31126  30870  0
31127  30870  31126  0
30871  30872  31129  0
30425  31130  30873  0
30870  31127  31131  0
30870  31131  30874  0
31132  30874  31131  0
30649  30650  30872  0
31133  30872  30650  0
30874  31132  30875  0
31134  30875  31132  0
30650  30652  31133  0
31135  31133  30652  0
30652  30876  31135  0
31136  31135  30876  0
30877  31136  30876  0
30657  31137  30658  0
31138  30658  31137  0
30657  30878  31137  0
30658  31138  30439  0
30879  30439  31138  0
30883  30880  31139  0
30880  30883  30660  0
31139  30884  30883  0
31139  31140  30884  0
31141  30884  31140  0
30886  30884  31142  0
30884  31141  31142  0
30888  30886  31142  0
30446  31143  30887  0
30446  30889  31143  0
31142  31144  30888  0
30888  31144  30890  0
30893  30892  31145  0
30893  31145  30894  0
30667  30890  31146  0
30890  31144  31146  0
30899  30898  31147  0
30894  31148  30895  0
30891  30666  31149  0
30897  31149  30666  0
31146  30671  30667  0
31146  31150  30671  0
30672  30901  30898  0
30904  30898  30901  0
31151  30673  30896  0
30670  30896  30673  0
31151  30896  31152  0
30895  31152  30896  0
30896  30670  30669  0
30900  31149  30897  0
30671  31150  31153  0
30671  31153  30674  0
31154  30902  30673  0
31154  30673  31155  0
31151  31155  30673  0
31156  31149  30900  0
30903  31157  30900  0
30900  31157  31156  0
30675  30906  30904  0
30904  30906  31158  0
31154  31159  30907  0
30907  30463  30902  0
30907  30902  31154  0
31157  31160  31156  0
30674  31153  30905  0
30906  30909  31158  0
30910  30907  31161  0
31157  30903  30678  0
31157  30678  30914  0
31157  30914  31160  0
30908  30905  31162  0
30908  31162  30909  0
30914  31163  31160  0
30911  30915  30680  0
30911  31164  30915  0
31163  30914  30913  0
31163  30913  31165  0
30913  30916  31165  0
30915  30920  30681  0
31166  30917  30919  0
31166  30919  30922  0
31166  30922  31167  0
30917  31166  30918  0
30918  30924  30684  0
30912  30688  31168  0
30912  31168  30916  0
31169  31170  30923  0
31169  30923  30929  0
31169  31171  31172  0
31169  31172  31170  0
31169  30929  31171  0
31170  30922  30923  0
31170  31172  31167  0
31170  31167  30922  0
30924  30925  30685  0
30688  30926  31168  0
30933  31173  30934  0
30933  31174  31173  0
30934  30929  30930  0
30934  31173  30929  0
30925  31175  30937  0
30925  30924  31175  0
30925  30937  30687  0
30927  30938  30926  0
31174  30933  30935  0
31174  30935  30940  0
31174  30940  31176  0
31174  31176  31177  0
31178  31179  30943  0
31178  30943  31175  0
31178  31180  31179  0
31175  30943  30941  0
31175  30941  30937  0
30938  30701  31181  0
30940  30939  31176  0
31179  31180  31182  0
30939  31183  31176  0
31182  31184  30948  0
31182  31185  31184  0
31182  30948  31179  0
31179  30948  30944  0
31179  30944  30943  0
30701  30945  31181  0
30939  30946  30949  0
30939  30949  31183  0
31184  31185  31186  0
31184  31186  31187  0
31184  31187  30951  0
31184  30951  30947  0
31184  30947  30948  0
30942  31188  30721  0
30951  31187  31189  0
30951  31189  30950  0
30954  30952  31190  0
30955  30954  31191  0
30955  31191  30956  0
30949  30957  31192  0
30958  30950  31189  0
30952  30959  31193  0
30952  31193  31190  0
30956  30963  30718  0
30956  31194  30963  0
30945  30710  31195  0
31196  30961  30958  0
31196  30958  31197  0
30959  30962  31198  0
30959  31198  31193  0
30960  31199  30710  0
30710  31199  31195  0
30721  31188  31200  0
30962  30965  31201  0
30962  31201  31198  0
30963  31199  30960  0
30721  31200  30966  0
30979  30961  31196  0
30970  31202  30973  0
30970  31203  31202  0
30970  31204  31203  0
31202  30976  30973  0
31205  30976  31202  0
31206  30976  31205  0
30965  30969  31207  0
30965  31207  31201  0
30980  31208  30972  0
30980  31209  31208  0
31204  30972  31208  0
30972  31204  30970  0
30976  31206  30977  0
30961  30979  30723  0
30724  31209  30980  0
31210  31211  30983  0
31210  30983  30977  0
31212  31211  31210  0
30978  31213  30969  0
31214  31215  31212  0
31216  31212  31215  0
31214  31212  31217  0
31212  31216  31211  0
30985  31211  31216  0
31211  30985  30983  0
30984  31218  30978  0
31213  30978  31218  0
30984  31219  31218  0
31220  31218  31219  0
31221  30991  31215  0
30992  31215  30991  0
31221  31215  31214  0
31215  30992  31216  0
30986  31216  30992  0
31216  30986  30985  0
30984  30514  31219  0
30991  31222  30990  0
31222  30991  31221  0
30514  30987  31219  0
30736  31223  30994  0
31223  30736  30988  0
30990  31223  30988  0
30738  30997  30995  0
31224  30739  30995  0
30739  31224  30987  0
31225  30987  31224  0
30298  30996  30523  0
30734  30993  30996  0
30523  30996  30998  0
30998  31226  30742  0
31227  30742  31226  0
30742  31227  30743  0
31228  30743  31227  0
31003  31229  31230  0
31230  31231  31003  0
31003  31231  31232  0
30743  31228  30744  0
31233  30744  31228  0
30744  31233  30999  0
31234  30999  31233  0
30999  31234  31000  0
31235  31000  31234  0
31000  31236  31001  0
31000  31235  31236  0
31236  31002  31001  0
31229  31002  31236  0
31003  31002  31229  0
31003  31232  31004  0
31232  31237  31004  0
31238  31237  31232  0
31004  31237  31005  0
31007  31005  31237  0
31237  31238  31007  0
31239  31007  31238  0
31007  31239  31008  0
31240  31008  31239  0
30532  30307  31241  0
31010  31008  31242  0
31008  31240  31242  0
31243  31010  31242  0
31242  31244  31243  0
31245  31006  31009  0
31009  31013  31245  0
31010  31243  31011  0
31246  31245  31013  0
31246  31013  31021  0
31246  31021  31247  0
31248  31247  31021  0
31021  31023  31248  0
31024  31249  31023  0
31023  31249  31248  0
31249  31024  31250  0
30759  31250  31024  0
31251  31249  31250  0
31250  30759  31014  0
31250  31014  31251  0
31014  31016  31251  0
31016  31017  31252  0
31253  31252  31017  0
31017  30764  31253  0
30764  31018  31253  0
31254  31018  31019  0
31019  31011  31254  0
31255  31254  31011  0
31011  31243  31255  0
31028  30769  31012  0
31028  31256  31030  0
30778  31030  31256  0
31027  29337  31257  0
30115  31257  29337  0
30779  30778  31258  0
30115  30780  31259  0
31260  31259  30780  0
30779  31258  31031  0
31036  31260  30780  0
31038  31261  31262  0
31262  31040  31038  0
31262  31263  31040  0
31264  30786  31042  0
30786  31264  31265  0
30786  31265  31032  0
31032  31266  31033  0
31033  31266  31035  0
31035  31267  31034  0
31034  31267  31268  0
31031  31269  30550  0
31270  30550  31269  0
31271  31272  31261  0
31261  31038  31271  0
31039  31271  31038  0
31045  31044  31046  0
31045  31046  31273  0
30791  31034  31268  0
30791  31268  31046  0
31037  31274  31275  0
31272  31271  31276  0
31271  31039  31043  0
31271  31043  31048  0
31271  31048  31277  0
31271  31277  31276  0
31045  31050  30795  0
31037  30557  31274  0
30550  31270  30559  0
31048  31047  31057  0
31048  31057  31277  0
30557  31051  31274  0
30559  31278  30797  0
31279  31280  31055  0
31279  31055  31281  0
31280  31054  31053  0
31280  31053  31055  0
31280  31056  31054  0
31049  31282  31052  0
31049  31050  31282  0
30799  31060  31051  0
30797  31278  31061  0
31281  31055  31063  0
31281  31063  31283  0
31052  31282  31284  0
31052  31284  31058  0
31058  31284  31285  0
31058  31285  30801  0
30801  31285  31286  0
30801  31286  31059  0
30802  31069  31060  0
31061  31287  31075  0
31061  31278  31287  0
31283  31063  31288  0
31283  31288  31289  0
31064  31066  31290  0
31064  31290  31065  0
31066  31067  31291  0
31066  31291  31290  0
31067  31068  31292  0
31067  31292  31293  0
31067  31293  31291  0
31059  31286  31294  0
31059  31294  31068  0
31295  31296  31297  0
31295  31297  31298  0
31295  31298  31299  0
31295  31299  31300  0
31295  31300  31296  0
31287  31301  31302  0
31288  31303  31301  0
31288  31301  31289  0
31288  31063  31062  0
31288  31062  31303  0
31304  31072  31073  0
31304  31073  31305  0
31304  31305  31306  0
31292  31068  31294  0
31300  31299  31307  0
31075  31287  31302  0
31301  31303  31070  0
31301  31070  31302  0
31303  31062  31070  0
31304  31308  31078  0
31304  31078  31072  0
31304  31306  31308  0
31079  31309  31080  0
31079  31310  31309  0
31298  31311  31088  0
31298  31088  31299  0
31299  31312  31307  0
31307  31312  31313  0
31307  31314  31300  0
31075  31302  31081  0
31302  31315  31081  0
31302  31070  31315  0
31070  31076  31315  0
31078  31316  31083  0
31078  31083  31077  0
31078  31308  31316  0
31079  30590  31310  0
31311  31317  31089  0
31311  31089  31088  0
31299  31088  31318  0
31299  31318  31312  0
31313  31314  31307  0
31081  31315  31319  0
31081  31319  31084  0
31315  31076  31320  0
31315  31320  31319  0
31076  31085  31320  0
31316  31321  31083  0
31083  31321  31322  0
31083  31322  30827  0
30590  31087  31310  0
31317  31096  30832  0
31317  30832  31089  0
31088  31097  31318  0
31313  31312  31323  0
31313  31323  31324  0
31319  31320  31105  0
31320  31106  31105  0
31320  31085  31106  0
31085  31090  31325  0
31085  31325  31106  0
31090  31091  31326  0
31090  31326  31325  0
31091  31092  31327  0
31091  31327  31326  0
31092  31093  31327  0
31093  30827  31322  0
31094  31095  31328  0
31096  31317  31329  0
31096  31329  30831  0
31330  30831  31329  0
31097  31098  31103  0
31097  31103  31318  0
31318  31103  31312  0
31312  31103  31323  0
31114  31323  31103  0
31323  31114  31331  0
31323  31331  31332  0
31333  31331  31114  0
31084  31319  31099  0
31319  31105  31099  0
31106  31325  31107  0
31325  31326  31334  0
31325  31334  31335  0
31326  31327  31336  0
31326  31336  31334  0
31337  31338  30601  0
30601  31338  31109  0
30601  30829  31337  0
30829  31100  31337  0
31100  30830  31110  0
31339  31100  31110  0
30831  31330  31101  0
31111  31101  31330  0
31112  31103  31104  0
31103  31112  31114  0
31115  31333  31114  0
31116  31333  31115  0
31333  31116  31340  0
31341  31340  31116  0
31107  31325  31335  0
31118  31107  31335  0
31095  30828  31342  0
30837  31109  30858  0
31343  30858  31109  0
31116  31117  31341  0
31344  31341  31117  0
31117  31122  31344  0
30842  31345  30828  0
31342  30828  31345  0
30842  31119  31345  0
30858  31343  31124  0
31346  31124  31343  0
31110  31120  31339  0
31111  31347  31121  0
31348  31121  31347  0
31128  31122  30866  0
31122  31128  31349  0
31122  31349  31350  0
31349  31128  31351  0
31118  31351  31128  0
31345  31119  31352  0
31119  31123  31352  0
31353  31352  31123  0
31124  31346  30857  0
31121  31348  31127  0
31354  31127  31348  0
31123  31129  31353  0
31355  31353  31129  0
31127  31354  31131  0
31356  31131  31354  0
31129  30872  31355  0
31357  31355  30872  0
31356  31132  31131  0
30872  31133  31357  0
31132  31356  31358  0
31359  31358  31356  0
31132  31358  31134  0
31357  31133  31135  0
31135  31136  31360  0
30878  31361  31137  0
31362  31137  31361  0
31137  31363  31138  0
31364  31138  31363  0
31138  31364  30879  0
31365  30879  31364  0
30879  31365  30880  0
31139  30880  31365  0
31361  30878  31366  0
30881  31366  30878  0
31361  31366  31362  0
31366  30881  30882  0
31367  31366  30882  0
30882  30885  31367  0
31140  31368  31141  0
31141  31144  31142  0
31141  31369  31144  0
30889  31370  31143  0
31371  31144  31369  0
31372  31370  30889  0
30899  31147  31373  0
31373  30892  30899  0
31145  31374  30894  0
31148  30894  31374  0
31146  31144  31371  0
30898  31375  31376  0
31376  31147  30898  0
31148  31152  30895  0
30889  30891  31372  0
31377  30891  31149  0
31371  31150  31146  0
30904  31378  31375  0
31375  30898  30904  0
31155  31379  31380  0
31379  31155  31152  0
31151  31152  31155  0
31381  31382  31378  0
31154  31380  31159  0
31380  31154  31155  0
31149  31156  31377  0
31381  31378  31158  0
31383  31381  31158  0
31378  30904  31158  0
30907  31159  31161  0
31161  31159  31384  0
31380  31384  31159  0
31160  31385  31156  0
31156  31385  31377  0
31153  31386  30905  0
30909  31162  31383  0
31383  31162  31387  0
31383  31158  30909  0
31161  30911  30910  0
31161  31388  31164  0
31161  31164  30911  0
31160  31163  31389  0
31160  31389  31385  0
30905  31386  31390  0
30905  31390  31391  0
30905  31391  31387  0
30905  31387  31162  0
31163  31165  31389  0
30915  31392  30920  0
31171  31393  31172  0
31393  31394  31172  0
30918  31166  30924  0
31165  30916  31168  0
31171  30929  31173  0
31172  31394  31395  0
31172  31395  31167  0
31167  31396  31397  0
31167  31397  31166  0
31167  31395  31396  0
31166  31397  31175  0
31166  31175  30924  0
30920  31392  31398  0
30920  31398  30928  0
31177  31173  31174  0
31177  31399  31173  0
31400  31401  31402  0
31400  31402  31396  0
31400  31396  31395  0
31400  31395  31403  0
31400  31403  31401  0
31396  31402  31404  0
31396  31404  31397  0
31397  31404  31180  0
31397  31180  31178  0
31397  31178  31175  0
31168  30926  31405  0
30926  30938  31405  0
30928  31398  30932  0
31177  31176  31406  0
31407  31408  31401  0
31407  31401  31409  0
31407  31409  31410  0
31401  31408  31411  0
31401  31411  31402  0
31402  31411  31412  0
31402  31412  31404  0
31404  31412  31180  0
30938  31181  31405  0
30932  31398  31413  0
30932  31413  30942  0
31176  31414  31406  0
31407  31415  31408  0
31407  31410  31415  0
31408  31416  31411  0
31411  31416  31186  0
31411  31186  31412  0
31412  31186  31185  0
31412  31185  31180  0
31180  31185  31182  0
31176  31183  31414  0
31415  31417  31187  0
31415  31187  31408  0
31408  31187  31416  0
31181  30945  31418  0
31183  30949  31419  0
31417  31420  31187  0
31417  31421  31420  0
31416  31187  31186  0
30942  31413  31188  0
30949  31192  31419  0
31420  31189  31187  0
31420  31421  31422  0
31420  31422  31189  0
30954  31190  31191  0
30945  31195  31418  0
31188  31413  31423  0
31189  31197  30958  0
31189  31422  31197  0
31190  31193  31424  0
31190  31424  31191  0
31191  31424  31194  0
31191  31194  30956  0
31192  30957  30964  0
31192  30964  31425  0
31193  31426  31427  0
31193  31427  31424  0
31193  31198  31428  0
31193  31428  31426  0
31424  31427  31429  0
31424  31429  31194  0
31194  31430  30963  0
31194  31429  31430  0
31188  31423  31200  0
31198  31201  31207  0
31198  31207  31431  0
31198  31431  31428  0
30963  31430  31199  0
30967  31432  30964  0
31433  31204  31208  0
31433  31208  31434  0
31204  31433  31435  0
31204  31435  31203  0
31203  31435  31436  0
31203  31436  31202  0
31202  31436  31437  0
31202  31437  31205  0
31205  31437  31438  0
31205  31438  31206  0
31207  30969  31439  0
31207  31439  31431  0
31199  31440  31195  0
31441  31209  30724  0
31441  30724  31442  0
31209  31441  31434  0
31209  31434  31208  0
31443  31217  31210  0
31443  31210  31206  0
31443  31206  31438  0
31443  31438  31444  0
31443  31444  31445  0
31443  31445  31217  0
31206  31210  30977  0
30979  31446  30724  0
31447  31448  31214  0
31447  31445  31449  0
31447  31449  31450  0
31447  31450  31448  0
31447  31214  31217  0
31447  31217  31445  0
31217  31212  31210  0
31448  31221  31214  0
31448  31450  31451  0
31448  31451  31221  0
31221  31451  31222  0
31451  31452  31222  0
31452  31453  31223  0
31223  30990  31222  0
31223  31222  31452  0
31219  30987  31220  0
31225  31220  30987  0
31453  30994  31223  0
31454  30994  31453  0
30993  30994  31454  0
30996  30993  31454  0
31455  30995  30997  0
30995  31455  31224  0
31225  31224  31455  0
30997  30740  31456  0
31457  31456  30740  0
31226  30998  30996  0
30996  31458  31226  0
31227  31226  31458  0
31459  31460  31461  0
31462  31461  31460  0
31461  31463  31459  0
31230  31459  31463  0
31464  31463  31461  0
31463  31464  31230  0
31230  31464  31231  0
31465  31231  31464  0
31228  31466  31233  0
31466  31467  31233  0
31234  31233  31467  0
31466  31468  31467  0
31469  31467  31468  0
31467  31470  31234  0
31235  31234  31470  0
31467  31469  31470  0
31460  31470  31469  0
31470  31460  31235  0
31460  31459  31235  0
31236  31235  31459  0
31229  31236  31459  0
31459  31230  31229  0
31231  31465  31232  0
31232  31465  31238  0
31471  31238  31465  0
31472  30741  30300  0
31239  31238  31473  0
31238  31471  31473  0
31474  31239  31473  0
31027  31472  30300  0
31239  31474  31240  0
31244  31242  31240  0
31475  31241  30307  0
30307  31006  31475  0
31012  30532  31241  0
31006  31245  31476  0
31477  31476  31245  0
31245  31246  31477  0
31246  31247  31477  0
31478  31477  31247  0
31247  31248  31478  0
31248  31249  31478  0
31251  31478  31249  0
31251  31016  31479  0
31016  31252  31479  0
31252  31253  31480  0
31481  31253  31018  0
31018  31254  31481  0
31482  31257  30115  0
31259  31482  30115  0
31483  31259  31260  0
31258  31484  31031  0
31265  31266  31032  0
31265  31485  31266  0
31486  31266  31485  0
31266  31486  31035  0
31487  31035  31486  0
31267  31035  31487  0
31260  31036  31483  0
31275  31483  31036  0
31269  31031  31484  0
31488  31269  31484  0
31489  31490  31491  0
31272  31491  31490  0
31490  31261  31272  0
31492  31261  31490  0
31261  31492  31262  0
31262  31492  31263  0
31493  31263  31492  0
31263  31493  31040  0
31041  31040  31493  0
31493  31042  31041  0
31493  31494  31042  0
31264  31042  31494  0
31036  31037  31275  0
31269  31488  31495  0
31491  31272  31276  0
31491  31276  31496  0
31497  31496  31276  0
31498  31045  31499  0
31500  31499  31045  0
31045  31273  31500  0
31501  31273  31046  0
31046  31268  31501  0
31275  31274  31502  0
31269  31495  31270  0
31503  31270  31495  0
31495  31504  31503  0
31495  31488  31504  0
31276  31505  31497  0
31277  31505  31276  0
31506  31050  31045  0
31506  31045  31498  0
31270  31503  31507  0
31270  31507  30559  0
31503  31279  31507  0
31503  31504  31279  0
31504  31280  31279  0
31504  31056  31280  0
31504  31497  31056  0
31497  31505  31057  0
31497  31057  31056  0
31505  31277  31057  0
31274  31051  31502  0
30559  31507  31508  0
30559  31508  31278  0
31507  31509  31508  0
31507  31279  31281  0
31507  31281  31509  0
31506  31510  31050  0
31050  31510  31282  0
31051  31060  31511  0
31060  31512  31511  0
31508  31509  31278  0
31281  31283  31509  0
31282  31510  31513  0
31282  31513  31514  0
31282  31514  31284  0
31284  31514  31515  0
31284  31515  31285  0
31285  31515  31516  0
31285  31516  31286  0
31060  31069  31512  0
31069  31517  31512  0
31297  31296  31518  0
31278  31301  31287  0
31278  31509  31301  0
31509  31283  31289  0
31509  31289  31301  0
31306  31305  31519  0
31306  31519  31520  0
31305  31521  31519  0
31305  31073  31522  0
31305  31522  31521  0
31290  31291  31293  0
31290  31293  31523  0
31290  31523  31065  0
31517  31069  30812  0
31517  30812  31074  0
31517  31074  31524  0
31296  31300  31525  0
31300  31526  31525  0
31527  31306  31520  0
31527  31520  31528  0
31293  31292  31529  0
31293  31529  31523  0
31292  31294  31530  0
31292  31530  31529  0
31080  31531  31524  0
31524  31074  31080  0
31297  31311  31298  0
31297  31532  31533  0
31297  31533  31311  0
31526  31300  31314  0
31527  31528  31534  0
31306  31527  31308  0
31309  31531  31080  0
31309  31310  31535  0
31527  31534  31536  0
31527  31536  31308  0
31308  31536  31316  0
31310  31537  31535  0
31314  31313  31324  0
31314  31324  31538  0
31536  31539  31316  0
31316  31539  31540  0
31316  31540  31321  0
31321  31540  31541  0
31321  31541  31322  0
31310  31087  31537  0
31317  31311  31542  0
31317  31542  31329  0
31324  31323  31332  0
31327  31093  31336  0
31093  31322  31541  0
31093  31541  31543  0
31093  31543  31336  0
31328  31095  31544  0
31332  31331  31545  0
31331  31333  31340  0
31331  31340  31546  0
31331  31546  31547  0
31331  31547  31545  0
31334  31336  31548  0
31334  31548  31549  0
31334  31549  31335  0
31336  31543  31548  0
31338  31337  31550  0
31337  31100  31551  0
31100  31339  31552  0
31100  31552  31551  0
31340  31341  31344  0
31340  31344  31553  0
31340  31553  31546  0
31335  31549  31554  0
31335  31554  31118  0
31342  31555  31095  0
31109  31338  31556  0
31109  31556  31343  0
31111  31330  31557  0
31111  31557  31347  0
31344  31122  31350  0
31344  31350  31558  0
31344  31558  31553  0
31351  31118  31554  0
31351  31554  31349  0
31345  31555  31342  0
31343  31559  31346  0
31347  31560  31561  0
31347  31561  31348  0
31347  31557  31560  0
31350  31349  31562  0
31350  31562  31558  0
31352  31555  31345  0
31352  31353  31563  0
31564  31346  31559  0
31564  31559  31565  0
31348  31561  31354  0
31353  31355  31563  0
31566  31355  31357  0
31356  31354  31359  0
31135  31360  31357  0
31566  31357  31360  0
31567  31568  31134  0
31134  31358  31567  0
31569  31360  31136  0
31137  31362  31363  0
31366  31570  31362  0
31365  31571  31139  0
31140  31139  31571  0
31570  31366  31367  0
31571  31368  31140  0
31572  31368  31571  0
30885  31573  31367  0
31574  31367  31573  0
31368  31572  31141  0
31573  30885  31143  0
30887  31143  30885  0
31369  31141  31572  0
31575  31369  31572  0
31573  31143  31370  0
31573  31370  31576  0
31577  31576  31370  0
31369  31575  31371  0
30892  31373  31578  0
31579  31578  31373  0
31578  31145  30892  0
31578  31580  31145  0
31370  31372  31577  0
31147  31376  31581  0
31581  31373  31147  0
31581  31579  31373  0
31374  31582  31148  0
31152  31148  31582  0
31583  31577  31372  0
31584  31376  31375  0
31379  31585  31586  0
31587  31586  31585  0
31585  31379  31582  0
31152  31582  31379  0
31372  30891  31377  0
31372  31377  31583  0
31371  31588  31150  0
31589  31150  31588  0
31584  31375  31382  0
31378  31382  31375  0
31380  31586  31384  0
31590  31384  31586  0
31586  31380  31379  0
31150  31589  31153  0
31590  31591  31384  0
31388  31384  31591  0
31153  31589  31386  0
31383  31387  31592  0
31592  31387  31593  0
31592  31381  31383  0
31594  31381  31592  0
31161  31384  31388  0
31595  31593  31387  0
31391  31595  31387  0
31596  31385  31389  0
31164  31597  30915  0
31598  31596  31389  0
31389  31165  31598  0
31392  30915  31597  0
31599  31598  31165  0
31600  31171  31173  0
31171  31600  31393  0
31394  31393  31600  0
31165  31168  31599  0
31601  31599  31168  0
31600  31173  31399  0
31394  31403  31395  0
31394  31602  31403  0
31405  31601  31168  0
31406  31399  31177  0
31399  31406  31603  0
31602  31409  31403  0
31401  31403  31409  0
31604  31409  31602  0
31605  31603  31406  0
31604  31605  31409  0
31410  31409  31605  0
31398  31606  31413  0
31607  31413  31606  0
31406  31414  31605  0
31410  31605  31414  0
31405  31181  31608  0
31414  31183  31609  0
31414  31609  31610  0
31414  31610  31410  0
31410  31610  31417  0
31410  31417  31415  0
31181  31418  31608  0
31183  31419  31611  0
31183  31611  31609  0
31609  31611  31610  0
31610  31421  31417  0
31607  31423  31413  0
31607  31612  31423  0
31419  31192  31425  0
31610  31422  31421  0
31423  31612  31613  0
31418  31195  31614  0
31423  31613  31200  0
31425  30964  31432  0
31425  31432  31615  0
31426  31616  31617  0
31426  31617  31427  0
31426  31428  31618  0
31426  31618  31616  0
31427  31617  31619  0
31427  31619  31429  0
31200  31613  31620  0
31435  31621  31622  0
31435  31622  31436  0
31435  31433  31621  0
31436  31623  31437  0
31436  31622  31624  0
31436  31624  31623  0
31428  31431  31625  0
31428  31625  31618  0
31430  31440  31199  0
31430  31626  31440  0
31200  31627  30966  0
30967  31627  31628  0
30967  31628  31432  0
31196  31197  31629  0
31434  31441  31442  0
31437  31623  31630  0
31437  31630  31631  0
31437  31631  31632  0
31437  31632  31438  0
31625  31431  31633  0
31431  31439  31634  0
31431  31634  31633  0
31440  31614  31195  0
31196  31629  30979  0
31442  30724  31635  0
31636  31445  31444  0
31444  31438  31632  0
31444  31632  31636  0
31439  30969  31637  0
31439  31637  31634  0
31446  31635  30724  0
31449  31445  31636  0
30969  31638  31637  0
31450  31452  31451  0
31450  31639  31452  0
31450  31449  31639  0
31213  31638  30969  0
31213  31218  31640  0
31641  31452  31639  0
31220  31642  31218  0
31218  31642  31640  0
31453  31452  31641  0
31453  31641  31643  0
30997  31456  31644  0
30997  31644  31455  0
31455  31644  31645  0
31455  31645  31225  0
31644  31456  31646  0
31644  31646  31645  0
31645  31646  31647  0
31645  31647  31225  0
31458  31648  31227  0
31227  31648  31649  0
31649  31228  31227  0
31649  31648  31650  0
31649  31468  31466  0
31649  31466  31228  0
31649  31650  31468  0
31468  31650  31651  0
31651  31652  31469  0
31651  31469  31468  0
31652  31462  31460  0
31652  31460  31469  0
31462  31653  31461  0
31461  31653  31654  0
31461  31654  31464  0
30740  30741  31457  0
31655  31656  31657  0
31655  31657  31658  0
31655  31658  31659  0
31656  31660  31654  0
31660  31465  31464  0
31660  31464  31654  0
30741  31472  31457  0
31661  31662  31659  0
31661  31659  31658  0
31655  31659  31663  0
31655  31663  31664  0
31655  31664  31656  0
31656  31664  31665  0
31656  31665  31660  0
31660  31665  31471  0
31660  31471  31465  0
31662  31666  31667  0
31662  31667  31659  0
31659  31667  31668  0
31659  31668  31663  0
31663  31668  31669  0
31663  31669  31664  0
31664  31669  31670  0
31664  31670  31665  0
31471  31665  31474  0
31471  31474  31473  0
31667  31666  31671  0
31672  31665  31670  0
31665  31672  31673  0
31665  31673  31474  0
31474  31674  31240  0
31244  31240  31674  0
31474  31673  31674  0
31667  31671  31675  0
31667  31675  31668  0
31668  31675  31676  0
31668  31676  31669  0
31669  31676  31670  0
31670  31676  31672  0
31674  31673  31244  0
31241  31677  31012  0
31241  31475  31677  0
31476  31475  31006  0
31678  31472  31027  0
31679  31477  31478  0
31478  31251  31679  0
31680  31679  31251  0
31251  31479  31680  0
31681  31680  31479  0
31479  31252  31681  0
31682  31681  31252  0
31252  31480  31682  0
31683  31682  31480  0
31480  31253  31683  0
31684  31683  31253  0
31253  31481  31684  0
31685  31684  31481  0
31481  31254  31685  0
31686  31680  31681  0
31687  31681  31682  0
31682  31683  31687  0
31688  31256  31689  0
31256  31688  30778  0
31258  30778  31688  0
31690  31489  31691  0
31490  31489  31690  0
31259  31483  31692  0
31491  31693  31489  0
31489  31693  31691  0
31492  31490  31694  0
31694  31695  31492  0
31492  31695  31493  0
31696  31493  31695  0
31493  31696  31494  0
31697  31494  31696  0
31264  31494  31697  0
31265  31264  31697  0
31698  31697  31699  0
31697  31698  31265  0
31485  31265  31698  0
31486  31700  31487  0
31701  31487  31700  0
31487  31701  31267  0
31702  31267  31701  0
31267  31702  31268  0
31703  31268  31702  0
31502  31704  31275  0
31693  31491  31496  0
31705  31693  31496  0
31703  31501  31268  0
31705  31504  31488  0
31497  31705  31496  0
31499  31706  31498  0
31707  31500  31273  0
31273  31501  31707  0
31497  31504  31705  0
31506  31498  31706  0
31502  31051  31708  0
31051  31511  31708  0
31709  31708  31511  0
31510  31506  31706  0
31511  31512  31709  0
31515  31710  31516  0
31512  31517  31711  0
31297  31518  31532  0
31532  31518  31712  0
