#!ascii file
13646  13373  13645  0
13373  13646  13639  0
13647  13639  13646  0
13640  13639  13647  0
13648  13641  13377  0
13649  13641  13648  0
13641  13649  13371  0
13382  13368  13371  0
13642  13635  13650  0
13642  13650  13643  0
13635  13644  13650  0
13644  13636  13651  0
13652  13651  13636  0
13372  13387  13637  0
13046  13383  13645  0
13653  13645  13383  0
13645  13653  13646  0
13654  13646  13653  0
13376  13655  13380  0
13656  13380  13655  0
13649  13657  13371  0
13650  13644  13658  0
13650  13658  13643  0
13659  13643  13658  0
13644  13651  13658  0
13660  13658  13651  0
13044  13638  13661  0
13656  13389  13380  0
13389  13662  13390  0
13381  13382  13663  0
13381  13663  13051  0
13658  13660  13664  0
13658  13664  13659  0
13665  13659  13664  0
13660  13651  13666  0
13387  13391  13667  0
13668  13392  13057  0
13394  13390  13662  0
13051  13663  13669  0
13051  13669  13395  0
13396  13394  13662  0
13396  13662  13670  0
13401  13391  12515  0
13044  13661  13057  0
13396  13670  13398  0
13058  13671  13055  0
13059  13395  13672  0
13059  13672  13399  0
13670  13673  13398  0
13058  13063  13402  0
13398  13673  13403  0
13070  13404  13405  0
13403  13673  13674  0
13403  13674  13410  0
13410  13674  13675  0
13675  13411  13410  0
13675  13676  13411  0
13404  13677  13405  0
13405  13677  13074  0
13074  13677  13678  0
13074  13678  13408  0
13408  13679  13409  0
13411  13676  13082  0
13082  13676  13680  0
13082  13680  13087  0
13087  13680  13681  0
13087  13681  13413  0
13412  13682  12783  0
13413  13681  13414  0
13683  13414  13681  0
13414  13683  13416  0
13418  13099  13416  0
13098  13110  13415  0
13420  13422  13421  0
13110  13114  13684  0
13115  13425  13685  0
13115  13685  12814  0
13425  13116  13686  0
13425  13686  13685  0
13116  13423  13687  0
13116  13687  13686  0
13423  13418  13688  0
13423  13688  13687  0
13424  13117  13689  0
13424  13689  13422  0
13422  13689  13690  0
13422  13690  13421  0
13421  13690  13112  0
13117  13691  13689  0
13692  13689  13691  0
13117  13429  13691  0
13689  13692  13690  0
13690  13430  13112  0
13428  13693  13114  0
13429  13120  13434  0
13429  13434  13694  0
13429  13694  13695  0
13429  13695  13691  0
13690  13696  13430  0
13697  13430  13696  0
13430  13697  13436  0
13430  13436  13426  0
13428  13439  13693  0
13698  13693  13439  0
13698  13699  13693  0
13433  13700  12575  0
13129  12575  13700  0
13694  13434  13435  0
13701  13694  13435  0
13436  13702  13427  0
13427  13703  13437  0
13440  13437  13703  0
13699  13698  13704  0
13705  13704  13706  0
13435  13441  13701  0
13440  13707  13438  0
13439  13445  13698  0
13698  13708  13704  0
13706  13704  13708  0
13441  13443  13701  0
13709  13701  13443  0
13440  13710  13707  0
13438  13707  13133  0
13442  13444  13445  0
13708  13698  13445  0
13136  13711  13446  0
13450  13443  13447  0
13712  13133  13707  0
13444  13133  13712  0
13444  13713  13445  0
13708  13445  13713  0
13714  13706  13708  0
13706  13714  13705  0
13715  13444  13716  0
13444  13715  13713  0
13713  13717  13708  0
13451  13452  13718  0
13718  13452  13719  0
13144  13719  13452  0
13461  13460  13719  0
13719  13460  13720  0
13721  13720  13460  0
13719  13144  13461  0
13455  13722  13723  0
13455  13723  13456  0
13455  13453  13722  0
13463  13722  13453  0
13456  13723  13721  0
13456  13721  13458  0
13458  13721  13460  0
13153  13154  13724  0
13464  13724  13154  0
13464  13147  13725  0
13726  13725  13147  0
13727  13726  13147  0
13147  13146  13727  0
13463  13151  13728  0
13158  13728  13151  0
13463  13728  13729  0
13466  13728  13158  0
13156  13730  13731  0
13156  13731  13465  0
13156  13153  13730  0
13724  13730  13153  0
13732  13727  13146  0
12595  13146  13160  0
13148  13733  12596  0
13734  13732  13146  0
13146  12595  13734  0
13735  13734  12595  0
13735  12595  12597  0
13735  12597  13736  0
12596  13733  13737  0
12597  13161  13736  0
12596  13737  13163  0
13469  13738  13161  0
13469  13161  12598  0
13739  13469  13468  0
13739  13468  13740  0
13739  13738  13469  0
13741  13742  13743  0
13741  13743  13739  0
13741  13740  13742  0
13741  13739  13740  0
13740  13468  13744  0
13740  13744  13742  0
13468  13470  13744  0
13745  13742  13746  0
13745  13743  13742  0
13742  13747  13746  0
13742  13744  13747  0
13744  13470  13748  0
13744  13748  13749  0
13750  13744  13749  0
13470  13751  13748  0
13470  13164  13751  0
13165  13752  12839  0
13165  13472  13753  0
13472  12840  12837  0
13472  12837  13753  0
13754  13755  13756  0
13745  13754  13757  0
13754  13746  13755  0
13754  13745  13746  0
13746  13747  13758  0
13746  13758  13755  0
13747  13759  13758  0
13747  13750  13759  0
13747  13744  13750  0
13164  12841  13751  0
13473  13760  13169  0
13474  13168  13475  0
13761  13182  13181  0
13756  13755  13762  0
13763  13169  13760  0
13474  13475  13764  0
13474  13764  13473  0
13475  13182  13764  0
12841  12842  13765  0
13169  13763  13174  0
13763  13184  13174  0
13177  13766  13178  0
13178  13767  13476  0
13477  13765  12842  0
13763  13768  13184  0
13769  13768  13763  0
13177  13478  13766  0
13767  13178  13766  0
13193  13184  13768  0
13770  13187  13771  0
13187  13482  13771  0
13187  13770  13188  0
13772  13186  13188  0
13186  13772  13483  0
13183  13488  13477  0
13489  13768  13773  0
13773  13768  13769  0
13768  13489  13193  0
13182  13774  13478  0
13190  13483  13197  0
13775  13197  13483  0
13776  13197  13775  0
13197  13776  13486  0
13777  13486  13776  0
13778  13486  13777  0
13486  13778  13191  0
13779  13191  13778  0
13191  13779  13487  0
13489  13773  13492  0
13773  13780  13492  0
13185  13498  13490  0
13479  13484  13194  0
13781  13485  13491  0
13777  13782  13778  0
13778  13783  13779  0
13492  13780  13494  0
13784  13499  13202  0
13484  13784  13202  0
13491  13500  13781  0
13785  13781  13500  0
13500  13501  13785  0
13779  13783  13786  0
13505  13504  13497  0
13506  13204  13787  0
13499  13787  13204  0
13506  13788  12879  0
12642  13510  13789  0
12897  12642  13790  0
12642  13789  13790  0
13511  13512  13791  0
13512  13224  13792  0
13512  13792  13791  0
13224  13517  13792  0
13518  13513  13793  0
13518  13793  13514  0
13514  13793  13515  0
13515  13793  13794  0
13515  13794  13516  0
13516  13794  13229  0
13229  13794  13519  0
12897  13790  13795  0
13792  13517  13796  0
13524  13521  13797  0
13524  13798  13233  0
13522  13234  13799  0
13522  13799  13800  0
12897  13795  13525  0
13231  13232  13801  0
13231  13801  13523  0
13232  13233  13801  0
13233  13798  13801  0
13236  13526  13802  0
13526  13238  13803  0
13238  13804  13803  0
13528  13239  13525  0
13234  13527  13799  0
13237  13236  13805  0
13237  13805  13243  0
13236  13802  13805  0
13802  13803  13805  0
13806  13805  13803  0
13802  13526  13803  0
13238  13244  13804  0
13528  13530  13241  0
13241  13530  12916  0
13243  13805  13807  0
13243  13807  13535  0
13805  13806  13807  0
13244  13245  13808  0
13531  13809  13247  0
13247  13809  13533  0
13810  13533  13809  0
13533  13810  13532  0
13811  13532  13810  0
13807  13812  13535  0
13532  13811  13813  0
13532  13813  13538  0
13534  13814  13539  0
13534  13535  13812  0
13534  13812  13814  0
13245  13540  13808  0
13815  13254  12678  0
12678  12927  13816  0
12927  13536  13816  0
13536  13541  13816  0
13255  13542  13817  0
13255  13817  13541  0
13818  13538  13813  0
13543  13819  13248  0
13242  13248  13819  0
13543  13549  13820  0
13543  13820  13819  0
13821  13539  13814  0
13540  13822  13808  0
13254  13815  13545  0
13542  13546  13823  0
13542  13823  13817  0
13546  13261  13824  0
13546  13824  13823  0
13261  13538  13825  0
13261  13825  13824  0
13538  13818  13825  0
13549  13550  13820  0
13544  13539  13826  0
13544  13826  13552  0
13539  13821  13826  0
13822  13540  13553  0
13553  13554  13827  0
13550  13558  13828  0
13829  13828  13558  0
13551  13552  13559  0
13830  13559  13552  0
13552  13826  13830  0
13831  13830  13826  0
13554  13564  13827  0
13832  13827  13564  0
13263  13555  13560  0
13833  13560  13555  0
13555  13545  13833  0
13834  13833  13545  0
13558  13562  13829  0
13562  13561  13829  0
13567  13829  13561  0
13559  13835  13563  0
13264  12689  13564  0
13568  13564  12689  0
13564  13568  13832  0
13836  13832  13568  0
13565  13560  13566  0
13837  13566  13560  0
12689  13265  13568  0
13568  13566  13836  0
13838  13836  13566  0
13566  13837  13838  0
13266  13839  13267  0
13569  13267  13839  0
13840  13572  13574  0
13839  13266  13572  0
13578  13573  13841  0
13575  13573  13578  0
13577  13840  13574  0
13578  13280  13575  0
13577  13576  13842  0
13579  13842  13576  0
13577  13842  13843  0
13277  13578  13844  0
13844  13578  13845  0
13842  13579  13846  0
13580  13846  13579  0
13581  13844  13847  0
13847  13844  13848  0
13277  13844  13581  0
13849  13846  13580  0
13847  13582  13581  0
13584  13590  13580  0
13580  13590  13849  0
13850  13583  13582  0
13300  13585  13851  0
13300  13851  13586  0
13586  13851  13852  0
13586  13852  13587  0
13587  13852  13853  0
13587  13853  13588  0
13583  13850  13854  0
13299  13855  13585  0
13299  13302  13855  0
13588  13853  13305  0
13856  13857  13858  0
12988  13589  13301  0
13591  13583  13859  0
13583  13854  13859  0
13860  13593  13305  0
13860  13305  13853  0
13600  13861  13857  0
13857  13856  13600  0
13598  13600  13856  0
13602  13598  13856  0
13856  13862  13602  0
13602  13862  13863  0
13602  13863  13864  0
13861  13600  13599  0
13861  13599  13865  0
13861  13865  13866  0
13602  13864  13601  0
12974  12988  13301  0
13859  13867  13591  0
13599  13597  13868  0
13599  13868  13865  0
13601  13864  13869  0
13601  13869  13320  0
13603  13870  13868  0
13603  13868  13597  0
13320  13869  13606  0
13871  13604  13318  0
13871  13318  13872  0
13603  13604  13873  0
13606  13869  13611  0
13872  13318  13609  0
13606  13611  13319  0
13605  13874  13607  0
13875  13607  13874  0
13330  13329  13876  0
13330  13876  13335  0
13329  13607  13875  0
13329  13875  13876  0
13608  13344  13877  0
13012  13626  13017  0
13344  13878  13877  0
13344  13622  13878  0
13616  13879  13618  0
13617  13619  13620  0
13351  13880  13342  0
13619  13625  13881  0
13619  13881  13620  0
13620  13882  13351  0
13622  13621  13630  0
13622  13883  13878  0
13618  13879  13627  0
13634  13627  13879  0
13884  13625  13885  0
13625  13628  13885  0
13625  13884  13881  0
13882  13620  13881  0
13358  13886  13629  0
13622  13630  13883  0
13630  13887  13883  0
13628  13355  13637  0
13888  13633  13634  0
13633  13888  13636  0
13629  13886  13889  0
13629  13889  13638  0
13890  13375  13640  0
13375  13890  13374  0
13376  13374  13890  0
13630  13643  13887  0
13652  13636  13888  0
13646  13654  13647  0
13890  13655  13376  0
13891  13655  13890  0
13892  13887  13643  0
13893  13652  13888  0
13894  13637  13387  0
13383  13895  13653  0
13654  13896  13647  0
13655  13891  13656  0
13897  13377  13898  0
13386  13898  13377  0
13897  13899  13377  0
13377  13899  13900  0
13377  13900  13648  0
13648  13900  13649  0
13382  13371  13657  0
13652  13901  13651  0
13666  13651  13901  0
13652  13893  13901  0
13387  13667  13894  0
13638  13902  13661  0
13383  13392  13895  0
13895  13903  13653  0
13653  13903  13654  0
13389  13656  13904  0
13389  13904  13662  0
13905  13898  13386  0
13663  13382  13906  0
13382  13657  13906  0
13643  13659  13892  0
13907  13892  13659  0
13659  13665  13907  0
13908  13660  13666  0
13666  13901  13909  0
13666  13909  13908  0
13661  13902  13910  0
13392  13911  13903  0
13392  13903  13895  0
13392  13668  13911  0
13904  13912  13662  0
13386  13050  13905  0
13913  13905  13050  0
13914  13907  13665  0
13915  13665  13664  0
13664  13660  13915  0
13660  13908  13915  0
13916  13915  13908  0
13908  13909  13917  0
13908  13917  13916  0
13661  13668  13057  0
13912  13918  13662  0
13662  13918  13670  0
13050  13055  13913  0
13672  13395  13669  0
13669  13663  13919  0
13669  13919  13672  0
13665  13915  13914  0
13920  13914  13915  0
13915  13916  13921  0
13915  13921  13920  0
13922  13920  13921  0
13916  13923  13921  0
13924  13921  13923  0
13916  13917  13923  0
13401  13924  13923  0
13923  13917  13667  0
13923  13391  13401  0
13923  13667  13391  0
13661  13910  13925  0
13918  13926  13670  0
13913  13055  13671  0
13927  13921  13924  0
13924  13401  13927  0
13670  13926  13673  0
13671  13058  13402  0
13399  13672  13928  0
13399  13928  13929  0
13921  13927  13930  0
13673  13926  13931  0
13399  13929  13065  0
13927  13401  12778  0
13927  12778  13406  0
13404  13065  13932  0
13673  13931  13674  0
13674  13933  13675  0
13674  13931  13933  0
13675  13933  13676  0
13402  13407  13934  0
13404  13932  13935  0
13404  13935  13677  0
13677  13936  13678  0
13679  13678  13936  0
13678  13679  13408  0
13406  12783  13682  0
13933  13937  13676  0
13938  13676  13937  0
13680  13676  13938  0
13939  13681  13680  0
13407  13940  13934  0
13679  13412  13409  0
13681  13939  13683  0
13941  13683  13939  0
13407  13415  13940  0
13683  13941  13416  0
13942  13416  13941  0
13416  13942  13418  0
13688  13418  13942  0
13943  13415  13110  0
13943  13110  13944  0
12814  13685  13945  0
12814  13945  13946  0
13686  13687  13685  0
13684  13114  13693  0
13684  13693  13947  0
13691  13695  13692  0
13692  13695  13696  0
13692  13696  13690  0
13693  13948  13947  0
13949  12814  13946  0
12814  13949  13432  0
13695  13694  13950  0
13695  13950  13696  0
13696  13950  13697  0
13693  13699  13948  0
13949  13951  13432  0
13432  13951  13433  0
13700  13433  13951  0
13697  13950  13702  0
13697  13702  13436  0
13700  13952  13129  0
13953  13129  13952  0
13129  13953  13136  0
13954  13136  13953  0
13694  13955  13950  0
13694  13701  13955  0
13956  13702  13950  0
13702  13956  13703  0
13702  13703  13427  0
13704  13705  13957  0
13711  13136  13954  0
13956  13958  13703  0
13959  13703  13958  0
13703  13710  13440  0
13703  13959  13710  0
13957  13705  13960  0
13710  13961  13962  0
13710  13962  13707  0
13705  13963  13960  0
13710  13959  13961  0
13712  13707  13962  0
13712  13716  13444  0
13964  13716  13712  0
13717  13713  13715  0
13965  13708  13717  0
13708  13965  13714  0
13963  13705  13714  0
13716  13964  13715  0
13715  13964  13966  0
13715  13966  13967  0
13715  13967  13717  0
13717  13967  13965  0
13714  13965  13968  0
13714  13968  13963  0
13963  13969  13970  0
13446  13971  12577  0
13963  13968  13969  0
13721  13723  13972  0
13972  13973  13974  0
13972  13723  13973  0
13972  13720  13721  0
13972  13974  13720  0
13722  13975  13973  0
13722  13973  13723  0
13722  13463  13975  0
13976  13975  13463  0
13462  13977  13148  0
13463  13729  13976  0
13978  13976  13729  0
13729  13728  13978  0
13979  13978  13728  0
13728  13466  13979  0
13980  13979  13466  0
13981  13730  13724  0
13724  13464  13981  0
13982  13981  13464  0
13464  13725  13982  0
13726  13982  13725  0
13148  13977  13733  0
13466  13467  13980  0
13731  13730  13983  0
13730  13981  13983  0
13984  13982  13726  0
13985  13984  13726  0
13726  13727  13985  0
13732  13985  13727  0
13984  13986  13982  0
13732  13734  13987  0
13988  13987  13734  0
13734  13735  13988  0
13736  13988  13735  0
13733  13989  13737  0
13986  13984  13990  0
13991  13990  13984  0
13992  13986  13990  0
13984  13985  13991  0
13993  13991  13985  0
13985  13732  13993  0
13987  13993  13732  0
13161  13988  13736  0
13992  13990  13994  0
13991  13994  13990  0
13987  13995  13993  0
13987  13988  13995  0
13988  13738  13995  0
13988  13161  13738  0
13994  13991  13996  0
13994  13997  13992  0
13991  13993  13998  0
13991  13998  13996  0
13993  13995  13998  0
13999  13163  13737  0
14000  14001  14002  0
14000  14002  14003  0
13997  14001  14000  0
14001  13997  13994  0
13994  13996  14004  0
13994  14004  14001  0
13996  13998  14004  0
13998  13995  13743  0
13995  13739  13743  0
13995  13738  13739  0
13163  13999  12837  0
13753  12837  13999  0
14003  14002  14005  0
14003  14005  14006  0
14001  14004  13757  0
14001  13757  14002  0
14004  13998  13743  0
13749  14007  14008  0
14009  13749  14008  0
13749  13748  13751  0
13749  13751  14007  0
13751  14010  14007  0
14006  14011  14012  0
14006  14005  14013  0
14006  14013  14011  0
14002  13757  13754  0
14002  13754  14005  0
14004  13745  13757  0
14004  13743  13745  0
14009  13759  13750  0
14009  13750  13749  0
13761  13181  14014  0
14015  13173  13172  0
13172  14016  14015  0
13172  13166  14017  0
13172  14017  14016  0
13166  12838  14017  0
12838  13471  14017  0
12839  13752  13471  0
13165  13753  13752  0
14005  13754  13756  0
14005  13756  14013  0
13758  14018  13755  0
13758  13759  14018  0
13760  13473  14019  0
13182  13761  14020  0
14021  13182  14020  0
14011  14013  14022  0
14011  14022  14023  0
14013  13756  14022  0
13756  13762  14022  0
12841  13765  13751  0
13473  13764  14021  0
13473  14021  14019  0
13764  13182  14021  0
14024  13763  13760  0
14024  14025  13763  0
12855  13175  13476  0
13763  14025  13769  0
14026  13476  13767  0
13476  14026  12855  0
13479  12855  14026  0
13766  14027  13767  0
13771  14028  13770  0
14029  13771  13482  0
13188  13770  13772  0
13772  14030  13483  0
13479  14026  14031  0
13482  13485  14029  0
14032  14029  13485  0
13483  14030  13775  0
13776  13775  14033  0
13776  14033  14034  0
13776  14034  13777  0
13782  13777  14034  0
13780  13773  14035  0
13484  13479  14031  0
13485  13781  14032  0
13782  14034  14036  0
13783  13778  13782  0
14037  13494  13780  0
14035  14037  13780  0
14037  14038  13494  0
13498  14039  13490  0
14040  14041  13781  0
13781  13785  14040  0
13502  13785  13501  0
13782  14036  13783  0
13504  14042  13497  0
13497  14042  13498  0
13498  14042  14043  0
14044  13787  13499  0
13499  14045  14044  0
13499  13784  14045  0
13785  13502  14040  0
14046  14040  13502  0
13502  13507  14046  0
13494  14038  14047  0
13494  14048  13503  0
13503  14048  13504  0
13506  13787  13788  0
14044  13788  13787  0
13508  14046  13507  0
13494  14047  14048  0
12879  13788  12887  0
13513  12887  13788  0
13789  13510  14049  0
13510  13511  14049  0
13513  13788  14050  0
13509  13223  14051  0
13223  12899  14051  0
13789  14052  13790  0
13789  14049  14052  0
14049  13511  14053  0
13511  13791  14053  0
14054  13513  14050  0
13513  14054  14055  0
13513  14055  13793  0
13793  14056  13794  0
14057  13794  14056  0
13794  14057  13519  0
12899  13522  14051  0
13517  13520  14058  0
13519  14057  13521  0
13797  13521  14057  0
14051  13522  13800  0
13520  13523  14059  0
13520  14059  14058  0
13524  14060  13798  0
13523  13801  14061  0
13523  14061  14059  0
13801  14062  14061  0
13801  13798  14060  0
13801  14060  14062  0
13803  13804  14063  0
13527  14064  13799  0
14065  13803  14063  0
14066  13525  13795  0
13525  14066  13528  0
14067  13528  14066  0
13528  14067  13530  0
13527  13240  14068  0
13527  14068  14064  0
13807  13806  13812  0
13806  13803  14065  0
13806  14065  13812  0
13244  13808  13804  0
13530  14069  13531  0
14070  13531  14069  0
13531  14070  13809  0
14071  13809  14070  0
13809  14071  13810  0
13811  14072  13813  0
14073  13813  14072  0
14074  13529  13242  0
14074  13242  13819  0
14074  14075  13529  0
13240  13529  14075  0
13814  13812  14076  0
13812  14077  14076  0
12678  14078  13815  0
12678  13816  14078  0
13541  13817  14079  0
13541  14079  13816  0
13813  14073  13818  0
14080  13819  13820  0
14080  13820  14081  0
14080  14082  13819  0
14074  13819  14082  0
13814  14076  13821  0
13815  14083  13545  0
13815  14078  14083  0
13817  13823  14084  0
13817  14084  14079  0
13823  13824  14085  0
13823  14085  14084  0
13825  13818  14073  0
13825  14073  13824  0
14086  14081  13828  0
14086  14087  14081  0
14088  14081  14087  0
14081  13550  13828  0
14080  14081  14088  0
14081  13820  13550  0
13826  13821  14089  0
13826  14089  13831  0
13553  14090  13822  0
13553  13827  14090  0
14091  14090  13827  0
13545  14083  13834  0
14092  13834  14083  0
14093  14086  13828  0
13828  13829  14093  0
14094  14093  13829  0
13559  13830  13835  0
14095  13835  13830  0
13830  13831  14096  0
13830  14096  14095  0
13827  13832  14091  0
14097  14091  13832  0
14098  13833  13834  0
14099  14098  13834  0
14092  14099  13834  0
14100  14094  13829  0
13829  13567  14100  0
14101  14100  13567  0
13835  14095  14102  0
13832  13836  14097  0
14103  14097  13836  0
13560  13833  14104  0
14098  14104  13833  0
13560  14104  14105  0
13560  14105  13837  0
13567  13563  14101  0
13835  14101  13563  0
13836  13838  14103  0
14106  14103  13838  0
13838  13837  14106  0
14105  14106  13837  0
13570  13569  13839  0
13572  13840  14107  0
13572  14107  14108  0
13572  14108  13839  0
13841  13570  14109  0
13570  14110  14109  0
13570  13841  13573  0
13577  14111  13840  0
13577  13843  14111  0
14112  14113  14110  0
14109  14110  14113  0
14113  13845  13841  0
14113  13841  14109  0
13841  13845  13578  0
14114  14112  14115  0
14112  14114  14113  0
13848  14113  14114  0
14113  13848  13845  0
13844  13845  13848  0
13843  13842  14116  0
14115  14117  14114  0
14117  14115  14118  0
14114  14117  13848  0
13847  13848  14117  0
13842  13846  14119  0
13849  14119  13846  0
14117  14118  14120  0
13582  14117  14120  0
14117  13582  13847  0
13590  14121  13849  0
14120  13850  13582  0
14122  13585  13855  0
13585  14122  13851  0
13851  14123  13852  0
13852  14123  14124  0
13852  14124  13853  0
14125  14126  13858  0
13862  13856  13858  0
13858  14127  13862  0
13590  13589  14121  0
14128  14121  13589  0
14120  13854  13850  0
13302  13592  13855  0
13592  14129  14130  0
13592  14130  13855  0
13853  14124  14131  0
14132  13857  13861  0
14132  14133  14125  0
14132  14125  13857  0
13857  14125  13858  0
13854  14120  14134  0
13853  14131  13860  0
13866  14132  13861  0
13866  14135  14132  0
13863  14136  13864  0
13589  14137  14128  0
13854  14134  13867  0
13854  13867  13859  0
13592  13591  14138  0
13592  14138  14129  0
13860  13596  13593  0
14139  13596  13860  0
13866  13865  13868  0
13866  13868  14135  0
13864  14136  14140  0
13589  12988  14137  0
13867  14138  13591  0
13594  14141  13595  0
13594  13596  14139  0
13594  14139  14141  0
13864  14140  13869  0
14137  12988  12990  0
14134  14142  13867  0
14143  13308  13595  0
13869  14140  14144  0
13308  14143  13605  0
14145  13604  13871  0
14145  14146  13604  0
13873  13604  14146  0
13869  14147  13611  0
13869  14144  14147  0
13874  13605  14143  0
13871  14148  14145  0
14147  14144  14149  0
12990  13612  14137  0
13874  14150  14151  0
13874  14151  13875  0
13613  13335  14152  0
13335  13876  14153  0
13335  14153  14152  0
14154  13875  14151  0
13609  13608  14155  0
13609  14155  13872  0
13611  14147  13610  0
14156  13610  14147  0
14153  13876  14157  0
13876  13875  14154  0
14155  13608  14158  0
13608  13877  14158  0
13616  13610  13879  0
13610  14156  13879  0
13880  13615  13342  0
13880  14159  13615  0
13337  13613  13012  0
14160  14152  14153  0
14153  14157  14160  0
14161  14158  13877  0
13879  14156  14162  0
13877  13878  14161  0
14163  14161  13878  0
14164  14165  14166  0
14167  14165  14164  0
13879  14162  14168  0
13351  13882  13880  0
13626  14169  13358  0
14170  13878  13883  0
13879  14168  13634  0
13886  13358  14169  0
13883  13887  14170  0
13634  14168  13888  0
13888  14168  14171  0
14172  14170  13887  0
13628  13637  14173  0
13647  13896  13640  0
14174  13640  13896  0
13640  14174  13890  0
13891  13890  14174  0
13899  13897  14175  0
14175  14176  14177  0
14175  13897  14176  0
14178  14176  13897  0
14175  14177  14179  0
14175  14179  13899  0
13887  13892  14172  0
13888  14171  13893  0
13638  13889  13902  0
14180  13896  13654  0
13896  14181  14182  0
13896  14182  14174  0
13896  14180  14181  0
14174  14182  14183  0
14174  14183  13891  0
14178  13897  14184  0
13898  14184  13897  0
14178  14184  14185  0
14186  14185  14184  0
13899  14179  14187  0
13899  14187  13900  0
13900  14187  14188  0
13900  14188  13649  0
13903  14180  13654  0
13904  13656  14189  0
14186  14184  14190  0
13905  14190  14184  0
14191  14186  14190  0
14184  13898  13905  0
13649  14188  13657  0
13892  13907  14192  0
14193  14192  13907  0
13901  13893  14194  0
13901  14194  13909  0
13894  13667  14195  0
13903  13911  14196  0
13912  13904  14197  0
14189  14197  13904  0
13912  14197  14198  0
13913  14190  13905  0
14199  14191  14190  0
14200  13663  13906  0
13907  13914  14193  0
13909  14194  13917  0
14201  13917  14194  0
13667  14201  14195  0
13918  13912  14198  0
13918  14198  14202  0
14190  13913  14203  0
14190  14203  14204  0
14190  14204  14199  0
13663  14200  13919  0
13914  13920  14205  0
13920  13922  14206  0
13920  14206  14205  0
13917  14201  13667  0
13668  13661  13925  0
13926  13918  14202  0
14203  14207  14204  0
14203  13913  13671  0
13919  13928  13672  0
14208  13919  14200  0
13919  14208  13928  0
13922  14209  14206  0
13922  13921  13930  0
13922  13930  14209  0
13910  14210  13925  0
14211  13925  14210  0
14203  13671  14212  0
14203  14212  14207  0
13928  14213  13929  0
13928  14208  14213  0
13930  13927  13682  0
13671  13934  14212  0
13671  13402  13934  0
13929  14214  14215  0
13929  14215  13065  0
13929  14213  14214  0
13927  13406  13682  0
14212  13934  14216  0
13065  14215  13932  0
13936  13677  13935  0
14217  13933  13931  0
13933  14217  13937  0
13680  13938  13939  0
14218  13679  13936  0
13679  14218  13412  0
13939  13938  13937  0
13943  13940  13415  0
13942  14219  13688  0
13943  13944  14220  0
13943  14220  14221  0
13688  14219  14222  0
13688  14222  13687  0
13944  13110  13684  0
13945  13685  14223  0
13685  13687  14224  0
13685  14224  14223  0
13687  14222  14224  0
13944  13684  14225  0
13684  13947  14225  0
13951  14226  13700  0
13699  13704  14227  0
13957  14227  13704  0
13700  14226  13952  0
14228  13950  13955  0
13950  14228  13956  0
13958  13956  14228  0
13955  14229  14228  0
14230  14231  13963  0
13959  14232  13961  0
13962  13961  14232  0
13963  13970  14230  0
13711  14233  13446  0
13712  13962  14232  0
13964  13712  14234  0
14235  14230  13970  0
14232  14236  13712  0
14234  13712  14236  0
13964  14237  13966  0
13967  13966  14237  0
14238  13970  13969  0
13970  14238  14235  0
13967  14237  14239  0
13967  14239  13965  0
13965  14239  13968  0
14240  14241  13975  0
13975  13976  14240  0
14242  14240  13976  0
14243  13969  13968  0
13976  13978  14242  0
13978  13979  14244  0
13978  14244  14242  0
14238  13969  14243  0
14245  14246  14247  0
13979  13980  14248  0
13979  14248  14244  0
14247  14246  14249  0
14245  14247  14250  0
14245  14250  14251  0
14251  14250  13733  0
14251  13733  13977  0
13731  13983  14252  0
13731  14252  13465  0
13983  13981  14253  0
13983  14253  14252  0
13981  13982  14253  0
14249  14246  14254  0
14247  14255  14250  0
14250  14255  13733  0
14256  13980  14257  0
14256  14257  14258  0
14256  14248  13980  0
13980  13467  14259  0
13980  14259  14257  0
13467  13465  14259  0
13465  14252  14260  0
14253  13982  13986  0
14261  14262  14249  0
14261  14249  14254  0
14249  14262  14263  0
14249  14263  14247  0
14247  14263  14255  0
14255  13989  13733  0
14264  14258  14265  0
14264  14266  14258  0
14256  14258  14266  0
14258  14257  14267  0
14258  14267  14265  0
14257  14259  14268  0
14257  14268  14267  0
14259  13465  14269  0
14259  14269  14268  0
13465  14260  14269  0
14260  14252  14270  0
14252  14253  14270  0
14253  13992  14270  0
14253  13986  13992  0
14263  14271  14255  0
14272  14273  14264  0
14264  14265  14274  0
14264  14274  14272  0
14267  14268  14275  0
14267  14275  14265  0
14268  14269  14275  0
14260  14270  14276  0
14260  14276  14269  0
14270  13997  14277  0
14270  14277  14276  0
14270  13992  13997  0
14272  14274  14278  0
14272  14278  14279  0
14274  14265  14280  0
14274  14280  14278  0
14277  14000  14281  0
14277  13997  14000  0
13737  13989  13999  0
14282  14281  14003  0
14282  14003  14283  0
14281  14000  14003  0
13999  14284  13753  0
14283  14003  14006  0
14285  14286  14287  0
14285  14287  14288  0
14285  14289  14286  0
14290  14286  14289  0
14288  14291  14285  0
14288  14287  14292  0
14288  14292  14293  0
14288  14293  14291  0
14293  14292  14294  0
14294  14292  14009  0
14294  14009  14008  0
14008  14007  14295  0
14008  14295  14294  0
14296  14014  13181  0
14296  14297  14014  0
14296  13181  13173  0
14296  13173  14298  0
14296  14298  14299  0
14296  14299  14297  0
14298  13173  14015  0
13471  14300  14301  0
13471  14302  14300  0
13752  14302  13471  0
14302  13752  14284  0
13753  14284  13752  0
14303  14304  14283  0
14305  14304  14303  0
14283  14006  14012  0
14283  14012  14303  0
14306  14307  14286  0
14306  14286  14290  0
14286  14307  14287  0
14308  14287  14307  0
14018  14287  14308  0
14287  14018  14292  0
13759  14292  14018  0
14292  13759  14009  0
14309  13761  14014  0
14309  14014  14310  0
14297  14310  14014  0
14311  14298  14015  0
14015  14016  14311  0
14312  14311  14016  0
14016  14017  14312  0
14313  14312  14017  0
14017  13471  14313  0
14314  14305  14303  0
14303  14012  14314  0
14315  14314  14012  0
14011  14315  14012  0
14022  14307  14023  0
14023  14307  14316  0
14306  14316  14307  0
13762  14307  14022  0
14307  13762  14308  0
14308  13762  14018  0
13755  14018  13762  0
14020  13761  14317  0
14309  14317  13761  0
14020  14317  14021  0
14315  14318  14314  0
14319  14315  14011  0
14011  14023  14319  0
13751  13765  14010  0
14019  14021  14317  0
14019  14317  14320  0
14019  14024  13760  0
13765  13477  14321  0
13477  13488  14321  0
13769  14025  14322  0
13478  13774  13766  0
14323  13766  13774  0
13766  14323  14027  0
14324  14027  14323  0
13767  14324  14026  0
13767  14027  14324  0
13771  14029  14028  0
14325  14028  14029  0
13770  14030  13772  0
13770  14028  14030  0
13182  14326  14327  0
13182  14327  13774  0
13182  13480  14326  0
13774  14327  14328  0
13774  14328  14323  0
14323  14328  14324  0
14324  14031  14026  0
14329  14029  14032  0
14029  14329  14325  0
14030  14028  14330  0
14033  14030  14330  0
14030  14033  13775  0
13773  13769  14331  0
13773  14331  14035  0
14332  14035  14331  0
14333  13490  14039  0
14326  13480  13490  0
14032  13781  14041  0
14032  14041  14329  0
14329  14041  14334  0
14329  14334  14325  0
14335  14033  14336  0
14033  14335  14034  0
14034  14335  14036  0
13779  13786  14337  0
14037  14035  14038  0
14332  14038  14035  0
13498  14043  14039  0
14338  13484  14031  0
14040  14339  14041  0
14340  14036  14335  0
14036  14340  14341  0
14036  14341  13783  0
14337  13783  14342  0
13783  14341  14342  0
13783  14337  13786  0
13784  13484  14338  0
13784  14338  14045  0
14343  14045  14338  0
14040  14344  14339  0
14040  14046  14344  0
14046  14345  14346  0
14046  14346  14344  0
14347  13504  14348  0
13504  14347  14042  0
14044  14045  14349  0
14045  14343  14349  0
14046  13508  14345  0
13508  13509  14350  0
14047  14351  14048  0
13788  14044  14050  0
14044  14349  14050  0
13509  14051  14350  0
14049  14352  14052  0
14049  14053  14353  0
14049  14353  14352  0
14053  13791  14353  0
13792  13796  14354  0
13792  14354  13791  0
13793  14055  14355  0
13793  14355  14056  0
14051  13800  14356  0
13796  13517  14058  0
13796  14058  14357  0
14355  14358  14056  0
14359  14056  14358  0
14056  14359  14057  0
14360  14057  14359  0
14057  14360  13797  0
14058  14059  14361  0
14058  14361  14357  0
13524  13797  14060  0
13800  14064  14362  0
13800  14362  14363  0
14064  13800  13799  0
14063  13804  14364  0
14365  14362  14064  0
14366  14065  14063  0
14366  14063  14367  0
14069  13530  14067  0
14365  14064  14368  0
14068  14368  14064  0
14369  14365  14368  0
14370  14077  14065  0
13812  14065  14077  0
14370  14065  14371  0
14366  14371  14065  0
13795  14372  14066  0
14069  14067  14373  0
14069  14373  14070  0
14070  14373  14374  0
14070  14374  14071  0
14071  14374  13810  0
13810  14072  13811  0
14368  14068  14375  0
14075  14375  14068  0
14368  14375  14369  0
14376  14369  14375  0
13240  14075  14068  0
14077  14370  14377  0
13804  13808  14378  0
14072  14379  14073  0
14380  14381  14382  0
14383  14382  14381  0
14380  14384  14381  0
14385  14381  14384  0
14380  14386  14384  0
14384  14387  14385  0
14388  14385  14387  0
14384  14386  14387  0
14387  14375  14388  0
14082  14388  14375  0
14387  14386  14376  0
14387  14376  14375  0
14375  14075  14082  0
14074  14082  14075  0
14377  14076  14077  0
14377  14389  14076  0
14079  14390  13816  0
14391  14383  14381  0
14381  14385  14391  0
14087  14391  14385  0
14385  14388  14087  0
14088  14087  14388  0
14388  14082  14088  0
14080  14088  14082  0
14392  14089  14076  0
13821  14076  14089  0
14392  14076  14389  0
13808  13822  14378  0
14393  14378  13822  0
14078  13816  14394  0
14390  14394  13816  0
14078  14394  14083  0
14395  14079  14084  0
14084  14085  14395  0
14396  14395  14085  0
14085  13824  14396  0
13824  14073  14396  0
14379  14396  14073  0
14391  14087  14397  0
14398  14087  14086  0
14399  14096  14089  0
13831  14089  14096  0
14399  14089  14400  0
14392  14400  14089  0
14090  14091  14393  0
14090  14393  13822  0
14083  14394  14401  0
14086  14093  14398  0
14402  14398  14093  0
14093  14094  14402  0
14100  14402  14094  0
14403  14102  14096  0
14095  14096  14102  0
14399  14403  14096  0
14091  14097  14404  0
14405  14404  14097  0
14401  14092  14083  0
14406  14100  14101  0
14101  13835  14102  0
14101  14102  14406  0
14403  14406  14102  0
14405  14097  14407  0
14103  14407  14097  0
14104  14098  14408  0
14104  14408  14105  0
14409  14105  14408  0
14099  14408  14098  0
14410  14407  14103  0
14103  14106  14410  0
14409  14410  14106  0
14106  14105  14409  0
14108  14411  13839  0
14110  13839  14411  0
13839  14110  13570  0
13840  14412  14107  0
14411  14107  14412  0
14107  14411  14108  0
14413  14111  13843  0
14111  14414  13840  0
14412  13840  14414  0
14412  14415  14411  0
14112  14411  14415  0
14412  14416  14415  0
14411  14112  14110  0
14413  13843  14116  0
14415  14115  14112  0
14417  14116  13842  0
14418  14417  14119  0
14418  14119  14419  0
14417  13842  14119  0
14118  14420  14120  0
14119  14128  14419  0
14119  13849  14121  0
14119  14121  14128  0
14421  13855  14422  0
13855  14130  14422  0
13855  14421  14122  0
14423  14122  14421  0
14423  13851  14122  0
14423  14424  13851  0
14123  13851  14424  0
14126  14425  14426  0
14126  14427  14127  0
14126  14127  13858  0
14126  14426  14427  0
14428  14427  14426  0
14429  14419  14128  0
14420  14430  14120  0
14123  14431  14124  0
14432  14124  14431  0
14125  14425  14126  0
14127  13863  13862  0
14127  14433  13863  0
14127  14427  14433  0
14429  14128  14434  0
14429  14434  14435  0
14124  14432  14131  0
14436  14131  14432  0
14133  14132  14437  0
14438  14125  14133  0
13863  14433  14136  0
14430  14439  14134  0
14430  14134  14120  0
14135  14437  14132  0
14136  14440  14140  0
14441  14140  14440  0
14434  14128  14137  0
13860  14131  14436  0
14135  13868  14442  0
14140  14441  14443  0
14435  14434  14444  0
14439  14445  14134  0
13868  14446  14442  0
14140  14443  14447  0
14140  14447  14144  0
14142  14134  14445  0
14448  13595  14141  0
13868  13870  14446  0
14444  14449  14435  0
14450  14435  14449  0
14434  14137  14444  0
14448  14143  13595  0
14146  14451  13873  0
13873  14451  13603  0
13603  14451  13870  0
14144  14452  14149  0
13874  14143  14150  0
14145  14453  14146  0
14148  14453  14145  0
14454  14149  14452  0
14455  14449  14444  0
13612  14455  14444  0
14444  14137  13612  0
14150  14456  14151  0
14148  13871  14457  0
13872  14457  13871  0
14458  14147  14149  0
14149  14454  14458  0
14454  14452  14459  0
14460  14449  14159  0
14449  14455  14159  0
13615  14159  14455  0
14455  13612  13615  0
14151  14456  14461  0
14151  14461  14154  0
14462  14457  13872  0
14147  14458  14156  0
14454  14459  14463  0
13876  14154  14157  0
14154  14461  14464  0
13872  14155  14462  0
14158  14462  14155  0
14162  14156  14458  0
14458  14454  14162  0
14463  14162  14454  0
14465  13012  13613  0
14152  14465  13613  0
14160  14466  14152  0
14467  14160  14157  0
14157  14154  14467  0
14154  14464  14467  0
13012  14465  13626  0
14467  14466  14160  0
14467  14464  14468  0
14469  14161  14163  0
13880  13882  14470  0
14466  14467  14471  0
14468  14471  14467  0
14165  14167  14472  0
14473  14472  14167  0
13878  14170  14474  0
13878  14474  14163  0
13884  14475  13881  0
14476  14477  14478  0
14170  14479  14474  0
13886  14169  13889  0
14473  14480  14472  0
14473  14481  14482  0
14473  14482  14480  0
14477  14476  14483  0
14484  14483  14476  0
13628  14173  13885  0
14481  14483  14176  0
14483  14485  14177  0
14483  14177  14176  0
14483  14484  14485  0
14486  14177  14485  0
14170  14172  14487  0
14170  14487  14479  0
14173  13637  14488  0
14185  14489  14481  0
14482  14481  14489  0
14185  14490  14489  0
14481  14176  14178  0
14481  14178  14185  0
14177  14486  14179  0
14172  13892  14192  0
14172  14491  14487  0
14172  14192  14491  0
13637  13894  14488  0
14492  13902  13889  0
14493  14182  14181  0
14181  14180  14494  0
14182  14493  14183  0
14495  14183  14493  0
14183  14495  13891  0
14496  14497  14191  0
14496  14498  14497  0
14497  14490  14186  0
14497  14186  14191  0
14490  14185  14186  0
14179  14486  14187  0
14499  14187  14486  0
14187  14499  14188  0
14192  14500  14491  0
14501  13893  14171  0
13894  14195  14488  0
14502  13902  14492  0
13903  14196  14180  0
14180  14196  14503  0
13656  13891  14504  0
13656  14504  14189  0
13891  14495  14504  0
14495  14505  14504  0
14506  14504  14505  0
14507  14496  14508  0
14507  14509  14496  0
14507  14510  14509  0
14496  14191  14199  0
14496  14199  14508  0
14511  14188  14499  0
14188  14511  13657  0
14192  14193  14500  0
13893  14501  14194  0
14512  14194  14501  0
13911  14513  14196  0
13911  14514  14513  0
14196  14513  14503  0
14189  14515  14197  0
14504  14506  14189  0
14507  14508  14516  0
14507  14516  14510  0
13657  14511  13906  0
13906  14511  14517  0
13906  14517  14518  0
14518  14200  13906  0
14518  14517  14519  0
13914  14205  14193  0
14194  14512  14201  0
14201  14512  14195  0
14502  13910  13902  0
13668  14211  14514  0
13668  14514  13911  0
14202  14198  14520  0
14198  14197  14515  0
14198  14515  14521  0
14198  14521  14520  0
14518  14519  14200  0
13910  14502  14522  0
13925  14211  13668  0
13926  14202  14523  0
14202  14520  14523  0
14508  14199  14524  0
14199  14204  14524  0
14208  14200  14525  0
14205  14206  14526  0
14206  14209  14526  0
14527  14526  14209  0
13910  14522  14210  0
14523  14528  13926  0
14207  14524  14204  0
14208  14525  14213  0
14213  14525  14529  0
14213  14529  14214  0
13682  14209  13930  0
13926  14528  13931  0
14214  14530  14215  0
14214  14529  14531  0
14214  14531  14530  0
14524  14207  14532  0
14207  14212  14533  0
14212  14216  14534  0
14215  14530  14535  0
14215  14535  14536  0
14215  14536  13932  0
14537  14533  14212  0
14534  14537  14212  0
13932  14536  14538  0
13932  14538  13935  0
13936  13935  14539  0
13682  13412  14218  0
13931  14540  14217  0
13940  14216  13934  0
13936  14539  14218  0
14217  14540  14541  0
14217  14541  13937  0
14542  13937  14541  0
13937  14542  13939  0
13941  13939  14542  0
14216  13940  14543  0
13943  14543  13940  0
14544  13941  14542  0
14545  13941  14544  0
13941  14545  13942  0
14546  14543  14221  0
14543  13943  14221  0
13942  14545  14219  0
14546  14547  14548  0
14549  14547  14221  0
14547  14546  14221  0
14220  14549  14221  0
14550  14222  14219  0
14547  14549  14551  0
14552  14551  14549  0
14549  14220  14552  0
14220  13944  14552  0
14553  14554  13946  0
13946  13945  14553  0
14555  14553  13945  0
13945  14223  14555  0
14556  14555  14223  0
14223  14224  14556  0
14550  14224  14222  0
14547  14551  14557  0
14558  14551  14552  0
14559  14558  14552  0
14552  13944  14559  0
13944  14225  14559  0
14225  13947  14560  0
13947  13948  14560  0
13948  13699  14561  0
14562  13949  13946  0
13949  14562  13951  0
14226  13951  14562  0
14226  14563  13952  0
14229  13958  14228  0
13960  13963  14231  0
13954  14564  13711  0
14230  14565  14566  0
14230  14566  14231  0
14230  14235  14565  0
14565  14235  14567  0
14233  13971  13446  0
14568  14569  14570  0
13964  14234  14571  0
13964  14571  14572  0
14569  14241  14240  0
14569  14240  14573  0
14236  14574  14234  0
14234  14574  14571  0
14575  13964  14572  0
13964  14575  14237  0
14576  14237  14577  0
14237  14576  14239  0
13971  14578  12577  0
14240  14579  14573  0
13462  12577  14578  0
13462  14578  13977  0
14240  14580  14579  0
14240  14242  14581  0
14240  14581  14580  0
14239  14582  14243  0
14239  14243  13968  0
13977  14583  14251  0
14242  14244  14584  0
14242  14584  14581  0
14246  14245  14585  0
14583  14585  14245  0
14246  14585  14586  0
14245  14251  14583  0
14587  14584  14244  0
14244  14248  14587  0
14246  14586  14588  0
14587  14248  14589  0
14590  14589  14248  0
14254  14246  14588  0
14254  14588  14591  0
14590  14248  14266  0
14256  14266  14248  0
14590  14266  14592  0
14593  14592  14266  0
14591  14261  14254  0
14593  14266  14273  0
14264  14273  14266  0
14594  14593  14273  0
14595  14255  14271  0
14255  14595  13989  0
14273  14272  14594  0
14596  14594  14272  0
14265  14275  14280  0
14597  14280  14275  0
14598  14597  14275  0
14275  14269  14598  0
14276  14598  14269  0
14599  14600  14601  0
14601  14600  14602  0
14600  14599  14262  0
14600  14262  14602  0
14603  14262  14599  0
14262  14603  14263  0
14271  14263  14603  0
14279  14596  14272  0
14604  14278  14280  0
14280  14597  14604  0
14605  14604  14597  0
14597  14598  14605  0
14281  14605  14598  0
14598  14276  14281  0
14277  14281  14276  0
14601  14606  14599  0
14301  14599  14606  0
14599  14301  14603  0
14607  14603  14301  0
14608  14603  14607  0
14603  14608  14271  0
14271  14608  14595  0
13999  14595  14608  0
14595  13999  13989  0
14596  14279  14609  0
14610  14609  14279  0
14279  14278  14610  0
14611  14610  14278  0
14278  14604  14611  0
14612  14611  14604  0
14604  14605  14612  0
14613  14612  14605  0
14605  14281  14613  0
14282  14613  14281  0
14285  14614  14289  0
14615  14616  14614  0
14614  14285  14615  0
14291  14615  14285  0
14615  14291  14617  0
14293  14617  14291  0
14617  14293  14618  0
14618  14293  14294  0
14294  14619  14618  0
14619  14294  14295  0
14295  14007  14620  0
14606  14601  14621  0
14606  14622  14301  0
14606  14621  14623  0
14606  14623  14622  0
14300  14607  14301  0
14607  14300  14608  0
14302  14608  14300  0
14608  14302  13999  0
14284  13999  14302  0
14610  14611  14624  0
14625  14624  14611  0
14610  14624  14626  0
14627  14626  14624  0
14611  14612  14625  0
14304  14625  14612  0
14612  14613  14304  0
14283  14304  14613  0
14613  14282  14283  0
14290  14628  14629  0
14628  14290  14614  0
14614  14290  14289  0
14007  14010  14620  0
14622  13471  14301  0
14622  14623  14630  0
14622  14630  13471  0
14624  14625  14627  0
14631  14627  14625  0
14625  14304  14305  0
14625  14305  14631  0
14316  14629  14632  0
14629  14316  14306  0
14629  14306  14290  0
14010  14633  14620  0
14297  14299  14310  0
14299  14298  14634  0
14298  14311  14634  0
14311  14312  14635  0
14311  14635  14634  0
13471  14630  14313  0
14636  14313  14630  0
14305  14318  14637  0
14305  14637  14631  0
14305  14314  14318  0
14632  14319  14023  0
14632  14023  14316  0
14309  14310  14638  0
14310  14299  14638  0
14312  14313  14636  0
14318  14639  14637  0
14318  14315  14639  0
14633  14010  13765  0
14317  14640  14320  0
14317  14309  14640  0
14309  14638  14640  0
14638  14299  14634  0
14635  14312  14641  0
14635  14641  14642  0
13765  14321  14633  0
14638  14634  14643  0
14634  14635  14642  0
14634  14642  14643  0
14024  14019  14644  0
14019  14320  14644  0
14320  14640  14645  0
14638  14643  14640  0
13488  14646  14321  0
13488  13487  14646  0
14328  14647  14324  0
14325  14648  14028  0
14028  14648  14330  0
14330  14336  14033  0
13779  14649  13487  0
14331  13769  14650  0
13769  14322  14650  0
13490  14333  14651  0
13490  14651  14326  0
14652  14325  14334  0
14653  14330  14648  0
14330  14653  14336  0
14654  14336  14653  0
14337  14655  13779  0
14038  14332  14047  0
14331  14047  14332  0
14334  14041  14656  0
14339  14656  14041  0
14334  14656  14652  0
14336  14654  14657  0
14336  14657  14335  0
14335  14657  14658  0
14335  14658  14340  0
14342  14659  14337  0
14660  14039  14043  0
14039  14660  14661  0
14039  14661  14333  0
14656  14339  14662  0
14340  14663  14664  0
14340  14664  14341  0
14341  14664  14659  0
14341  14659  14342  0
14048  14665  13504  0
14348  13504  14665  0
14042  14347  14666  0
14042  14666  14660  0
14042  14660  14043  0
14667  14349  14343  0
14668  14662  14339  0
14339  14344  14668  0
14669  14668  14344  0
14344  14346  14669  0
14670  14669  14346  0
14346  14345  14670  0
14350  14345  13508  0
14048  14351  14665  0
14050  14349  14671  0
14050  14671  14672  0
14050  14672  14054  0
14667  14671  14349  0
14673  14670  14345  0
14345  14350  14673  0
14054  14672  14055  0
14350  14051  14356  0
14352  14353  14674  0
14353  13791  14675  0
14676  14675  13791  0
13791  14354  14676  0
14354  13796  14676  0
14677  14676  13796  0
13795  13790  14678  0
14679  14678  13790  0
13790  14052  14679  0
14680  14679  14052  0
14052  14352  14680  0
14674  14680  14352  0
13796  14357  14677  0
13800  14363  14356  0
14678  14681  13795  0
14682  14361  14059  0
14060  13797  14360  0
14060  14360  14683  0
14362  14684  14363  0
14059  14061  14682  0
14685  14682  14061  0
14061  14062  14685  0
14683  14685  14062  0
14062  14060  14683  0
14362  14365  14684  0
14063  14364  14367  0
14686  14365  14687  0
14684  14365  14686  0
14688  14371  14367  0
14688  14367  14689  0
14688  14689  14690  0
14367  14371  14366  0
13804  14691  14364  0
14681  14372  13795  0
14687  14369  14692  0
14686  14687  14693  0
14687  14692  14694  0
14687  14694  14693  0
14687  14365  14369  0
14695  14688  14690  0
14695  14690  14696  0
14697  14695  14696  0
14688  14370  14371  0
13804  14378  14691  0
14681  14698  14372  0
14066  14372  14699  0
14066  14699  14067  0
14373  14067  14700  0
14701  14374  14373  0
14374  14701  13810  0
14072  13810  14701  0
14702  14380  14382  0
14703  14702  14704  0
14702  14382  14705  0
14702  14705  14704  0
14702  14692  14386  0
14702  14386  14380  0
14702  14703  14692  0
14694  14692  14703  0
14692  14369  14386  0
14369  14376  14386  0
14706  14697  14707  0
14706  14707  14708  0
14706  14708  14709  0
14697  14706  14710  0
14697  14710  14695  0
14695  14710  14377  0
14695  14377  14688  0
14688  14377  14370  0
14711  14372  14712  0
14372  14711  14699  0
14700  14067  14699  0
14072  14713  14379  0
14714  14715  14382  0
14705  14382  14715  0
14382  14383  14714  0
14709  14716  14717  0
14709  14718  14716  0
14709  14717  14706  0
