#!ascii file
23585  23884  23586  0
23582  23885  23292  0
23293  23292  23885  0
23886  23583  23584  0
23887  23580  23888  0
23580  23297  23888  0
23889  23888  23297  0
23587  23583  23886  0
23587  23886  23588  0
23890  23588  23886  0
23297  23298  23889  0
23891  23889  23298  0
23589  23299  23586  0
23892  23586  23884  0
23586  23892  23589  0
23892  23590  23589  0
23590  23581  23300  0
23593  23298  23045  0
23593  23891  23298  0
23588  23890  23591  0
23893  23593  23592  0
23894  23893  23592  0
23594  23591  23890  0
23302  23894  23592  0
23895  23896  23897  0
23600  23302  23595  0
23895  23898  23896  0
23899  23896  23898  0
23896  23900  23897  0
23897  23900  23901  0
23594  23902  23596  0
23597  23600  23595  0
23896  23899  23900  0
23901  23900  23903  0
23051  23598  23904  0
23051  23904  23601  0
23905  23600  23599  0
23905  23599  23906  0
23907  23600  23905  0
23908  23899  23909  0
23899  23908  23900  0
23603  23906  23307  0
23603  23910  23906  0
23906  23599  23306  0
23906  23306  23307  0
23602  23911  23053  0
23053  23911  23604  0
23310  23910  23603  0
23312  23607  23310  0
23309  23912  23608  0
23913  23061  23608  0
23606  23914  23607  0
23061  23913  23609  0
23609  23915  22817  0
23914  23606  23314  0
23914  23314  23316  0
23914  23316  23916  0
23611  23917  23916  0
23611  23916  23316  0
23611  23613  23918  0
23611  23918  23917  0
23919  23617  23616  0
23919  23920  23617  0
23616  23921  23922  0
23616  23922  23919  0
23613  23611  23610  0
23617  23920  23923  0
23617  23923  23624  0
23616  23619  23921  0
23921  23619  23621  0
23318  22817  23924  0
23613  23614  23918  0
23624  23925  23627  0
23621  23622  23926  0
23614  23623  23927  0
23925  23928  23627  0
23925  23929  23928  0
23624  23627  23625  0
23623  23626  23928  0
23623  23928  23927  0
23928  23628  23627  0
23622  23629  23930  0
23626  23931  23928  0
23928  23931  23628  0
23626  23630  23931  0
23931  23632  23628  0
23629  23631  23930  0
23932  23635  23634  0
23634  23637  23933  0
23634  23933  23932  0
23637  23934  23933  0
23931  23935  23632  0
23631  23936  23930  0
23636  23635  23937  0
23637  23638  23934  0
23638  23075  23938  0
23066  23939  23081  0
23630  23940  23931  0
23630  23639  23940  0
23931  23940  23935  0
23935  23645  23640  0
23935  23640  23632  0
23941  23641  23636  0
23941  23636  23937  0
23941  23942  23641  0
23075  23341  23943  0
23643  23642  23944  0
23643  23944  23639  0
23631  23945  23936  0
23641  23942  23651  0
23641  23651  23347  0
23341  23646  23946  0
23341  23946  23943  0
23647  23947  23644  0
23644  23947  23948  0
23644  23948  23642  0
23642  23656  23944  0
23642  23948  23949  0
23642  23949  23656  0
23944  23656  23649  0
23944  23649  23950  0
23944  23950  23639  0
23649  23645  23950  0
23631  23650  23945  0
23651  23951  23652  0
23653  23946  23646  0
23350  23661  23647  0
23647  23661  23952  0
23647  23952  23947  0
23656  23949  23953  0
23656  23953  23657  0
23652  23954  23660  0
23364  23955  23653  0
23956  23952  23661  0
23662  23657  23957  0
23657  23953  23957  0
23958  23650  23659  0
23650  23958  23959  0
23660  23954  23960  0
23667  23955  23364  0
23661  23669  23961  0
23661  23961  23956  0
23957  23962  23662  0
23662  23962  23963  0
23659  23673  23958  0
23660  23960  23964  0
23660  23964  23674  0
23667  23675  23965  0
23966  23965  23675  0
23967  23961  23669  0
23669  23676  23967  0
23968  23967  23676  0
23662  23963  23670  0
23670  23963  23969  0
23670  23677  23665  0
23670  23969  23970  0
23670  23970  23677  0
23677  23971  23671  0
23671  23971  23672  0
23972  23672  23971  0
23672  23972  23673  0
23973  23673  23972  0
23974  23673  23973  0
23674  23964  23975  0
23675  23678  23966  0
23976  23966  23678  0
23676  23679  23968  0
23977  23968  23679  0
23978  23977  23679  0
23679  23680  23978  0
23677  23970  23979  0
23677  23979  23971  0
23971  23979  23980  0
23674  23975  23981  0
23674  23981  23683  0
23678  23380  23976  0
23982  22846  23668  0
22846  23982  23376  0
23680  23684  23978  0
23983  23978  23684  0
23972  23971  23980  0
23984  23683  23981  0
23668  23985  23982  0
23103  23376  23982  0
23986  23983  23684  0
23684  23688  23986  0
23987  23986  23688  0
23688  23689  23987  0
23988  23987  23689  0
23989  23687  23683  0
23984  23989  23683  0
23990  23380  23691  0
23991  23982  23985  0
23982  23382  23103  0
23982  23991  23382  0
23992  23382  23991  0
23689  23692  23988  0
23989  23692  23690  0
23993  23988  23692  0
23690  23687  23989  0
23691  23693  23990  0
23382  23992  23994  0
23995  23994  23992  0
23692  23989  23993  0
23996  23993  23989  0
23382  23994  23694  0
23997  23994  23995  0
23997  23694  23994  0
23998  23107  23383  0
23107  23998  23381  0
23999  23381  23998  0
24000  23383  23695  0
23387  24001  23388  0
23394  23388  24001  0
24002  23696  23389  0
23390  24003  23391  0
24003  24004  23391  0
23392  23391  24004  0
24005  23392  24004  0
24002  23389  23393  0
23392  24005  23697  0
24006  24000  23695  0
23695  23699  24006  0
23701  23702  24007  0
24008  24007  23702  0
23702  23703  24008  0
23707  22868  23698  0
23396  24009  23397  0
24010  23706  23708  0
23397  24009  23709  0
23699  23398  24011  0
22872  24012  23402  0
24013  23402  24012  0
23708  23710  24010  0
23710  23711  24014  0
23709  23408  23125  0
23398  23712  24015  0
23398  24015  24011  0
23711  23407  24016  0
23711  24016  24017  0
23709  23717  23408  0
23713  23714  24018  0
23713  24018  23712  0
24019  23402  24013  0
23407  23715  24016  0
24020  23716  23717  0
23402  24019  23410  0
23715  23409  24021  0
23715  24021  24016  0
23716  24020  23718  0
24022  23414  24023  0
23414  23413  24024  0
23414  24024  24023  0
23413  24025  24024  0
23413  23415  24026  0
23413  24026  24025  0
23415  23719  24027  0
23410  24019  23724  0
23411  24028  23409  0
23411  23720  24029  0
23411  24029  24028  0
23409  24028  24021  0
23714  23721  24030  0
23714  24030  24018  0
23417  23722  24031  0
23417  24031  23723  0
23722  23414  24022  0
23722  24022  24032  0
24033  23722  24032  0
23728  23419  23724  0
23720  23420  24034  0
23718  24035  23725  0
23718  24036  24035  0
23727  23723  24037  0
23733  23727  24037  0
23723  24031  24037  0
24031  23722  24033  0
23153  23424  24038  0
23737  23728  24039  0
23737  24039  24040  0
23420  23150  23729  0
23420  23729  24034  0
23725  24035  24041  0
23725  24041  23730  0
23731  24042  23721  0
23424  23734  24038  0
23735  23426  24043  0
23426  23736  24044  0
23426  24044  24043  0
23736  24045  24044  0
24046  23737  24040  0
23729  24047  24034  0
23729  23425  23738  0
23729  23738  24048  0
23740  23430  23743  0
23743  24046  23740  0
24046  23743  23432  0
24046  23432  23737  0
23738  23156  23741  0
23738  23741  24049  0
23738  24049  24048  0
23741  23744  24050  0
23741  24050  24049  0
23742  23739  24051  0
23744  23745  24050  0
23742  24051  24052  0
23434  23746  23747  0
23437  23752  23745  0
23431  23742  24052  0
23431  24052  23748  0
23747  24053  23435  0
23435  24053  23750  0
23750  24053  24054  0
23750  24054  23179  0
23751  24055  23176  0
23176  24055  24056  0
23176  24056  23752  0
23438  23749  23753  0
23749  23748  24057  0
23746  24058  23747  0
23179  24054  23751  0
23753  24059  23440  0
23753  23440  23439  0
23753  23749  24060  0
23753  24060  24059  0
23746  23755  24058  0
24059  24060  24061  0
24059  24061  23440  0
23440  24061  24062  0
23440  24062  23754  0
23754  24062  23756  0
23757  23756  24063  0
24064  23755  23443  0
23758  23444  23187  0
23760  23759  23445  0
23757  24063  23761  0
23443  23762  24064  0
24065  23762  23444  0
23444  23758  24065  0
24066  23760  23446  0
23446  23763  24066  0
24067  23766  23448  0
23448  23764  24067  0
24068  23764  23767  0
23767  23449  24068  0
24069  24068  23449  0
23449  23453  24069  0
24070  24069  23453  0
23453  23454  24070  0
24071  24072  23765  0
23766  24073  23192  0
23454  23769  24070  0
24074  24070  23769  0
23450  23451  24075  0
23450  24075  24076  0
24071  23768  23770  0
23768  24071  23765  0
23192  24073  23771  0
23450  24076  23455  0
23197  23774  23770  0
23771  23773  23198  0
24077  23769  23772  0
23455  24076  24078  0
23455  24078  23466  0
23780  23779  24079  0
24080  24079  23779  0
23780  24079  24081  0
23774  24082  23770  0
23460  23776  23775  0
24083  23775  23776  0
24084  23461  23462  0
23462  23463  24084  0
24085  24084  23463  0
23463  23464  24085  0
24086  23464  23470  0
24087  24086  23470  0
23772  23777  24077  0
23779  23467  23778  0
23780  24081  23781  0
24088  23774  23782  0
23774  24088  24082  0
23459  23775  23783  0
24089  23783  23775  0
23775  24083  24090  0
23775  24090  24089  0
23470  23475  24087  0
23788  24087  23475  0
23773  24091  23215  0
24092  23777  23471  0
23206  23781  23472  0
23782  23785  24088  0
23787  24088  23785  0
24093  24088  23787  0
23783  24089  24094  0
23783  24094  23786  0
24095  23215  24091  0
23215  24095  23482  0
23216  24092  23471  0
24096  24092  23216  0
24097  23472  23781  0
24098  23788  23477  0
24099  23482  24095  0
23216  23480  24100  0
23216  24100  24096  0
23477  23792  24098  0
24101  23789  23479  0
23479  23794  24101  0
23482  24099  23795  0
24102  24100  23480  0
23480  23790  24102  0
24103  24102  23790  0
24104  23792  23793  0
23793  23789  24104  0
23789  24101  24104  0
24105  24101  23794  0
23794  23796  24105  0
24106  23798  23797  0
23483  23485  24107  0
24108  24107  23485  0
24109  24108  23485  0
24110  23486  23800  0
23485  23486  24109  0
24110  24109  23486  0
24111  23487  24112  0
23487  23231  24112  0
23487  24111  23801  0
24113  23801  24111  0
23801  24114  23803  0
23801  24113  24114  0
24115  23803  24114  0
24116  24115  24114  0
24114  24117  24116  0
24114  24118  24117  0
24119  24116  24117  0
24120  24117  24118  0
24117  24120  24119  0
24112  23231  23490  0
24115  23802  23803  0
24115  24116  24121  0
24122  24121  24116  0
24116  24119  24122  0
23807  23492  23804  0
23490  23805  24123  0
23802  24115  23806  0
24121  23806  24115  0
24121  24122  23825  0
24124  24122  24119  0
24119  24125  24124  0
23495  23810  23804  0
24126  23807  23804  0
23807  24126  23808  0
23805  23809  24127  0
23806  24121  24128  0
23806  24128  23814  0
24121  24129  24128  0
24121  23825  24130  0
24121  24130  24129  0
23810  23498  24131  0
23810  24131  24132  0
23810  24132  23804  0
23809  23813  24133  0
23809  24133  24127  0
23814  24128  23819  0
24128  24129  23824  0
24122  24124  24134  0
24122  24134  23825  0
23498  23503  24135  0
23498  24135  24131  0
23819  24128  23823  0
24128  23824  23823  0
24129  24130  23824  0
24130  23825  23824  0
24134  24124  24136  0
24124  24137  24136  0
23503  23820  24138  0
23503  24138  24135  0
24139  23815  23816  0
23815  24139  23817  0
24140  23817  24139  0
23817  24140  23822  0
23818  23822  24141  0
23825  24134  23826  0
24134  24136  23827  0
24134  23827  23826  0
24136  23829  23827  0
23828  23830  24142  0
23829  24143  24144  0
23829  24144  23516  0
24145  23516  24144  0
24146  24147  24148  0
24146  24148  24149  0
24146  24150  24147  0
24149  24148  24151  0
23830  23831  24152  0
23515  23514  23832  0
23515  23832  24153  0
23832  23516  24145  0
24146  24149  24154  0
24146  24154  24155  0
24146  24155  24156  0
24146  24156  24150  0
23831  23833  24152  0
23834  23517  24157  0
23517  23515  24157  0
24158  24155  24159  0
24158  24160  24156  0
24158  24156  24155  0
24158  24159  24160  0
24154  24149  24161  0
23833  24162  24152  0
23518  23834  24163  0
24164  24160  24159  0
24164  24165  24160  0
24155  24154  24166  0
24154  24161  24166  0
24162  23833  23835  0
23518  24167  23519  0
24164  24159  24168  0
24159  24155  24166  0
24159  24166  24168  0
23519  24167  23836  0
24165  24164  24169  0
24165  24169  24170  0
24164  24168  24169  0
24168  24166  24171  0
24172  24173  23840  0
24172  23840  24174  0
24172  24175  24173  0
24172  24174  24176  0
24172  24176  24175  0
24173  24177  23840  0
24178  24169  24179  0
24178  24170  24169  0
24169  24168  24171  0
24174  23840  23839  0
23840  24177  23842  0
24177  24180  23842  0
24177  24181  24180  0
24180  24181  24182  0
23836  24183  23520  0
24184  24185  24178  0
24184  24178  24179  0
24179  24169  24186  0
24169  24171  24186  0
24171  24166  24187  0
23839  24188  24174  0
24180  23845  23842  0
24180  24182  23845  0
23520  24183  23848  0
24189  24190  24191  0
24190  24189  24184  0
24184  23865  24190  0
24184  24179  23865  0
24186  23865  24179  0
24192  24186  24171  0
24171  24187  24192  0
23841  24188  23839  0
23845  24182  24193  0
23845  24193  23846  0
24194  23849  23850  0
23849  24194  23851  0
23852  23851  24194  0
23860  23862  24195  0
23860  24195  23861  0
23861  24195  23863  0
23864  23863  24195  0
24195  24191  23864  0
24191  24190  23864  0
23865  23864  24190  0
23866  23865  24186  0
24186  24192  23866  0
24196  23866  24192  0
23854  24188  23841  0
23846  24193  23867  0
23867  24193  24197  0
23847  24198  23856  0
23858  23856  24199  0
23858  24199  23850  0
23850  24199  24194  0
24194  24200  23852  0
24194  24201  24200  0
23859  23852  24200  0
23862  23546  24202  0
24203  24202  23546  0
24188  23854  24204  0
24200  24201  24205  0
23859  24206  23868  0
23870  23868  24206  0
23546  23876  24203  0
24207  24203  23876  0
23866  24196  23565  0
23867  24197  23871  0
24200  24208  23859  0
24206  23859  24208  0
24200  24205  24208  0
24206  24209  23870  0
24210  23870  24209  0
23875  23870  24210  0
24211  23876  23877  0
24212  24213  24214  0
24204  23854  23883  0
24204  23883  24215  0
23854  23573  23883  0
24216  23871  24197  0
24209  24206  24208  0
24209  24217  24210  0
23878  23875  24210  0
24212  24218  24213  0
24219  24213  24218  0
24220  24221  24213  0
23565  24222  23585  0
24223  23585  24222  0
24224  24215  23883  0
23871  24216  23879  0
24225  23879  24216  0
23877  23881  24211  0
24226  24213  24219  0
24213  24226  24220  0
24227  24220  24226  0
23884  23585  24223  0
24215  24224  24228  0
23882  24224  23883  0
23879  24225  23582  0
24229  23582  24225  0
23582  24229  23885  0
23885  24229  23293  0
24230  23293  24229  0
23293  24230  23880  0
24231  23584  24232  0
23580  23887  23881  0
24233  24234  24218  0
23892  23884  24235  0
24235  24228  23892  0
24236  23892  24228  0
24228  24224  24236  0
24224  23882  24236  0
23581  24236  23882  0
23882  23575  23581  0
23584  24231  23886  0
24237  24218  24234  0
24218  24237  24219  0
24238  24219  24237  0
24219  24238  24226  0
24239  24226  24238  0
24226  24239  24240  0
24226  24240  24227  0
23590  23892  24236  0
24236  23581  23590  0
24241  23890  23886  0
24227  24240  24242  0
24227  24242  24243  0
24244  23890  24241  0
23891  23593  24245  0
24237  24246  24238  0
24239  24247  24240  0
24240  24247  24242  0
24248  23890  24244  0
23593  23893  24245  0
23893  23894  24249  0
24250  24246  24251  0
24246  23898  24238  0
24246  24250  23898  0
24238  23898  23895  0
24238  23895  24239  0
24239  23895  24247  0
24247  23895  23897  0
24247  23897  24242  0
24242  24252  24253  0
23890  24248  23594  0
24254  23594  24248  0
23894  23302  24255  0
23894  24255  24249  0
23897  23901  24242  0
24242  23901  24252  0
23594  24254  23902  0
24255  23302  23600  0
24255  23600  23907  0
23898  24250  23899  0
23901  24256  24252  0
24257  23596  23902  0
24250  24258  23909  0
24250  23909  23899  0
23901  23903  24256  0
24259  23602  23601  0
23598  23304  24257  0
23304  23596  24257  0
23909  24258  24260  0
23909  24260  24261  0
23909  24261  23908  0
23908  24262  23900  0
23900  24262  23903  0
23602  24259  24263  0
23602  24263  23911  0
23910  24264  24265  0
23910  23607  24264  0
23910  24265  23906  0
23908  24261  24262  0
23607  23910  23310  0
23607  24266  24267  0
24261  24268  24262  0
23604  24269  23605  0
23605  23912  23309  0
23605  24269  23912  0
23912  24270  23608  0
23912  24269  24271  0
23912  24271  24270  0
24266  23607  23914  0
24266  23914  24272  0
23608  24270  23913  0
24270  24273  23913  0
23916  24272  23914  0
24274  24275  24272  0
24274  24272  23916  0
23609  23913  24276  0
23609  24276  23915  0
24274  23916  23917  0
24274  23917  24277  0
24274  24277  24275  0
23919  23922  24278  0
23919  24278  24279  0
23922  23921  24280  0
23917  23918  24277  0
24281  23923  23920  0
24281  23920  24282  0
23920  23919  24279  0
23920  24279  24282  0
23921  23621  24280  0
23621  24283  24280  0
23915  23924  22817  0
23918  24284  24285  0
24285  24284  23929  0
24285  23929  23923  0
24285  23923  24281  0
23923  23929  23925  0
23923  23925  23624  0
23621  23926  24283  0
23918  23614  24284  0
23927  24284  23614  0
24284  23927  23929  0
24286  24283  23926  0
23318  23924  24287  0
23318  24287  23066  0
23928  23929  23927  0
23926  23622  24286  0
23622  23930  24286  0
24288  24286  23930  0
24289  23932  23933  0
24287  23939  23066  0
24289  24290  23635  0
23635  23932  24289  0
23930  23936  24288  0
23635  24290  23937  0
23934  23638  23938  0
23940  23950  23935  0
23941  23937  24291  0
23941  24291  23942  0
23938  23075  24292  0
23943  24292  23075  0
23940  23639  23950  0
23645  23935  23950  0
23936  23945  24288  0
24293  24288  23945  0
23943  23946  24294  0
24295  24294  23946  0
23946  23653  24295  0
24296  24295  23653  0
23947  23952  23948  0
23953  23948  23952  0
23948  23953  23949  0
23945  23650  24293  0
23650  23959  24293  0
23652  23951  23954  0
23653  23955  24296  0
23081  24297  23654  0
23952  23956  23953  0
23957  23953  23956  0
23667  23965  23955  0
24298  23955  23965  0
23967  23956  23961  0
23956  23967  23957  0
23962  23957  23967  0
23959  23958  24299  0
24300  24299  23958  0
23965  24301  24298  0
23965  23966  24301  0
24302  24301  23966  0
23654  24303  23668  0
23967  23968  23962  0
23962  23968  23963  0
23977  23963  23968  0
23978  23963  23977  0
23963  23978  23969  0
23970  23969  23978  0
23673  23974  23958  0
24304  23958  23974  0
23958  24304  24300  0
24305  24300  24304  0
24300  24305  24306  0
24307  24308  23964  0
23975  23964  24308  0
23960  24307  23964  0
23976  24309  23966  0
24309  24302  23966  0
23970  23978  23979  0
23983  23979  23978  0
23980  23979  23983  0
24310  24305  24304  0
24305  24310  24308  0
24311  24308  24310  0
24305  24308  24306  0
24307  24306  24308  0
24308  24311  23975  0
23981  23975  24311  0
23668  24303  23985  0
23986  23980  23983  0
23980  23986  23972  0
23987  23972  23986  0
23972  23987  23973  0
23973  23987  23974  0
24312  23974  23987  0
23974  24312  24304  0
24304  24313  24310  0
24314  24310  24313  0
24304  24312  24313  0
24310  24314  24311  0
24315  24311  24314  0
24311  24315  23981  0
23981  24315  23984  0
24316  24309  23976  0
23976  23380  24316  0
23987  23988  24312  0
24313  24312  24317  0
24312  23988  24317  0
23380  23990  24316  0
24318  24316  23990  0
23988  23993  24317  0
23989  23984  23996  0
23990  23693  24318  0
24319  24318  23693  0
23991  24320  23992  0
24321  23992  24320  0
24322  23992  24321  0
24323  23995  23992  0
24319  23693  23381  0
24324  23997  23995  0
23995  24323  24324  0
23381  23999  24319  0
24325  23387  23694  0
23997  24325  23694  0
23997  24324  24326  0
24325  24001  23387  0
23383  24000  23998  0
24327  23390  23696  0
23390  24327  24003  0
24003  24328  24004  0
24005  24004  24328  0
24329  23394  24001  0
23393  23700  24330  0
23393  24330  24002  0
24005  24331  23697  0
24332  23697  24331  0
23394  24329  22872  0
23700  23701  24007  0
23700  24007  24330  0
23697  24332  23698  0
23703  23704  24333  0
23703  24333  24008  0
23704  23705  24333  0
23707  24334  23395  0
24335  22872  24329  0
23705  23706  24336  0
23706  24337  24336  0
23395  24338  23396  0
23396  24338  24009  0
23699  24011  24006  0
22872  24335  24012  0
23706  24010  24337  0
23710  24014  24010  0
23709  24339  23717  0
23711  24017  24014  0
24340  23717  24339  0
23712  24018  24341  0
24018  24342  24341  0
24016  24021  24343  0
24016  24343  24344  0
24016  24344  24017  0
24023  24024  24345  0
24023  24345  24022  0
24024  24025  24346  0
24024  24346  24345  0
24025  24026  24347  0
24025  24347  24346  0
24026  23415  24348  0
24026  24348  24347  0
23415  24027  24348  0
24349  23724  24019  0
24021  24028  24350  0
24021  24351  24343  0
24021  24350  24351  0
24020  24036  23718  0
24032  24022  24352  0
24032  24352  24033  0
23719  24353  24027  0
23724  24039  23728  0
23724  24349  24039  0
24029  24354  24028  0
24342  24018  24030  0
24030  23721  24355  0
24037  24356  23733  0
24037  24031  24356  0
24031  24033  24356  0
23719  23153  24353  0
23153  24038  24357  0
23153  24357  24353  0
24358  24040  24039  0
24358  24039  24349  0
24358  24359  24040  0
23720  24034  24029  0
24042  24355  23721  0
24356  24033  24360  0
24033  24361  24360  0
23734  23735  24362  0
23734  24362  24038  0
24043  24044  24363  0
23736  23740  24045  0
23740  24359  24045  0
23740  24046  24040  0
23740  24040  24359  0
24034  24047  24029  0
23730  24364  23731  0
23733  24356  24365  0
23733  24365  24366  0
24356  24360  24365  0
24362  23735  24367  0
23735  24043  24367  0
23729  24048  24047  0
23733  24366  23739  0
24368  23739  24366  0
24366  24365  24368  0
24369  24368  24365  0
24048  24049  24370  0
23739  24368  24051  0
24371  24051  24368  0
24368  24369  24372  0
24368  24372  24371  0
24373  24050  23745  0
24051  24371  24052  0
24374  23752  24056  0
23752  24373  23745  0
23752  24374  24373  0
23748  24052  24375  0
23748  24375  24376  0
23748  24376  24057  0
24371  24375  24052  0
24377  24053  23747  0
24054  24053  24377  0
24057  24378  23749  0
23747  24058  24377  0
24377  24379  24380  0
24377  24380  24054  0
24377  24058  24379  0
24054  24380  24381  0
24054  24381  24382  0
24054  24382  23751  0
23751  24383  24055  0
23749  24378  24060  0
24058  23755  24379  0
24060  24378  24384  0
24060  24384  24061  0
24062  24061  24385  0
24062  24385  23756  0
23755  24064  24379  0
23756  24385  24386  0
23756  24386  24063  0
24063  24386  24387  0
24063  24387  23761  0
24388  24064  23762  0
23762  24065  24388  0
24389  24065  23758  0
23758  23759  24389  0
24390  23759  23760  0
24391  24390  23760  0
23760  24066  24391  0
23761  24387  24392  0
23761  24392  23447  0
23451  23447  24392  0
24393  23452  23765  0
23765  24072  24393  0
24394  23766  24067  0
23764  24068  24067  0
24075  23451  24395  0
23451  24392  24396  0
23451  24396  24395  0
24397  24072  24071  0
23766  24394  24073  0
24075  24395  24076  0
24398  24074  23769  0
23769  24077  24398  0
24399  24398  24077  0
24076  24395  24400  0
23770  24082  24071  0
24401  24071  24082  0
24071  24401  24402  0
24071  24402  24397  0
23773  23771  24403  0
24076  24400  24078  0
24093  24082  24088  0
24082  24093  24401  0
24090  24401  24093  0
24401  24090  24404  0
24405  24404  24090  0
23776  23461  24406  0
24084  24406  23461  0
23776  24406  24405  0
23776  24405  24083  0
24407  24085  23464  0
23464  24086  24407  0
23773  24403  24091  0
23466  24078  23778  0
24408  23778  24078  0
23778  24408  23779  0
24409  23779  24408  0
23779  24409  24080  0
24410  23781  24081  0
24093  24094  24090  0
24089  24090  24094  0
24090  24083  24405  0
23777  24092  24411  0
23781  24410  24097  0
24093  23787  24094  0
23786  24094  23787  0
24087  23788  24412  0
23472  24097  23791  0
23788  24098  24412  0
23790  23791  24103  0
24413  24098  23792  0
23797  23795  24099  0
24102  24103  24414  0
23792  24104  24413  0
24104  24415  24413  0
24104  24101  24415  0
24416  24415  24101  0
24101  24105  24416  0
24415  24417  24413  0
24415  24416  24418  0
24415  24418  24417  0
24105  23796  24107  0
24105  24107  24419  0
24105  24419  24416  0
23796  23483  24107  0
24420  23798  24106  0
23798  24420  23799  0
24421  23799  24420  0
24107  24108  24422  0
24107  24422  24419  0
23799  24421  23800  0
24423  23800  24421  0
24108  24109  24422  0
24424  23800  24423  0
24110  23800  24424  0
24110  24424  24109  0
24114  24113  24118  0
24118  24425  24120  0
24125  24120  24425  0
24111  24112  24426  0
24120  24125  24119  0
23490  24123  24112  0
24137  24125  24427  0
24125  24137  24124  0
23804  24132  24126  0
24126  24428  23808  0
24126  24132  24429  0
24126  24429  24428  0
23808  24430  23811  0
23808  24428  24430  0
24132  24131  24431  0
24132  24431  24429  0
24432  23811  24430  0
23811  24432  23812  0
24131  24135  24433  0
24131  24433  24431  0
23812  24432  23816  0
24434  23816  24432  0
24137  24435  24136  0
24143  24136  24435  0
24138  23820  23821  0
23816  24434  24139  0
23813  24436  24133  0
23813  23818  24436  0
24136  24143  23829  0
24437  23822  24140  0
23822  24437  24141  0
24436  23818  24141  0
23821  23828  24142  0
23821  24142  24438  0
24147  24439  24148  0
24440  24148  24439  0
24147  24441  24439  0
24148  24442  24151  0
24148  24440  24442  0
24442  24443  24151  0
24444  24443  24442  0
24445  24443  24444  0
24446  24443  24445  0
24153  23832  24145  0
24147  24150  24441  0
24151  24447  24149  0
24151  24443  24448  0
24151  24448  24447  0
24443  24446  24448  0
24449  24446  24450  0
23830  24152  24142  0
24153  24157  23515  0
24153  24451  24157  0
24447  24448  24452  0
24446  24449  24453  0
24446  24453  24448  0
23834  24157  24454  0
23834  24454  24163  0
24156  24455  24150  0
24149  24447  24456  0
24149  24456  24161  0
24447  24452  24456  0
24452  24448  24457  0
24448  24453  24458  0
24448  24458  24457  0
24453  24449  24459  0
24453  24459  24458  0
24449  24460  24459  0
24163  24461  24167  0
24163  24167  23518  0
24160  24165  24156  0
24452  24457  24175  0
24459  24462  24463  0
24459  24463  24458  0
24459  24460  24462  0
24165  24464  24156  0
24165  24465  24464  0
24456  24452  24466  0
24452  24175  24467  0
24452  24467  24466  0
24457  24458  24173  0
24457  24173  24175  0
24458  24463  24177  0
24458  24177  24173  0
23835  24468  24162  0
24167  24469  23836  0
24170  24465  24165  0
24166  24161  24470  0
24161  24456  24470  0
24456  24466  24470  0
24467  24175  24176  0
24181  24177  24463  0
24463  24462  24471  0
24463  24471  24181  0
23836  24469  24472  0
24185  24473  24178  0
24178  24473  24170  0
24166  24470  24187  0
24474  24187  24470  0
24470  24466  24475  0
24476  24475  24466  0
24466  24467  24476  0
24176  24476  24467  0
24181  24471  24477  0
24181  24477  24182  0
23835  23837  24468  0
23836  24472  24183  0
24478  24479  24195  0
24191  24195  24479  0
24478  24480  24479  0
24189  24191  24479  0
24479  24480  24481  0
24479  24185  24189  0
24184  24189  24185  0
24479  24481  24185  0
24482  24476  24176  0
24176  24174  24483  0
24188  24483  24174  0
24176  24483  24482  0
24484  24468  23837  0
24183  24485  23848  0
24486  24478  24202  0
23862  24202  24478  0
24487  24486  24202  0
24195  23862  24478  0
24192  24187  24474  0
24182  24477  24488  0
24182  24488  24193  0
23848  24485  23847  0
24192  24474  24489  0
24483  24188  24490  0
24204  24490  24188  0
24483  24490  24482  0
24197  24193  24488  0
24484  23837  23855  0
23856  24198  24491  0
23856  24491  24199  0
24199  24201  24194  0
24199  24491  24492  0
24199  24492  24201  0
24202  24203  24487  0
24493  24487  24203  0
24494  24495  24496  0
24496  24497  24494  0
24498  24494  24497  0
24192  24489  24196  0
24499  24482  24490  0
24488  24500  24197  0
23855  24501  24484  0
24201  24492  24502  0
24203  24207  24493  0
24503  24493  24207  0
24493  24503  24496  0
24504  24496  24503  0
24495  24493  24496  0
24505  24496  24504  0
24496  24505  24497  0
24212  24497  24505  0
24497  24212  24498  0
24214  24498  24212  0
24498  24214  24506  0
24221  24506  24214  0
24222  23565  24196  0
24196  24489  24222  0
24490  24204  24499  0
24215  24499  24204  0
23872  24501  23855  0
24201  24507  24205  0
24208  24205  24507  0
24201  24502  24507  0
23876  24211  24207  0
24207  24508  24503  0
24503  24509  24504  0
24214  24213  24221  0
24222  24489  24223  0
24223  24489  24510  0
24228  24510  24499  0
24499  24215  24228  0
24197  24500  24511  0
24197  24511  24216  0
24512  24501  23872  0
24507  24513  24208  0
24514  24208  24513  0
24208  24514  24209  0
24217  24209  24514  0
24515  24210  24217  0
24210  24515  23878  0
23584  23878  24515  0
24211  24508  24207  0
24504  24509  24516  0
24504  24517  24505  0
24233  24505  24517  0
24505  24233  24212  0
24218  24212  24233  0
24221  24220  24518  0
24235  24223  24510  0
24510  24228  24235  0
24519  24216  24511  0
23872  23880  24512  0
24520  24513  24507  0
24514  24521  24217  0
24217  24521  24232  0
24217  24232  24515  0
24515  24232  23584  0
24211  23881  24522  0
24211  24522  24508  0
24504  24516  24517  0
24523  24517  24516  0
24220  24227  24243  0
24220  24243  24518  0
24223  24235  23884  0
24216  24519  24225  0
24524  24225  24519  0
24225  24524  24229  0
24525  24229  24524  0
24230  24229  24525  0
24512  23880  24230  0
24526  24513  24520  0
24513  24526  24514  0
24527  24521  24514  0
24528  24521  24527  0
24521  24528  24232  0
24231  24232  24528  0
24529  23887  24530  0
23887  23888  24530  0
23887  24529  23881  0
24522  23881  24529  0
24517  24523  24234  0
24517  24234  24233  0
24518  24243  24531  0
23888  23889  24532  0
23888  24532  24530  0
24531  24243  24253  0
23886  24231  24533  0
23886  24533  24241  0
24523  24251  24234  0
24234  24251  24246  0
24234  24246  24237  0
24243  24242  24253  0
24253  24534  24531  0
23891  24245  24535  0
23891  24535  23889  0
24523  24536  24251  0
24245  23893  24535  0
24537  24251  24536  0
24253  24252  24538  0
24253  24538  24539  0
24253  24539  24534  0
24540  24254  24248  0
24249  24255  24541  0
24251  24537  24250  0
24252  24542  24538  0
24254  24540  23902  0
24257  23902  24540  0
24543  24537  24544  0
24537  24543  24258  0
24537  24258  24250  0
24542  24545  24538  0
24546  23907  23905  0
24546  24547  23907  0
24255  23907  24547  0
24543  24548  24258  0
24252  24256  24542  0
24542  24549  24545  0
23601  23904  24259  0
23904  23598  24550  0
23598  24257  24550  0
24265  24546  23906  0
24546  23905  23906  0
24548  24551  24258  0
24258  24551  24260  0
24256  23903  24552  0
24256  24552  24542  0
24267  24264  23607  0
24267  24553  24264  0
24260  24551  24554  0
24260  24554  24261  0
23903  24262  24552  0
24555  23911  24263  0
23911  24555  23604  0
24269  23604  24555  0
24266  24556  24267  0
24551  24557  24554  0
24261  24554  24268  0
24262  24558  24552  0
24262  24268  24558  0
24269  24559  24271  0
24266  24272  24556  0
24554  24557  24560  0
24554  24560  24268  0
24556  24272  24561  0
24273  24276  23913  0
24275  24562  24561  0
24275  24561  24272  0
24275  24277  24562  0
24563  24281  24282  0
24563  24282  24564  0
24282  24279  24564  0
23922  24280  24565  0
24280  24566  24565  0
24567  24566  24280  0
24277  23918  24568  0
24285  24568  23918  0
24568  24285  24281  0
24563  24568  24281  0
24280  24283  24567  0
24569  24567  24283  0
23915  24570  23924  0
24283  24286  24569  0
24571  24569  24286  0
24571  24286  24572  0
24288  24572  24286  0
24571  24572  24573  0
24289  23933  24574  0
24575  24574  23933  0
23933  23934  24575  0
24576  24575  23934  0
23934  23938  24576  0
24577  24291  24290  0
23937  24290  24291  0
24577  24290  24578  0
23938  24292  24579  0
24580  24579  24292  0
23942  24291  24581  0
24291  24577  24582  0
24291  24582  24581  0
24292  23943  24580  0
24294  24580  23943  0
23939  24297  23081  0
24572  24288  24583  0
24581  23651  23942  0
24580  24294  24584  0
24585  24584  24294  0
24294  24295  24585  0
24586  24288  24293  0
23651  24581  24587  0
23651  24587  23951  0
24295  24296  24585  0
24588  24586  24293  0
23951  24587  24589  0
23951  24589  23954  0
23955  24298  24296  0
24296  24298  24590  0
24591  24590  24298  0
24293  23959  24588  0
24299  24588  23959  0
23954  24589  24592  0
23954  24592  23960  0
24298  24301  24591  0
24593  24588  24299  0
24299  24300  24593  0
24300  24306  24593  0
24594  24593  24306  0
24306  24307  24594  0
24595  24594  24307  0
24307  23960  24595  0
24592  24595  23960  0
24309  24596  24302  0
24596  24597  24302  0
24598  24314  24313  0
24314  24598  24315  0
24599  24596  24309  0
24309  24316  24599  0
24313  24317  24598  0
23996  24598  24317  0
24598  23996  24315  0
23984  24315  23996  0
23991  23985  24320  0
23996  24317  23993  0
23992  24322  24323  0
24600  24325  23997  0
24601  24600  23997  0
24326  24601  23997  0
24602  24601  24326  0
24325  24600  24603  0
24325  24603  24001  0
24326  24324  24604  0
24326  24604  24602  0
24324  24323  24604  0
23696  24605  24327  0
23696  24002  24605  0
24606  24605  24002  0
24328  24003  24327  0
24328  24607  24005  0
24608  24005  24607  0
24005  24608  24331  0
24609  24331  24608  0
24610  23998  24000  0
24001  24603  24329  0
24002  24330  24606  0
24611  24606  24330  0
24332  24331  24612  0
24331  24609  24612  0
24613  24612  24609  0
24330  24007  24614  0
24008  24614  24007  0
24330  24614  24611  0
24614  24008  24615  0
24615  24008  24333  0
24616  24615  24333  0
23705  24612  24333  0
24333  24612  24616  0
24613  24616  24612  0
24612  23705  24617  0
24612  24617  24332  0
24332  24617  23707  0
24332  23707  23698  0
24000  24006  24610  0
23705  24336  24617  0
24617  24618  23707  0
24334  23707  24618  0
24617  24336  24619  0
24617  24619  24618  0
24334  24338  23395  0
24006  24620  24610  0
24336  24337  24619  0
24621  24009  24622  0
24006  24011  24620  0
24009  24621  23709  0
24339  23709  24621  0
24015  23712  24623  0
24624  23717  24340  0
24623  23712  24341  0
24625  24019  24013  0
23717  24624  24020  0
24623  24341  24626  0
24341  24342  24627  0
24341  24627  24626  0
24346  24347  24628  0
24346  24628  24629  0
24347  24348  24630  0
24347  24630  24628  0
24348  24027  24631  0
24348  24631  24630  0
24632  24633  24353  0
24027  24353  24633  0
24019  24625  24349  0
24343  24351  24634  0
24343  24634  24344  0
24342  24635  24627  0
24022  24345  24636  0
24628  24630  24629  0
24630  24631  24637  0
24631  24027  24637  0
24632  24353  24638  0
24028  24354  24350  0
24036  24639  24035  0
24030  24355  24342  0
24342  24355  24640  0
24033  24352  24641  0
24352  24022  24641  0
24022  24636  24641  0
24642  24044  24045  0
24363  24044  24642  0
24642  24045  24359  0
24642  24359  24643  0
24359  24358  24643  0
24358  24349  24643  0
24354  24029  24644  0
24354  24644  24645  0
24354  24645  24350  0
24035  24646  24041  0
24355  24042  24647  0
24355  24648  24640  0
24355  24647  24648  0
24033  24641  24361  0
24029  24047  24649  0
24029  24649  24644  0
24650  24041  24646  0
24041  24650  23730  0
24364  23730  24650  0
24651  23731  24364  0
23731  24651  24042  0
24042  24651  24647  0
24361  24652  24360  0
24653  24360  24652  0
24362  24367  24654  0
24362  24654  24038  0
24043  24363  24655  0
24043  24655  24367  0
24047  24048  24370  0
24047  24370  24656  0
24047  24656  24649  0
24365  24360  24369  0
24360  24653  24369  0
24370  24049  24050  0
24370  24050  24657  0
24370  24657  24658  0
24369  24653  24372  0
24657  24050  24373  0
24371  24372  24659  0
24373  24374  24660  0
24373  24660  24657  0
24375  24661  24376  0
24371  24659  24661  0
24371  24661  24375  0
24374  24662  24660  0
24057  24376  24378  0
24376  24661  24663  0
24664  24380  24379  0
24380  24665  24666  0
24380  24666  24381  0
24380  24664  24665  0
24667  24665  24664  0
24381  24666  24382  0
23751  24382  24668  0
23751  24668  24383  0
24055  24383  24374  0
24055  24374  24056  0
24376  24669  24378  0
24378  24669  24384  0
24384  24669  24061  0
24061  24669  24670  0
24061  24670  24385  0
24385  24670  24671  0
24379  24064  24664  0
24388  24664  24064  0
24664  24388  24667  0
24385  24671  24386  0
24386  24671  24672  0
24386  24672  24387  0
24673  24388  24065  0
24065  24389  24674  0
24065  24674  24673  0
24675  24389  23759  0
23759  24390  24675  0
24676  23763  23452  0
24387  24672  24677  0
24387  24677  24392  0
24392  24677  24678  0
23452  24393  24676  0
24679  24393  24072  0
24680  24394  24067  0
24067  24068  24681  0
24682  24681  24068  0
24067  24681  24680  0
24068  24069  24682  0
24392  24683  24396  0
24072  24397  24679  0
24684  24679  24397  0
24394  24680  24685  0
24394  24685  24073  0
24069  24070  24682  0
24686  24682  24070  0
24070  24074  24686  0
24395  24396  24687  0
24395  24687  24688  0
24397  24402  24684  0
24689  24684  24402  0
24073  24685  23771  0
24395  24688  24400  0
24401  24404  24402  0
24406  24402  24404  0
24402  24406  24689  0
24690  24689  24406  0
23771  24685  24403  0
24400  24691  24078  0
24408  24078  24691  0
24400  24688  24692  0
24400  24692  24691  0
24080  24693  24694  0
24080  24694  24079  0
24079  24694  24695  0
24079  24695  24081  0
24404  24405  24406  0
24406  24084  24690  0
24696  24407  24086  0
24086  24087  24697  0
24086  24697  24696  0
24091  24403  24698  0
24077  23777  24411  0
24408  24691  24409  0
24081  24695  24699  0
24081  24699  24410  0
24087  24412  24700  0
24701  24700  24412  0
24091  24698  24095  0
24702  24411  24092  0
24412  24703  24701  0
24092  24096  24702  0
24704  24702  24096  0
24412  24098  24703  0
24096  24100  24704  0
24100  24102  24414  0
24100  24414  24704  0
24098  24413  24703  0
24705  24703  24413  0
24099  24706  23797  0
24707  24705  24413  0
23797  24706  24420  0
23797  24420  24106  0
24413  24417  24707  0
24708  24707  24417  0
24417  24418  24708  0
24416  24419  24709  0
24416  24709  24418  0
24419  24422  24709  0
24710  24709  24422  0
24711  24424  24423  0
24423  24421  24711  0
24422  24109  24710  0
24712  24710  24109  0
24109  24424  24712  0
24424  24711  24712  0
24713  24113  24111  0
24714  24113  24713  0
24113  24714  24118  0
24715  24118  24714  0
24118  24715  24425  0
24716  24425  24715  0
24425  24716  24125  0
24717  24125  24716  0
24111  24718  24713  0
24111  24426  24718  0
24427  24125  24717  0
24112  24123  24426  0
24719  24426  24123  0
24717  24720  24427  0
24721  24427  24720  0
24427  24721  24137  0
24722  24428  24429  0
24723  24430  24428  0
23805  24127  24123  0
24724  24123  24127  0
24123  24724  24725  0
24721  24726  24137  0
24721  24727  24726  0
24429  24431  24728  0
24429  24728  24722  0
24430  24723  24432  0
24729  24432  24723  0
24726  24727  24730  0
24726  24435  24137  0
24431  24433  24731  0
24431  24731  24728  0
24127  24133  24732  0
24726  24730  24143  0
24726  24143  24435  0
24135  24138  24733  0
24135  24733  24433  0
24734  24139  24434  0
24133  24436  24732  0
24138  23821  24733  0
23821  24438  24733  0
24139  24734  24140  0
24140  24735  24437  0
24140  24734  24735  0
24141  24437  24736  0
24141  24736  24436  0
24436  24736  24737  0
24730  24738  24144  0
24730  24144  24143  0
24440  24739  24442  0
24440  24740  24739  0
24739  24444  24442  0
24741  24444  24739  0
24444  24741  24445  0
24742  24445  24741  0
24438  24142  24743  0
24153  24144  24738  0
24451  24153  24738  0
24144  24153  24145  0
24439  24744  24440  0
24439  24441  24745  0
24439  24745  24744  0
24445  24742  24450  0
24445  24450  24446  0
24746  24450  24742  0
24441  24747  24745  0
24142  24152  24748  0
24451  24454  24157  0
24441  24150  24747  0
24461  24163  24454  0
24150  24455  24747  0
24152  24162  24749  0
24152  24749  24748  0
24156  24750  24455  0
24455  24750  24751  0
24752  24462  24460  0
24156  24464  24750  0
24750  24753  24751  0
24462  24752  24471  0
24162  24468  24749  0
24170  24473  24465  0
24465  24754  24464  0
24464  24755  24750  0
24468  24756  24749  0
24185  24481  24757  0
24185  24757  24473  0
24473  24757  24754  0
24473  24754  24465  0
24754  24755  24464  0
24485  24183  24472  0
24478  24486  24758  0
24478  24758  24480  0
24759  24480  24758  0
24480  24759  24481  0
24757  24760  24754  0
24470  24475  24474  0
24477  24471  24761  0
24468  24484  24762  0
24468  24762  24756  0
24486  24487  24495  0
24486  24495  24494  0
24486  24494  24763  0
24486  24763  24758  0
24761  24764  24488  0
24761  24488  24477  0
24485  24765  24766  0
24485  24766  23847  0
23847  24766  24198  0
24487  24493  24495  0
24763  24494  24498  0
24763  24498  24767  0
24763  24767  24758  0
24767  24498  24506  0
24767  24506  24768  0
24474  24475  24489  0
24475  24476  24769  0
24475  24769  24489  0
24476  24482  24769  0
24198  24770  24491  0
24491  24770  24771  0
24491  24771  24492  0
24506  24221  24768  0
24499  24769  24482  0
24772  24484  24501  0
24492  24773  24502  0
24774  24768  24221  0
24510  24489  24769  0
24769  24499  24510  0
24764  24775  24488  0
24500  24488  24775  0
24773  24776  24502  0
24509  24503  24508  0
24518  24774  24221  0
24775  24777  24500  0
24511  24500  24777  0
24501  24512  24772  0
24502  24776  24778  0
24502  24778  24507  0
24774  24518  24779  0
24519  24511  24780  0
24511  24777  24780  0
24507  24778  24781  0
24507  24781  24520  0
24508  24522  24509  0
24782  24509  24522  0
24509  24782  24516  0
24783  24516  24782  0
24523  24516  24783  0
24531  24779  24518  0
24779  24531  24784  0
24780  24785  24519  0
24519  24785  24524  0
24514  24526  24527  0
24231  24528  24527  0
24530  24786  24529  0
24787  24786  24530  0
24529  24786  24788  0
24529  24788  24522  0
24522  24788  24789  0
24522  24789  24782  0
24782  24789  24783  0
24526  24790  24527  0
24231  24527  24790  0
24231  24790  24533  0
24530  24532  24787  0
24783  24791  24523  0
24792  24532  23889  0
24523  24791  24793  0
24539  24794  24534  0
24241  24533  24244  0
23889  24535  24792  0
24536  24523  24793  0
24244  24795  24248  0
24535  23893  24249  0
24535  24249  24792  0
24796  24792  24249  0
24537  24536  24797  0
24539  24538  24798  0
24799  24798  24538  0
24248  24795  24540  0
24249  24541  24796  0
24797  24544  24537  0
24540  24795  24800  0
24540  24800  24257  0
24255  24547  24541  0
24541  24547  24796  0
24801  24796  24547  0
24538  24545  24799  0
24802  24550  24257  0
24800  24802  24257  0
24801  24547  24265  0
24546  24265  24547  0
24801  24265  24803  0
24553  24803  24265  0
24544  24804  24805  0
24543  24544  24805  0
24806  24545  24549  0
24259  23904  24807  0
24259  24807  24808  0
24809  23904  24550  0
24802  24809  24550  0
24553  24810  24803  0
24553  24265  24264  0
24805  24811  24543  0
24812  24806  24549  0
24259  24808  24263  0
24813  24553  24267  0
24810  24553  24813  0
24811  24814  24543  0
24543  24814  24815  0
24543  24815  24548  0
24548  24815  24816  0
24542  24552  24817  0
24542  24817  24549  0
24549  24817  24818  0
24263  24819  24555  0
24267  24556  24813  0
24815  24820  24816  0
24548  24816  24551  0
24552  24558  24821  0
24552  24821  24817  0
24269  24822  24559  0
24823  24559  24822  0
24824  24559  24823  0
24559  24824  24271  0
24825  24271  24824  0
24271  24825  24270  0
24270  24825  24273  0
24826  24556  24561  0
24814  24827  24815  0
24815  24828  24820  0
24815  24827  24828  0
24551  24816  24557  0
24268  24560  24829  0
24268  24829  24558  0
24561  24830  24826  0
24816  24831  24557  0
24557  24831  24560  0
24829  24832  24558  0
24562  24833  24561  0
24561  24833  24830  0
24564  24279  24278  0
24564  24278  24834  0
24835  24278  23922  0
24835  23922  24565  0
24831  24836  24560  0
24560  24836  24837  0
24560  24837  24838  0
24560  24838  24829  0
24562  24277  24568  0
24562  24568  24833  0
24833  24568  24563  0
24833  24563  24839  0
24565  24566  24840  0
24841  24842  24828  0
24843  24828  24842  0
24828  24843  24844  0
24828  24844  24820  0
24820  24844  24816  0
24816  24844  24831  0
24837  24845  24838  0
24567  24569  24846  0
24844  24836  24831  0
24836  24847  24837  0
24569  24848  24846  0
24844  24849  24836  0
24848  24569  24571  0
24850  24571  24573  0
24850  24851  24571  0
24848  24571  24851  0
24573  24852  24850  0
24852  24853  24850  0
24852  24573  24572  0
24289  24574  24854  0
24575  24576  24855  0
24575  24855  24574  0
24852  24572  24856  0
24290  24857  24578  0
24290  24289  24854  0
24290  24854  24857  0
24576  23938  24579  0
24576  24579  24858  0
24579  24580  24859  0
24579  24859  24858  0
24856  24572  24583  0
24580  24584  24860  0
24580  24860  24859  0
24856  24583  24586  0
24856  24586  24861  0
24582  24862  24581  0
24582  24863  24862  0
24864  24860  24584  0
24864  24865  24860  0
24584  24585  24864  0
24583  24288  24586  0
24862  24587  24581  0
24866  24587  24862  0
24864  24585  24590  0
24296  24590  24585  0
24587  24866  24589  0
24867  24589  24866  0
24864  24590  24868  0
24591  24868  24590  0
24864  24868  24865  0
24869  24865  24868  0
24589  24867  24592  0
24870  24869  24868  0
24868  24591  24302  0
24301  24302  24591  0
24871  24588  24593  0
24592  24867  24872  0
24592  24872  24595  0
24868  24302  24597  0
24868  24597  24870  0
24873  24871  24593  0
24593  24594  24873  0
24874  24873  24594  0
24594  24595  24874  0
24872  24874  24595  0
24597  24596  24870  0
24875  24870  24596  0
23654  24297  24876  0
23654  24876  24303  0
24596  24599  24875  0
24877  24875  24599  0
24303  24878  23985  0
24599  24316  24877  0
24318  24877  24316  0
24320  23985  24879  0
24320  24879  24321  0
24321  24879  24880  0
24321  24880  24322  0
24877  24318  24881  0
24882  24881  24318  0
24318  24319  24882  0
24600  24601  24883  0
24884  24883  24601  0
24601  24602  24884  0
24885  24884  24602  0
24604  24885  24602  0
24323  24322  24604  0
24319  23999  24882  0
24886  24882  23999  0
24600  24883  24603  0
24887  24886  23999  0
24603  24883  24888  0
24887  23999  23998  0
24605  24606  24889  0
24605  24889  24327  0
24327  24889  24890  0
24327  24890  24328  0
24328  24890  24607  0
23998  24891  24887  0
23998  24610  24891  0
24603  24888  24329  0
24329  24888  24335  0
24892  24611  24614  0
24614  24615  24892  0
24616  24892  24615  0
24620  24891  24610  0
24618  24619  24893  0
24894  24893  24619  0
24334  24895  24338  0
24896  24619  24337  0
24338  24897  24009  0
24009  24897  24622  0
24335  24898  24012  0
24337  24010  24899  0
24337  24899  24896  0
24015  24620  24011  0
24620  24015  24900  0
24901  24900  24015  0
24899  24010  24014  0
24339  24621  24340  0
24015  24623  24901  0
24340  24621  24902  0
24903  24904  24905  0
24013  24012  24625  0
24903  24906  24904  0
24904  24907  24905  0
24637  24905  24907  0
24905  24637  24908  0
24905  24908  24909  0
24017  24344  24910  0
24346  24636  24345  0
24904  24629  24907  0
24630  24907  24629  0
24904  24906  24911  0
24904  24911  24629  0
24907  24630  24637  0
24027  24908  24637  0
24908  24027  24633  0
24908  24633  24909  0
24912  24909  24633  0
24633  24632  24912  0
24913  24912  24632  0
24632  24638  24913  0
24636  24346  24914  0
24915  24914  24346  0
24346  24629  24915  0
24911  24915  24629  0
24916  24913  24638  0
24349  24625  24917  0
24634  24351  24918  0
24639  24919  24035  0
24920  24635  24342  0
24342  24640  24920  0
24353  24357  24638  0
24642  24921  24363  0
24642  24643  24921  0
24643  24922  24921  0
24643  24923  24922  0
24643  24349  24917  0
24643  24917  24923  0
24350  24645  24924  0
24350  24924  24351  0
24351  24924  24925  0
24351  24925  24918  0
24918  24925  24926  0
24035  24919  24646  0
24927  24646  24919  0
24928  24646  24927  0
