#!ascii file
19584  19585  19838  0
19584  19838  19837  0
19824  19831  19839  0
19824  19839  19585  0
19826  19833  19607  0
19826  19607  19832  0
19833  19591  19596  0
19833  19596  19607  0
19834  19840  19590  0
19590  19840  19592  0
19382  19830  19385  0
19385  19841  19593  0
19586  19593  19841  0
19595  19587  19842  0
19587  19836  19842  0
19837  19843  19836  0
19839  19831  19844  0
19839  19844  19845  0
19831  19832  19609  0
19831  19609  19844  0
19832  19607  19605  0
19832  19605  19609  0
19596  19600  19607  0
19601  19592  19840  0
19385  19593  19603  0
19845  19846  19839  0
19601  19847  19608  0
19601  19608  19394  0
19601  19848  19847  0
19849  19847  19848  0
19399  19612  19850  0
19399  19850  19602  0
18909  19385  19603  0
19595  19842  19604  0
19851  19604  19842  0
19846  19845  19618  0
19846  19618  19852  0
19845  19844  19610  0
19845  19610  19618  0
19844  19609  19610  0
19853  19849  19854  0
19853  19854  19855  0
19853  19855  19615  0
19856  19615  19855  0
19849  19853  19857  0
19849  19857  19847  0
19847  19857  19611  0
19847  19611  19608  0
19604  19851  19400  0
19852  19858  19859  0
19852  19859  19860  0
19852  19618  19617  0
19616  19615  19856  0
19616  19856  19861  0
19400  19851  19142  0
19624  19862  19859  0
19623  19858  19852  0
19852  19617  19623  0
19616  19861  19621  0
19403  19624  19859  0
19859  19858  19403  0
19404  19403  19858  0
19858  19623  19404  0
19621  19863  19620  0
19624  19403  19402  0
19407  19620  19863  0
19864  18908  19143  0
19407  19863  19865  0
19143  19625  19864  0
19407  19626  19409  0
19407  19865  19866  0
19407  19866  19626  0
19627  19626  19867  0
19626  19866  19867  0
19411  19148  19628  0
19868  19628  19148  0
19628  19869  19870  0
19628  19870  19413  0
19628  19868  19869  0
19871  19869  19868  0
19413  19870  19416  0
19872  19873  19874  0
19875  19873  19872  0
19872  19876  19875  0
19876  19877  19875  0
19878  19875  19877  0
19879  19878  19877  0
19878  19879  19880  0
19878  19880  19881  0
19882  19867  19880  0
19880  19867  19881  0
19866  19881  19867  0
19867  19882  19627  0
19883  19627  19882  0
19627  19883  19629  0
19630  19629  19883  0
19415  19154  19884  0
19632  19884  19154  0
19148  19415  19871  0
19148  19871  19868  0
19416  19885  19631  0
19417  19631  19886  0
19417  19886  19155  0
19155  19886  19625  0
19877  19876  19872  0
19880  19879  19882  0
19887  19882  19879  0
19882  19887  19883  0
19888  19883  19887  0
19883  19888  19630  0
19889  19630  19888  0
19630  19890  19153  0
19153  19890  19419  0
19419  19891  19420  0
19892  19872  19874  0
19872  19892  19877  0
19893  19877  19892  0
19894  19877  19893  0
19877  19894  19879  0
19895  19879  19894  0
19887  19879  19895  0
19896  19888  19887  0
19888  19896  19889  0
19633  19420  19897  0
19420  19891  19897  0
19632  19421  19898  0
19899  19898  19421  0
19892  19900  19893  0
19893  19901  19894  0
19902  19887  19895  0
19887  19902  19896  0
19896  19903  19889  0
19421  19635  19899  0
19637  19899  19635  0
19893  19900  19904  0
19893  19904  19901  0
19894  19901  19905  0
19894  19905  19895  0
19895  19905  19902  0
19902  19905  19906  0
19902  19906  19907  0
19902  19907  19896  0
19896  19907  19908  0
19158  19634  19636  0
19909  19636  19634  0
19637  19638  19910  0
19911  19638  19639  0
19639  19422  19911  0
19912  19911  19422  0
19909  19640  19636  0
19913  19163  19423  0
19423  19640  19913  0
19163  19913  19642  0
19166  19914  19641  0
19166  19644  19914  0
19915  19641  19914  0
19916  19164  19643  0
19164  19916  19644  0
18941  19645  19643  0
19917  19646  19642  0
18518  19167  19645  0
19646  19917  19426  0
19167  18527  19918  0
19426  19917  19427  0
19917  19919  19427  0
19920  19427  19919  0
18527  18942  19918  0
18942  19921  19918  0
18942  19428  19921  0
19653  19168  19429  0
19653  19429  19922  0
19429  19647  19922  0
19647  19430  19923  0
19430  19648  19924  0
19430  19924  19923  0
19648  19649  19925  0
19648  19925  19924  0
19427  19920  19432  0
19926  19432  19920  0
19432  19926  19651  0
19649  19650  19927  0
19649  19927  19925  0
19651  19928  19172  0
19652  19172  19928  0
19650  19171  19435  0
19650  19435  19929  0
19656  19174  19652  0
19435  19930  19929  0
19435  19173  19655  0
19435  19655  19930  0
19655  19175  19436  0
19931  19438  19659  0
19436  19439  19932  0
19436  19932  19655  0
19176  19662  19661  0
19663  19182  19933  0
19182  19664  19934  0
19182  19934  19933  0
19664  19438  19931  0
19664  19931  19934  0
19439  19441  19667  0
19439  19667  19935  0
19439  19935  19936  0
19439  19936  19932  0
19440  19661  19665  0
19660  19937  19666  0
19667  19665  19938  0
19665  19661  19938  0
19939  19938  19661  0
18962  19189  19940  0
19941  19188  19666  0
19667  19938  19942  0
19667  19942  19935  0
19938  19939  19942  0
19188  19941  19668  0
19444  19668  19670  0
19670  19943  19445  0
19671  19944  19191  0
19191  19944  19446  0
18978  19674  19672  0
19446  19944  19673  0
19676  19447  19945  0
19447  19673  19945  0
19194  19196  19674  0
19946  19451  19678  0
19451  19946  19448  0
19679  19448  19946  0
19682  19947  19450  0
19450  19947  19948  0
19450  19948  19678  0
19678  19948  19946  0
19946  19949  19679  0
19679  19949  19950  0
19679  19950  19681  0
19196  19201  19951  0
19952  19951  19201  0
19453  19953  19452  0
19453  19684  19953  0
19452  19954  19682  0
19681  19687  19683  0
19454  19683  19687  0
19681  19950  19955  0
19681  19955  19687  0
19201  19688  19952  0
18987  19686  19456  0
19956  19456  19686  0
19686  19687  19956  0
19455  19458  19685  0
19692  19456  19957  0
19456  19956  19957  0
19693  19958  19462  0
19693  19209  19959  0
19695  19959  19209  0
19695  19694  19960  0
19463  19960  19694  0
19691  19961  19459  0
19459  19961  19697  0
19466  19962  19463  0
19464  19963  19696  0
19964  19963  19464  0
19965  19219  19467  0
19466  19699  19962  0
19468  19966  19214  0
19464  19215  19964  0
19967  19701  19460  0
19701  19968  19702  0
19219  19965  19969  0
19700  19970  19699  0
19214  19966  19705  0
19709  19465  19218  0
19700  19704  19970  0
19706  19971  19703  0
19709  19708  19712  0
19712  19476  19713  0
19969  19713  19232  0
19232  19219  19969  0
19972  19704  19710  0
19705  19973  19706  0
19710  19714  19972  0
19715  19714  19474  0
19714  19715  19972  0
19718  19972  19715  0
19974  19711  19975  0
19711  19974  19719  0
19976  19720  19721  0
19977  19481  19719  0
19481  19977  19724  0
19978  19489  19722  0
19979  19489  19978  0
19485  19723  19980  0
19724  19981  19725  0
19727  19982  19728  0
19983  19728  19982  0
19728  19983  19487  0
19722  19487  19983  0
19489  19979  19729  0
19729  19979  19984  0
19729  19984  19731  0
19730  19491  19985  0
19734  19731  19986  0
19985  19491  19504  0
19735  19502  19987  0
19502  19734  19987  0
19504  19507  19988  0
19504  19988  19985  0
19988  19507  19989  0
19990  19991  19992  0
19990  19993  19991  0
19738  19737  19994  0
19738  19994  19995  0
19989  19507  19740  0
19989  19740  19748  0
19989  19748  19996  0
19736  19997  19508  0
19736  19998  19997  0
19742  19745  19999  0
19742  19999  19737  0
20000  20001  19746  0
19748  20002  19996  0
19997  19510  19508  0
19747  19746  20003  0
19746  20001  20003  0
20004  20003  20001  0
20002  19748  19749  0
20002  19749  20005  0
20002  20005  20006  0
20002  20006  19996  0
19997  19751  19510  0
20007  19747  20008  0
20007  20009  19747  0
19745  19747  20009  0
19747  20003  20008  0
20008  20003  20004  0
20005  19749  19753  0
20005  19753  20010  0
20005  20010  20011  0
20005  20011  20006  0
19997  20012  19751  0
20013  19751  20012  0
19751  20013  19752  0
20010  19753  20014  0
20010  20015  20011  0
19753  19754  19757  0
19753  19757  20014  0
19752  20016  19756  0
19752  19756  19513  0
19752  20013  20016  0
20010  20014  20017  0
20010  20017  20015  0
19757  19755  19758  0
19757  19758  20018  0
19757  20018  20014  0
20016  20019  19756  0
19756  20019  20020  0
19756  20020  19519  0
20018  19758  20021  0
19758  19517  20022  0
19758  20022  20021  0
19517  19518  20023  0
19517  20023  20022  0
19518  19519  20020  0
19518  20020  20023  0
19526  20024  19761  0
19761  19762  19292  0
19762  19771  19763  0
19767  19775  20025  0
19771  20026  19772  0
19768  19772  20027  0
19768  20027  19769  0
19769  20027  19773  0
20026  20028  19772  0
20027  19772  20028  0
19773  19777  19770  0
20028  20029  20027  0
20027  19777  19773  0
20027  20029  19777  0
19776  19779  20030  0
19777  20031  19774  0
20031  19782  19774  0
20032  20033  19779  0
19784  20032  19779  0
20034  20032  19784  0
19782  20035  19785  0
20036  19543  19542  0
20036  19542  19788  0
20034  19784  19789  0
19790  19543  20037  0
20036  20037  19543  0
19333  19796  19789  0
20038  19789  19796  0
19789  20038  20034  0
20039  19545  19790  0
20039  19790  20040  0
20039  20040  20041  0
20039  20041  19545  0
19791  19793  20042  0
19791  20042  19792  0
19792  20042  20043  0
19792  20043  19794  0
20044  20038  19796  0
20038  20045  20046  0
20038  20046  20034  0
20038  20044  20045  0
19545  20041  20047  0
19545  20047  19797  0
20048  19793  19798  0
19795  19794  20049  0
19795  20049  19799  0
19799  20049  19800  0
19796  19801  20044  0
20050  20048  19798  0
19801  19805  20045  0
19801  20045  20044  0
20051  19806  19552  0
19797  20051  19552  0
19798  19803  20050  0
20052  20050  19803  0
19805  19810  20053  0
19094  19806  20054  0
19806  20051  20055  0
19806  20055  20054  0
20056  20052  19803  0
20057  19810  19567  0
19567  19566  20057  0
19811  20057  19566  0
20058  19811  19569  0
19097  19094  20054  0
20056  19803  19817  0
19559  19817  19803  0
20059  20056  19817  0
19569  19573  20058  0
19823  20058  19573  0
19097  20054  19829  0
19097  19829  19376  0
19818  20059  19817  0
20060  19563  19807  0
19563  20060  19562  0
19562  20060  19812  0
20061  19812  20060  0
19814  19812  20061  0
19814  20062  19813  0
20059  19818  20063  0
20059  20063  20064  0
19814  20061  20062  0
19813  20062  19819  0
19813  19819  19815  0
20063  19818  20065  0
19820  20065  19818  0
19821  20066  19828  0
20067  19828  20066  0
19828  20067  19834  0
20068  19834  20067  0
19829  20069  19830  0
20070  19830  20069  0
20065  19820  19841  0
19586  19841  19820  0
20071  20065  19841  0
19840  19834  20068  0
20072  20071  19841  0
19838  19843  19837  0
19839  19838  19585  0
20068  20073  19840  0
20074  19840  20073  0
20075  19830  20070  0
19830  20075  19385  0
19841  19385  20072  0
19836  19843  19842  0
20076  19840  20074  0
19840  20076  19848  0
19840  19848  19601  0
20077  19602  19850  0
20077  20078  19602  0
19835  19602  20078  0
19843  19838  19860  0
19838  19846  19860  0
19838  19839  19846  0
20076  19854  19849  0
20076  19849  19848  0
20076  20079  19854  0
19850  20080  20081  0
19850  20081  20077  0
19842  19862  19851  0
19842  19843  19862  0
19843  19860  19862  0
19860  19846  19852  0
19855  19854  20082  0
19855  20082  19856  0
19861  19856  20082  0
20080  19850  20083  0
19850  19612  20083  0
19860  19859  19862  0
20084  19621  20085  0
20083  19612  18908  0
20083  18908  20086  0
19851  19862  19142  0
19862  19401  19142  0
19862  19624  19401  0
19621  20084  19863  0
20087  19863  20084  0
20085  19621  19861  0
20088  19863  20087  0
18908  19864  20086  0
19865  19863  20088  0
19886  20089  19625  0
19873  19875  20090  0
20091  19873  20090  0
20092  19875  19878  0
19870  19885  19416  0
19885  20093  19631  0
20094  20091  20095  0
20094  19874  19873  0
20094  19873  20091  0
19631  20093  19886  0
20094  20096  19874  0
19630  19889  20097  0
19630  20097  19890  0
19419  19890  19891  0
20098  20096  20094  0
19889  19903  20097  0
20099  20097  19903  0
20097  20099  19890  0
20100  19890  20099  0
19890  20100  19891  0
19900  19892  19874  0
19896  19908  19903  0
20101  19903  19908  0
19903  20101  20099  0
20102  20099  20101  0
20099  20103  20100  0
20099  20102  20103  0
20100  20104  19891  0
19891  20104  19897  0
20105  19899  19637  0
19637  19910  20105  0
19910  19638  19911  0
20106  19910  19911  0
19912  20106  19911  0
20096  20098  20107  0
20096  20107  19874  0
19874  20107  20108  0
19874  20108  19900  0
19904  19900  20109  0
20110  19901  19904  0
19901  20110  19905  0
20111  19907  19906  0
19907  20111  19908  0
19908  20111  20112  0
19908  20112  20101  0
20101  20112  20102  0
19633  19897  20113  0
19633  20113  19634  0
19904  20109  20110  0
20110  20114  19905  0
19905  20114  19906  0
19906  20114  20115  0
19906  20115  20111  0
20116  19640  19909  0
19909  19634  20117  0
20113  20117  19634  0
19909  20117  20116  0
20118  19913  19640  0
19640  20116  20119  0
19640  20119  20118  0
19422  19915  19912  0
19422  19641  19915  0
20120  20121  20122  0
20121  20120  20123  0
19914  19644  20124  0
20120  20125  20126  0
20127  20126  20125  0
19913  20118  19642  0
19644  19916  20124  0
20122  20125  20120  0
19642  20118  20128  0
20125  20129  20127  0
19642  20128  19917  0
19917  20128  19919  0
19926  19920  19919  0
19926  19919  20130  0
19926  20130  19651  0
19923  19922  19647  0
19923  19924  20131  0
19651  20132  19928  0
20133  19921  19428  0
19925  19927  20134  0
19928  20135  19652  0
19656  19652  20135  0
20136  19433  19434  0
19433  20133  19428  0
19433  20136  20133  0
20137  19654  19653  0
19434  19657  20136  0
20138  20136  19657  0
19927  19650  20139  0
19650  19929  20140  0
19650  20140  20139  0
19656  20141  19659  0
20142  19659  20141  0
19930  20143  19929  0
19659  20142  19931  0
20144  19931  20142  0
19657  19442  19940  0
19658  20145  19660  0
19658  20146  20145  0
19930  19655  20147  0
19930  20147  20148  0
19930  20148  20143  0
19655  19932  20147  0
19662  19663  20149  0
19663  19933  20150  0
19663  20150  20149  0
19933  19934  20150  0
19934  19931  20151  0
19934  20151  20150  0
19931  20144  20152  0
19931  20152  20151  0
20144  20153  20152  0
20154  20152  20153  0
19660  20145  19937  0
20147  19932  20155  0
19932  19936  20155  0
19662  20156  19661  0
20150  20157  20149  0
20150  20151  20158  0
20150  20158  20157  0
20151  20152  20154  0
20151  20154  20158  0
18962  19940  19442  0
19937  20159  19666  0
20160  19666  20159  0
19936  19935  20161  0
19936  20161  20155  0
19666  20160  19941  0
19942  20162  19935  0
19661  20156  19939  0
20163  19939  20156  0
19942  19939  20164  0
19942  20164  20162  0
19939  20163  20164  0
20165  19668  19941  0
19668  20165  19670  0
20166  19670  20165  0
19670  20166  19943  0
19943  19671  19445  0
19943  20167  19673  0
19943  19673  19671  0
19943  20166  20167  0
19671  19673  19944  0
20168  19673  20167  0
19673  20168  19945  0
19676  20169  19675  0
19676  19945  20168  0
19676  20168  20169  0
19674  19196  20170  0
19675  20171  19677  0
20172  19677  20171  0
19675  20169  20171  0
19196  20173  20170  0
19196  19951  20173  0
19949  19946  19948  0
19951  20174  20173  0
19677  20172  19203  0
19954  19452  19953  0
19950  20175  19955  0
20176  19952  19688  0
19952  20176  19951  0
19203  20172  20177  0
20178  19684  19685  0
19953  19684  20178  0
20176  19688  20179  0
19688  19689  20179  0
20177  19690  19203  0
19458  20180  19685  0
20178  19685  20180  0
19458  20181  20180  0
19692  19957  20182  0
19692  20182  19691  0
19957  19956  20183  0
19956  19687  20183  0
19958  19461  19462  0
19693  19959  20184  0
19959  19695  20185  0
19959  20185  20184  0
19695  19960  20186  0
19695  20186  20185  0
19960  19463  20187  0
19690  20177  20188  0
19696  20181  19458  0
19961  19967  19697  0
19457  20189  19689  0
19467  19698  19965  0
19698  19461  20190  0
19463  19962  20187  0
20191  20187  19962  0
19690  20188  20192  0
19690  20192  19468  0
19460  19697  19967  0
19698  20193  19965  0
20194  20191  19962  0
19962  19699  20194  0
19468  20192  19966  0
19701  19967  19968  0
19969  19965  19713  0
19713  19965  20193  0
20194  19699  20195  0
20196  20195  19699  0
19699  19970  20196  0
19703  19964  19215  0
19702  19968  20197  0
20198  20196  19970  0
19707  19702  20197  0
19707  20197  19975  0
19970  19704  20198  0
19704  19972  20198  0
20199  20198  19972  0
19706  19973  19971  0
19711  19707  19975  0
19972  19718  20199  0
20200  20199  19718  0
19720  20201  19718  0
19718  20201  20200  0
19976  20201  19720  0
19719  19974  19977  0
19977  19981  19724  0
19725  19981  20202  0
20203  19727  19726  0
19727  20203  19982  0
19982  20204  19983  0
19983  20204  20205  0
19983  20205  19722  0
19980  19723  20206  0
19726  19725  20203  0
19731  19984  19986  0
19984  19979  20207  0
20206  19723  20208  0
19723  19730  20208  0
19986  20209  19734  0
20208  19730  20210  0
19730  19985  20210  0
19987  19734  20211  0
20209  20211  19734  0
19985  19988  20212  0
19985  20212  20210  0
19735  20213  20214  0
19735  20214  19736  0
19998  19736  20214  0
19988  19989  20215  0
19988  20215  20212  0
19992  19991  20216  0
19992  20216  20217  0
19991  19993  20218  0
19993  20219  20220  0
19993  20220  20218  0
20219  19995  20221  0
20219  20221  20220  0
19995  19994  20222  0
19995  20222  20221  0
20000  20223  20001  0
20224  20001  20223  0
20215  20225  20212  0
19989  19996  20215  0
20226  19997  19998  0
19994  19737  20227  0
19994  20227  20222  0
19737  19999  20228  0
19737  20228  20227  0
20229  20001  20224  0
20215  19996  20230  0
20012  19997  20226  0
19999  19745  20009  0
20001  20229  20004  0
20230  19996  20006  0
20230  20006  20231  0
20009  20007  20232  0
20009  20232  19999  0
20233  20231  20234  0
20233  20235  20231  0
20230  20231  20235  0
20233  20236  20235  0
20231  20006  20011  0
20231  20011  20234  0
20012  20237  20013  0
20007  20008  20238  0
20007  20238  20232  0
20233  20234  20239  0
20233  20239  20240  0
20233  20240  20241  0
20233  20241  20236  0
20234  20011  20015  0
20234  20015  20239  0
20242  20013  20237  0
20013  20242  20016  0
20239  20015  20243  0
20239  20243  20240  0
20015  20017  20244  0
20015  20244  20243  0
20017  20014  20018  0
20017  20018  20244  0
20019  20245  20020  0
20240  20243  20246  0
20243  20244  20247  0
20243  20247  20246  0
20244  20018  20248  0
20244  20248  20247  0
20018  20021  20249  0
20018  20249  20248  0
20021  20022  20250  0
20021  20250  20249  0
20023  20020  20022  0
19779  20033  20030  0
20029  20251  19777  0
19777  20251  20031  0
20033  20252  20030  0
20033  20253  20252  0
20254  20031  20251  0
20031  20254  19782  0
19783  20255  19786  0
20256  19786  20255  0
19783  19785  20255  0
19786  20256  19787  0
20257  19787  20256  0
19787  20257  19788  0
20258  19788  20257  0
20032  20259  20033  0
20033  20259  20253  0
20035  19782  20254  0
20260  19785  20035  0
20255  19785  20260  0
19788  20258  20036  0
20037  20036  20258  0
20034  20261  20032  0
20032  20261  20259  0
20040  19790  20037  0
20040  20037  20262  0
20041  20040  20262  0
20034  20046  20261  0
20261  20263  20259  0
19793  20264  20042  0
20265  20042  20264  0
20042  20265  20043  0
20266  20043  20265  0
20043  20267  20049  0
20043  20049  19794  0
20043  20266  20267  0
20268  20267  20266  0
20267  20268  20049  0
20269  20049  20268  0
20261  20046  20270  0
20261  20270  20263  0
20271  20047  20041  0
19793  20048  20264  0
20272  20264  20048  0
20049  20269  20273  0
20049  20273  19800  0
20045  20053  20046  0
20274  20046  20053  0
20046  20274  20270  0
20270  20274  20275  0
19797  20047  20051  0
20047  20271  20276  0
20047  20276  20051  0
20272  20048  20050  0
19800  20273  20277  0
19800  20277  19802  0
20053  20045  19805  0
20053  19810  20274  0
20057  20274  19810  0
20274  20057  20275  0
20278  20275  20057  0
20050  20279  20280  0
20050  20280  20272  0
20050  20052  20279  0
19802  20277  20281  0
20057  19811  20278  0
20278  19811  20282  0
20052  20283  20279  0
20052  20056  20283  0
19802  20281  19804  0
20056  20059  20283  0
19804  20281  20284  0
19804  20284  19807  0
19829  20054  20285  0
20054  20055  20285  0
20064  20283  20059  0
20064  20063  20286  0
19807  20287  20060  0
20288  20060  20287  0
20060  20288  20061  0
20289  20061  20288  0
20061  20289  20062  0
20290  20062  20289  0
20062  20290  19819  0
20291  19819  20290  0
20066  19819  20291  0
19819  20066  19821  0
19829  20285  20069  0
20063  20065  20286  0
20288  20292  20293  0
20288  20293  20289  0
20066  20294  20067  0
19822  20295  20296  0
19822  20296  19823  0
20065  20071  20286  0
20297  20286  20071  0
20068  20067  20298  0
20068  20298  20073  0
19822  19835  20295  0
20071  20072  20297  0
20073  20298  20299  0
20073  20299  20074  0
19835  20078  20295  0
20070  20300  20075  0
20079  20074  20301  0
20074  20299  20302  0
20074  20302  20301  0
20074  20079  20076  0
20077  20303  20078  0
20078  20303  20304  0
20075  20072  19385  0
20301  20082  20079  0
19854  20079  20082  0
20301  20302  20305  0
20301  20305  20082  0
20303  20077  20081  0
20306  19861  20082  0
20306  20082  20305  0
20303  20081  20307  0
20080  20307  20081  0
20085  19861  20308  0
20306  20308  19861  0
20085  20308  20084  0
20307  20080  20309  0
20310  20307  20309  0
20080  20083  20309  0
20086  20309  20083  0
20311  20310  20309  0
20309  20086  20311  0
20089  20311  20086  0
19864  20089  20086  0
20088  20312  19865  0
19865  20312  19866  0
20313  19866  20312  0
19625  20089  19864  0
20090  19875  20314  0
20315  20314  19875  0
20315  19875  20092  0
20315  20092  20316  0
20315  20316  20317  0
20316  20092  19878  0
19881  19866  20318  0
20313  20318  19866  0
20316  19881  20318  0
19878  19881  20316  0
20089  19886  20093  0
20319  20094  20095  0
19415  20320  19871  0
19415  19884  20320  0
19632  20321  19884  0
19632  19898  20322  0
19632  20322  20321  0
20319  20323  20098  0
20319  20098  20094  0
20324  20323  20319  0
19898  19899  20325  0
19898  20325  20322  0
20100  20103  20326  0
20100  20326  20104  0
20104  20327  19897  0
19899  20105  20325  0
20105  19910  20328  0
20329  20098  20323  0
20098  20329  20330  0
20098  20330  20107  0
20107  20330  20331  0
20107  20331  20108  0
20108  20331  20332  0
20108  20332  19900  0
19900  20332  20109  0
20111  20333  20112  0
20334  20112  20333  0
20112  20334  20102  0
20103  20102  20334  0
19897  20327  20113  0
20335  20113  20327  0
19912  20336  20106  0
20329  20337  20330  0
20330  20337  20338  0
20330  20338  20331  0
20331  20338  20339  0
20331  20339  20332  0
20332  20339  20340  0
20332  20340  20109  0
20109  20341  20110  0
20342  20110  20341  0
20109  20340  20341  0
20110  20342  20114  0
20343  20114  20342  0
20344  20114  20343  0
20114  20344  20115  0
20333  20111  20115  0
20113  20335  20117  0
20345  20117  20335  0
20337  20346  20338  0
20338  20121  20339  0
20339  20121  20123  0
20339  20123  20340  0
20340  20123  20347  0
20340  20347  20341  0
20347  20123  20348  0
20116  20117  20349  0
20116  20349  20119  0
20350  20117  20345  0
19912  19915  20351  0
20338  20346  20122  0
20338  20122  20121  0
20123  20120  20126  0
20123  20126  20348  0
20348  20126  20352  0
20349  20117  20350  0
20353  20119  20349  0
19643  20354  20355  0
19643  20356  20354  0
20355  20124  19916  0
20355  19916  19643  0
19914  20124  20355  0
19914  20351  19915  0
20346  20357  20122  0
20126  20127  20358  0
20126  20358  20352  0
20118  20119  20359  0
20119  20353  20359  0
19643  19645  20356  0
20122  20357  20125  0
20358  20127  20360  0
20358  20360  20361  0
20118  20359  20128  0
20359  20362  20128  0
20359  20353  20362  0
20125  20357  20363  0
20360  20127  20129  0
20364  20361  20360  0
20125  20363  20129  0
20365  20364  20360  0
20366  20128  20362  0
19645  19167  20367  0
20363  20368  20129  0
20365  20360  20129  0
19919  20128  20366  0
20369  19919  20366  0
20366  20370  20369  0
20130  19919  20369  0
20369  20370  20371  0
20369  20371  20130  0
20130  20371  20372  0
20132  19651  20130  0
20130  20372  20132  0
20131  20373  19923  0
20374  20131  19924  0
19924  19925  20374  0
20132  20135  19928  0
20132  20372  20375  0
20132  20375  20135  0
20135  20375  20376  0
20377  19653  20378  0
19922  20378  19653  0
20134  20374  19925  0
20139  20134  19927  0
20135  20376  19656  0
20137  19653  20377  0
20134  20139  20379  0
20380  20379  20139  0
19656  20376  20141  0
20141  20376  20381  0
20136  20138  20133  0
19658  19654  20137  0
20382  20139  20140  0
20141  20381  20383  0
20141  20383  20142  0
20137  20146  19658  0
20143  20140  19929  0
20384  20382  20140  0
20142  20385  20144  0
20153  20144  20385  0
20142  20383  20385  0
20385  20383  20386  0
20385  20386  20153  0
20138  19657  19940  0
20140  20143  20384  0
20387  20384  20143  0
20148  20387  20143  0
20153  20388  20154  0
20153  20386  20388  0
20388  20386  20389  0
20145  20146  20390  0
20145  20390  19937  0
20387  20148  20391  0
20392  20391  20148  0
20387  20391  20393  0
20147  20392  20148  0
20394  20156  19662  0
19662  20149  20394  0
20395  20394  20149  0
20149  20157  20395  0
20157  20158  20396  0
20157  20396  20395  0
20397  20158  20154  0
20154  20388  20397  0
20159  19937  20390  0
20155  20392  20147  0
20163  20156  20394  0
20394  20395  20398  0
20394  20398  20163  0
20161  20392  20155  0
20399  20161  19935  0
20162  20399  19935  0
20163  20398  20400  0
20163  20400  20401  0
19940  19189  20402  0
19941  20160  20403  0
20161  20399  20404  0
20405  20399  20162  0
20401  20164  20163  0
20164  20406  20162  0
19669  20402  19189  0
19941  20403  20407  0
19941  20407  20165  0
20408  19669  19672  0
19674  20408  19672  0
19674  20170  20409  0
20410  19947  19682  0
19682  19954  20411  0
19947  20410  19948  0
20412  19948  20410  0
19948  20412  19949  0
20413  19949  20412  0
19949  20413  19950  0
20414  19950  20413  0
19950  20414  20175  0
20415  19955  20175  0
20179  19951  20176  0
19951  20179  20174  0
20178  20416  19953  0
19955  20415  19687  0
20417  19687  20415  0
20418  19461  19958  0
20418  20419  19461  0
19958  19693  20420  0
19958  20420  20421  0
19958  20421  20418  0
20420  19693  20184  0
20420  20184  20185  0
20180  20422  20178  0
20423  19691  20182  0
20182  19957  20424  0
19957  20183  20424  0
20183  19687  20417  0
20179  19689  20425  0
20179  20425  20426  0
19960  20187  20186  0
20177  20427  20188  0
19961  19691  20423  0
19961  20423  20428  0
19689  20189  20429  0
19689  20429  20425  0
19457  19465  20189  0
20430  20193  20431  0
20431  20193  19698  0
20431  19698  20432  0
19698  20433  20432  0
19698  20190  20433  0
20187  20191  20434  0
20187  20434  20186  0
19696  19963  20435  0
19963  19964  20435  0
20189  20436  20429  0
20189  19465  20437  0
20189  20437  20436  0
19465  19709  20438  0
19465  20438  20437  0
20438  20430  20437  0
20438  20193  20430  0
20191  20194  20195  0
20191  20195  20439  0
20191  20439  20434  0
20438  19709  19712  0
20438  19712  19713  0
20438  19713  20193  0
20195  20196  20440  0
20195  20440  20439  0
20441  19966  20192  0
20442  19964  19703  0
20196  20198  20440  0
19966  20441  19705  0
19973  19705  20441  0
20198  20443  20440  0
20198  20199  20443  0
20199  20444  20443  0
19971  19973  20445  0
20446  19975  20447  0
20199  20200  20444  0
20200  20201  20444  0
19974  19975  20446  0
19974  20446  20448  0
20449  20444  20201  0
19977  19974  20448  0
20450  20449  20201  0
19722  20205  19978  0
20203  20451  19982  0
19982  20451  20452  0
19982  20452  20204  0
20204  20452  20453  0
20204  20453  20205  0
20205  20207  19978  0
19979  19978  20207  0
20205  20453  20207  0
20202  20454  19725  0
19725  20454  20203  0
19984  20207  20455  0
20453  20455  20207  0
19984  20455  20456  0
19984  20456  19986  0
19986  20456  20209  0
19735  19987  20213  0
19987  20211  20457  0
19987  20457  20213  0
20211  20209  20458  0
19980  20459  19246  0
20460  20210  20212  0
20461  20460  20212  0
20214  20462  19998  0
20463  20464  20465  0
20466  20465  20464  0
20464  20467  20466  0
20468  20466  20467  0
20467  20469  20468  0
20470  20469  20217  0
20217  20216  20470  0
20218  20470  20216  0
20216  19991  20218  0
20471  20220  20221  0
20221  20222  20471  0
20472  20471  20222  0
20222  20227  20472  0
20473  20227  20228  0
20224  20474  20229  0
20225  20215  20475  0
20230  20475  20215  0
20228  19999  20473  0
20476  20473  19999  0
20004  20229  20477  0
20474  20478  20229  0
20229  20478  20479  0
20229  20479  20477  0
20475  20230  20235  0
20480  20475  20235  0
20012  20226  20481  0
19999  20232  20476  0
20482  20476  20232  0
20477  20238  20004  0
20008  20004  20238  0
20477  20479  20483  0
20477  20483  20238  0
20235  20236  20480  0
20012  20484  20237  0
20012  20481  20484  0
20232  20238  20485  0
20232  20485  20482  0
20238  20482  20485  0
20486  20236  20241  0
20237  20484  20242  0
20487  20486  20241  0
20242  20488  20016  0
20016  20488  20019  0
20019  20489  20245  0
20241  20240  20487  0
20490  20487  20240  0
20240  20246  20490  0
20249  20247  20248  0
20491  20250  20022  0
20245  20491  20022  0
20022  20020  20245  0
20492  20030  20252  0
20252  20253  20493  0
20252  20493  20494  0
20251  20495  20254  0
20496  20254  20495  0
20257  20497  20258  0
20498  20258  20497  0
20254  20499  20035  0
20498  20262  20037  0
20498  20037  20258  0
20498  20500  20262  0
20501  20262  20500  0
20253  20502  20493  0
20262  20501  20041  0
20503  20041  20501  0
20259  20263  20504  0
20259  20504  20253  0
20253  20504  20505  0
20253  20505  20502  0
20503  20271  20041  0
20506  20266  20265  0
20265  20264  20506  0
20266  20506  20268  0
20268  20507  20269  0
20508  20269  20507  0
20263  20270  20275  0
20263  20275  20504  0
20264  20272  20509  0
20264  20509  20510  0
20264  20510  20506  0
20269  20508  20273  0
20275  20511  20504  0
20504  20511  20512  0
20504  20512  20505  0
20272  20280  20509  0
20509  20280  20513  0
20509  20513  20510  0
20273  20508  20277  0
20508  20514  20277  0
20515  20277  20514  0
20275  20278  20511  0
20511  20278  20282  0
20511  20282  20512  0
20516  20051  20276  0
20279  20517  20280  0
20277  20518  20281  0
20277  20515  20518  0
20051  20516  20055  0
20283  20519  20279  0
20279  20519  20520  0
20279  20520  20517  0
20517  20520  20521  0
20284  20281  20518  0
19811  20058  20522  0
19811  20522  20282  0
20283  20523  20519  0
20519  20524  20520  0
20520  20524  20525  0
20520  20525  20521  0
20058  19823  20526  0
20058  20526  20522  0
20055  20527  20285  0
20064  20286  20528  0
20064  20528  20283  0
20283  20528  20523  0
20519  20523  20529  0
20519  20529  20524  0
20530  19807  20284  0
19823  20296  20526  0
20531  20285  20527  0
20532  20523  20528  0
20529  20523  20532  0
19807  20530  20287  0
20285  20531  20069  0
20533  20069  20531  0
20528  20534  20532  0
20289  20293  20535  0
20289  20535  20290  0
20290  20535  20536  0
20290  20536  20291  0
20291  20536  20294  0
20291  20294  20066  0
20286  20537  20528  0
20534  20528  20537  0
20286  20297  20537  0
20287  20538  20288  0
20287  20539  20538  0
20288  20538  20292  0
20540  20535  20293  0
20535  20540  20541  0
20535  20541  20536  0
20294  20536  20298  0
20294  20298  20067  0
20295  20542  20296  0
20070  20069  20533  0
20297  20072  20543  0
20541  20544  20536  0
20536  20544  20298  0
20298  20544  20299  0
20543  20072  20075  0
20545  20544  20541  0
20546  20544  20545  0
20544  20546  20299  0
20299  20546  20302  0
20547  20302  20546  0
20548  20304  20303  0
20304  20549  20078  0
20550  20078  20549  0
20078  20550  20295  0
20542  20295  20550  0
20075  20300  20543  0
20551  20305  20302  0
20551  20302  20547  0
20552  20548  20553  0
20548  20303  20553  0
20554  20308  20305  0
20306  20305  20308  0
20551  20554  20305  0
20553  20303  20555  0
20307  20555  20303  0
20553  20555  20556  0
20310  20555  20307  0
20557  20087  20084  0
20308  20557  20084  0
20558  20559  20555  0
20555  20310  20558  0
20311  20558  20310  0
20311  20559  20558  0
20087  20560  20088  0
20088  20560  20312  0
20311  20089  20093  0
20561  20311  20093  0
20312  20562  20313  0
20563  20561  20093  0
20314  20091  20090  0
20564  20314  20315  0
20565  20564  20315  0
20315  20317  20565  0
20566  20317  20316  0
20316  20318  20566  0
20567  20566  20318  0
20318  20313  20567  0
20562  20567  20313  0
20568  20569  20095  0
20095  20091  20568  0
19869  20570  20571  0
19869  20571  19870  0
19869  19871  20570  0
20320  20570  19871  0
19885  19870  20563  0
19885  20563  20093  0
20569  20319  20095  0
20321  20320  19884  0
20319  20569  20324  0
20572  20104  20326  0
20104  20572  20327  0
20325  20105  20573  0
20328  20573  20105  0
20574  20328  19910  0
19910  20106  20574  0
20323  20575  20329  0
20115  20344  20576  0
20577  20576  20344  0
20576  20333  20115  0
20576  20578  20579  0
20576  20579  20333  0
20333  20579  20334  0
20334  20579  20580  0
20334  20580  20103  0
20103  20580  20581  0
20103  20581  20326  0
20326  20581  20582  0
20326  20582  20572  0
20327  20572  20583  0
20327  20583  20335  0
20575  20323  20584  0
20329  20575  20337  0
20347  20342  20341  0
20585  20342  20347  0
20342  20585  20343  0
20343  20586  20577  0
20343  20577  20344  0
20343  20585  20586  0
20335  20583  20587  0
20335  20587  20345  0
20346  20337  20575  0
20348  20585  20347  0
20585  20348  20586  0
20345  20588  20350  0
20345  20587  20589  0
20345  20589  20588  0
20588  20589  20590  0
20351  20336  19912  0
20348  20352  20591  0
20592  20348  20591  0
20591  20593  20592  0
20349  20350  20353  0
20594  20353  20350  0
20350  20588  20594  0
20595  20594  20588  0
20588  20590  20596  0
20588  20596  20595  0
20355  20354  20597  0
20355  20597  19914  0
19914  20597  20598  0
19914  20598  20351  0
20346  20599  20357  0
20346  20600  20599  0
20352  20358  20591  0
20361  20591  20358  0
20591  20361  20593  0
20593  20361  20601  0
20361  20602  20601  0
20353  20594  20603  0
20353  20603  20362  0
20594  20595  20603  0
19645  20604  20356  0
20361  20364  20602  0
20362  20603  20605  0
20362  20605  20366  0
20606  20603  20595  0
19645  20367  20604  0
20607  20357  20599  0
20605  20603  20606  0
20605  20606  20366  0
20357  20607  20363  0
20608  20363  20607  0
20602  20364  20609  0
20366  20606  20610  0
20366  20610  20370  0
20606  20611  20610  0
20368  20363  20608  0
20129  20368  20612  0
20129  20612  20365  0
20364  20613  20609  0
20370  20610  20371  0
20610  20614  20371  0
20610  20611  20614  0
20615  20612  20368  0
20612  20616  20365  0
20365  20616  20617  0
20365  20617  20364  0
20364  20617  20613  0
20371  20614  20372  0
20612  20618  20616  0
20372  20614  20375  0
20614  20619  20375  0
20620  20375  20619  0
19918  19921  20621  0
19922  19923  20373  0
20375  20620  20376  0
19921  20133  20621  0
20622  20623  20616  0
20616  20623  20617  0
20617  20623  20624  0
20625  20376  20620  0
20379  20380  20626  0
20624  20627  20617  0
20376  20625  20381  0
20628  20381  20625  0
20133  20138  20629  0
20133  20629  20621  0
20380  20139  20382  0
20622  20630  20623  0
20381  20628  20383  0
20631  20383  20628  0
20382  20384  20632  0
20382  20632  20380  0
20383  20631  20386  0
20633  20146  20137  0
20384  20387  20393  0
20138  19940  20634  0
20146  20633  20390  0
20384  20393  20635  0
20393  20391  20636  0
20393  20636  20635  0
20158  20397  20396  0
20390  20633  20637  0
20390  20637  20159  0
20391  20392  20638  0
20391  20638  20636  0
20398  20395  20639  0
20395  20396  20640  0
20395  20640  20639  0
20396  20397  20641  0
20396  20641  20640  0
20388  20641  20397  0
20388  20389  20642  0
19940  20402  20634  0
20159  20637  20160  0
20638  20392  20643  0
20644  20638  20643  0
20392  20161  20643  0
20404  20643  20161  0
20398  20639  20400  0
20645  20400  20639  0
20639  20646  20645  0
20647  20644  20643  0
20643  20404  20647  0
20648  20647  20404  0
20404  20399  20648  0
20405  20648  20399  0
20164  20401  20406  0
20400  20406  20401  0
20400  20645  20649  0
20402  20408  20650  0
20651  20648  20405  0
20406  20405  20162  0
20406  20400  20652  0
20649  20652  20400  0
20402  19669  20408  0
20168  20167  20653  0
20168  20653  20169  0
20171  20654  20172  0
20171  20169  20653  0
20172  20654  20177  0
19682  20411  20410  0
20413  20655  20414  0
20656  20173  20174  0
19953  20657  19954  0
20416  20657  19953  0
19954  20657  20411  0
20179  20426  20174  0
20658  20174  20426  0
20174  20658  20656  0
20422  20416  20178  0
20418  20421  20659  0
20421  20420  20659  0
20177  20660  20427  0
20661  20662  20182  0
20182  20662  20423  0
20182  20424  20661  0
20424  20183  20417  0
20426  20425  20658  0
19461  20663  20190  0
20435  20181  19696  0
19961  20428  20664  0
20436  20437  20665  0
20666  20437  20430  0
20431  20666  20430  0
20667  20185  20186  0
20186  20434  20667  0
20668  20667  20434  0
20188  20427  20669  0
20188  20669  20192  0
19967  19961  20664  0
19967  20664  20670  0
19967  20670  19968  0
20434  20439  20668  0
20671  20668  20439  0
20672  20192  20669  0
20435  19964  20673  0
19964  20442  20673  0
19968  20670  20197  0
20439  20674  20671  0
20439  20440  20675  0
20439  20675  20674  0
20192  20672  20441  0
19703  20676  20442  0
20440  20677  20675  0
20678  19973  20441  0
19703  19971  20676  0
20679  20447  19975  0
19975  20197  20679  0
20440  20443  20680  0
20440  20680  20677  0
20676  19971  20681  0
20681  19971  20445  0
20444  20449  20443  0
20449  20450  20682  0
20448  20683  19977  0
19977  20202  19981  0
20203  20454  20684  0
20203  20684  20451  0
20451  20685  20452  0
20686  20453  20452  0
20687  20453  20686  0
20453  20687  20455  0
20456  20455  20687  0
19980  20206  20688  0
20456  20689  20209  0
20458  20209  20689  0
20690  20691  20692  0
20690  20692  20693  0
20694  20695  20693  0
20688  20206  20696  0
20206  20208  20696  0
20208  20210  20460  0
20208  20460  20697  0
20208  20697  20696  0
20211  20458  20698  0
20211  20698  20457  0
20692  20691  20699  0
20699  20700  20692  0
19980  20688  20459  0
20701  20459  20688  0
20214  20213  20702  0
20213  20457  20702  0
20700  20463  20465  0
20700  20465  20703  0
20700  20703  20704  0
20700  20704  20692  0
20462  20226  19998  0
20705  20226  20462  0
20465  20466  20703  0
20466  20468  20706  0
20468  20469  20707  0
20468  20707  20706  0
20469  20470  20708  0
20469  20708  20707  0
20218  20220  20709  0
20220  20471  20709  0
20471  20472  20710  0
20223  20459  20711  0
20223  20711  20224  0
20461  20212  20225  0
20461  20225  20712  0
20461  20712  20713  0
20461  20713  20460  0
20714  20226  20705  0
20227  20473  20715  0
20227  20715  20472  0
20224  20711  20474  0
20712  20225  20475  0
20712  20475  20716  0
20226  20714  20481  0
20478  20474  20717  0
20478  20717  20479  0
20716  20475  20480  0
20716  20480  20718  0
20716  20718  20719  0
20716  20719  20712  0
20720  20481  20714  0
20476  20482  20721  0
20476  20721  20473  0
20479  20717  20722  0
20479  20722  20483  0
20718  20480  20236  0
20718  20236  20723  0
20718  20723  20719  0
20481  20720  20484  0
20482  20238  20483  0
20482  20483  20722  0
20482  20722  20721  0
20486  20723  20236  0
20484  20724  20242  0
20723  20486  20725  0
20487  20725  20486  0
20242  20724  20488  0
20488  20489  20019  0
20487  20490  20726  0
20727  20726  20490  0
20490  20246  20727  0
20728  20727  20246  0
20246  20247  20728  0
20729  20728  20247  0
20247  20249  20729  0
20730  20729  20249  0
20250  20730  20249  0
20489  20491  20245  0
20251  20731  20495  0
20255  20732  20256  0
20256  20732  20733  0
20256  20733  20257  0
20257  20733  20497  0
20496  20499  20254  0
20260  20035  20499  0
20497  20734  20498  0
20734  20500  20498  0
20501  20735  20503  0
20736  20502  20505  0
20506  20737  20738  0
20506  20738  20268  0
20268  20738  20739  0
20268  20739  20507  0
20507  20739  20740  0
20507  20740  20508  0
20512  20736  20505  0
20271  20503  20276  0
20506  20510  20737  0
20508  20740  20741  0
20508  20741  20514  0
20742  20510  20513  0
20514  20741  20515  0
20522  20512  20282  0
20276  20743  20516  0
20280  20517  20513  0
20521  20513  20517  0
20513  20744  20742  0
20513  20521  20744  0
20745  20744  20521  0
20518  20515  20746  0
20518  20746  20284  0
20055  20516  20527  0
20521  20525  20745  0
20747  20745  20525  0
20284  20746  20530  0
20524  20529  20525  0
20525  20748  20747  0
20749  20747  20748  0
20750  20529  20532  0
20529  20750  20525  0
20748  20525  20750  0
20751  20532  20534  0
20532  20751  20750  0
20752  20750  20751  0
20750  20752  20748  0
20748  20752  20749  0
20287  20530  20539  0
20753  20526  20296  0
20754  20534  20537  0
20534  20754  20751  0
20751  20754  20752  0
20292  20755  20293  0
20756  20293  20755  0
20293  20756  20540  0
20296  20542  20753  0
20297  20757  20537  0
20754  20537  20757  0
20758  20754  20757  0
20754  20758  20752  0
20759  20752  20758  0
20539  20760  20761  0
20539  20762  20760  0
20539  20761  20538  0
20292  20538  20755  0
20540  20756  20541  0
20763  20541  20756  0
20541  20763  20545  0
20764  20545  20763  0
20545  20764  20546  0
20765  20546  20764  0
20542  20766  20753  0
20767  20300  20070  0
20297  20300  20767  0
20538  20761  20768  0
20546  20765  20547  0
20769  20547  20765  0
20304  20548  20549  0
20300  20297  20543  0
20760  20770  20761  0
20547  20769  20551  0
20771  20553  20772  0
20771  20552  20553  0
20552  20773  20548  0
20774  20548  20773  0
20548  20774  20549  0
20775  20549  20774  0
20549  20775  20550  0
20776  20550  20775  0
20550  20776  20542  0
20766  20542  20776  0
20554  20551  20777  0
20778  20554  20777  0
20772  20553  20556  0
20772  20779  20771  0
20308  20554  20778  0
20308  20778  20557  0
20780  20557  20778  0
20556  20555  20559  0
20556  20559  20781  0
20556  20781  20782  0
20556  20782  20772  0
20781  20559  20783  0
20781  20784  20782  0
20557  20780  20560  0
20557  20560  20087  0
20783  20559  20561  0
20559  20311  20561  0
20560  20785  20312  0
20562  20312  20785  0
20561  20786  20783  0
20786  20561  20563  0
20091  20787  20568  0
20091  20314  20787  0
20317  20566  20788  0
20317  20788  20565  0
20571  20786  19870  0
20571  20789  20786  0
20571  20790  20789  0
20786  20563  19870  0
20790  20571  20570  0
20570  20320  20791  0
20569  20792  20793  0
20320  20321  20791  0
20569  20793  20324  0
20794  20324  20793  0
20322  20325  20795  0
20325  20573  20795  0
20794  20796  20324  0
20580  20797  20581  0
20580  20798  20797  0
20797  20582  20581  0
20573  20328  20799  0
20328  20800  20799  0
20328  20574  20800  0
20106  20336  20801  0
20106  20801  20574  0
20324  20796  20323  0
20576  20577  20802  0
20576  20802  20578  0
20803  20579  20578  0
20579  20803  20580  0
20798  20580  20803  0
20582  20583  20572  0
20796  20584  20323  0
20577  20586  20592  0
20577  20592  20802  0
20802  20592  20804  0
20802  20805  20578  0
20582  20806  20583  0
20807  20587  20583  0
20586  20348  20592  0
20592  20593  20804  0
20351  20808  20336  0
20575  20584  20346  0
20809  20804  20593  0
20810  20804  20809  0
20809  20811  20810  0
20590  20589  20812  0
20354  20813  20597  0
20597  20813  20598  0
20598  20808  20351  0
20346  20584  20600  0
20593  20601  20809  0
20814  20809  20601  0
20809  20814  20811  0
20815  20595  20596  0
20816  20814  20601  0
20599  20600  20817  0
20609  20601  20602  0
20601  20609  20816  0
20595  20815  20606  0
20611  20606  20815  0
20599  20817  20607  0
20613  20816  20609  0
20818  20816  20613  0
20816  20818  20819  0
20611  20820  20821  0
20611  20821  20822  0
20611  20822  20614  0
20823  20367  19167  0
20613  20617  20818  0
20824  20818  20617  0
20614  20822  20619  0
19167  19918  20823  0
20612  20615  20618  0
20627  20824  20617  0
20619  20825  20620  0
20825  20619  20826  0
20827  20823  19918  0
19922  20373  20378  0
20616  20828  20622  0
20616  20618  20828  0
20825  20826  20620  0
19918  20621  20827  0
20829  20131  20374  0
20374  20134  20829  0
20830  20829  20134  0
20620  20826  20831  0
20620  20831  20625  0
20377  20378  20832  0
20626  20830  20134  0
20134  20379  20626  0
20833  20627  20624  0
20627  20833  20834  0
20835  20834  20833  0
20625  20831  20836  0
20625  20836  20628  0
20621  20629  20827  0
20837  20827  20629  0
20377  20832  20137  0
20628  20836  20838  0
20628  20838  20631  0
20839  20629  20138  0
20629  20839  20837  0
20137  20832  20840  0
20380  20632  20841  0
20623  20842  20624  0
20624  20842  20833  0
20833  20843  20835  0
20835  20843  20844  0
20631  20838  20845  0
20631  20845  20386  0
20138  20634  20839  0
20137  20840  20846  0
20137  20846  20633  0
20632  20384  20635  0
20632  20635  20847  0
20630  20842  20623  0
20833  20842  20843  0
20843  20848  20844  0
20386  20845  20389  0
20642  20389  20845  0
20849  20633  20846  0
20635  20636  20847  0
20630  20850  20842  0
20851  20842  20850  0
20634  20650  20839  0
20633  20849  20637  0
20852  20637  20849  0
20636  20638  20853  0
20636  20853  20847  0
20843  20842  20851  0
20639  20640  20646  0
20640  20641  20642  0
20640  20642  20854  0
20640  20854  20646  0
20388  20642  20641  0
20634  20402  20650  0
20855  20160  20637  0
20646  20856  20645  0
20857  20645  20856  0
20160  20855  20403  0
20638  20644  20858  0
20638  20858  20853  0
20644  20647  20859  0
20644  20859  20860  0
20644  20860  20861  0
20644  20861  20858  0
20647  20648  20859  0
20859  20648  20862  0
20859  20862  20863  0
20859  20863  20860  0
20648  20864  20862  0
20648  20651  20865  0
20648  20865  20864  0
20651  20405  20866  0
20651  20866  20865  0
20405  20406  20652  0
20405  20652  20866  0
20645  20857  20649  0
20867  20165  20407  0
20862  20864  20868  0
20864  20865  20868  0
20865  20866  20869  0
20652  20870  20866  0
20408  19674  20409  0
20165  20871  20166  0
20165  20867  20871  0
20872  20871  20867  0
20871  20167  20166  0
20871  20653  20167  0
20873  20653  20871  0
20171  20653  20874  0
20653  20873  20874  0
20171  20874  20654  0
20173  20875  20170  0
20411  20876  20410  0
20410  20877  20412  0
20412  20877  20413  0
20655  20413  20877  0
20655  20878  20414  0
20415  20175  20414  0
20173  20656  20875  0
20879  20654  20880  0
20876  20411  20657  0
20177  20654  20660  0
20654  20879  20660  0
20659  20420  20881  0
20420  20185  20882  0
20883  20422  20180  0
20883  20180  20181  0
20883  20884  20422  0
20416  20422  20884  0
20885  20662  20661  0
20424  20417  20661  0
20886  20882  20185  0
20887  20427  20660  0
20888  20658  20425  0
20665  20437  20889  0
20890  20889  20437  0
20437  20666  20890  0
20666  20431  20891  0
20892  20891  20431  0
20431  20432  20892  0
20893  20892  20432  0
20432  20433  20893  0
20894  20893  20433  0
20433  20190  20894  0
20190  20663  20894  0
20185  20667  20886  0
20895  20886  20667  0
20427  20887  20896  0
20427  20896  20669  0
20425  20429  20888  0
20888  20429  20436  0
20436  20665  20888  0
20665  20889  20888  0
20667  20668  20895  0
20897  20895  20668  0
20671  20897  20668  0
20669  20896  20672  0
20673  20898  20435  0
20674  20675  20899  0
20899  20675  20677  0
20900  20901  20902  0
20672  20896  20903  0
20670  20679  20197  0
20672  20903  20441  0
20441  20903  20904  0
20441  20904  20678  0
20679  20905  20447  0
20445  19973  20678  0
20681  20906  20676  0
