#!ascii file
 37.500149   23.894800   13.544020  0
 36.828239   23.420025   11.617398  0
 49.180283   22.887135   16.283970  0
 46.432434   23.225258   15.917879  0
 35.778343   23.955198   10.446506  0
 34.214020   23.593956    9.492390  0
 52.606091   24.046516   13.851335  0
 42.952179   23.577019   15.338222  0
 31.904215   24.447739    8.752510  0
  0.824746   20.932596   10.809352  0
 52.405930   24.411438   11.768384  0
 41.055527   25.689428   13.704786  0
 39.898991   24.507631   11.731412  0
 30.701538   23.521233    7.611580  0
 29.967522   23.071970    6.425486  0
 28.567495   22.367849    5.297533  0
 25.146919   20.649559    3.939180  0
  0.524025   20.410292    9.656905  0
  0.667708   20.933216    7.727965  0
 52.175968   23.856323   10.231322  0
 51.263195   23.933722    8.924150  0
 49.602642   24.114283    8.135538  0
 47.763000   24.126127    7.515722  0
 26.754591   20.917322    4.831006  0
 23.372101   19.995296    3.213080  0
 45.215641   24.904907    6.099158  0
 43.814190   24.955645    7.049905  0
 42.801777   24.392118    7.760594  0
 41.020035   24.700459    8.087190  0
 40.318520   24.736721    8.810983  0
  3.862945   21.066286    3.476880  0
 18.661669   19.945131    1.228992  0
 17.146706   20.519505    1.196912  0
 15.091407   20.651981    2.227062  0
 13.133760   20.915747    2.834900  0
 10.870766   21.264870    3.049796  0
  8.139481   21.104767    3.682820  0
  5.667427   20.968174    3.470640  0
 40.879395   22.979282    5.574213  0
 38.437592   22.724720    6.023809  0
 42.623550   22.905519    5.296031  0
 36.319839   23.003016    5.570310  0
 42.701996   22.898375    4.409983  0
 43.021172   22.783955    4.249796  0
 43.600594   23.437836    2.449069  0
 30.641287   26.339117    2.255150  0
 29.375618   25.025051    1.157459  0
 41.801086   22.744457   -2.247514  0
 27.985281   23.496632    0.843527  0
 41.176704   22.009018   -4.251907  0
 26.864643   22.444399    0.159068  0
 24.055738   21.605108   -0.308996  0
 19.623135   20.972506   -3.121655  0
 48.757092   25.925791   -5.130989  0
 44.075333   23.322033   -5.038439  0
 43.050926   23.514469   -5.594088  0
 36.642094   21.189432   -8.364752  0
 34.022709   22.366522   -8.922915  0
 49.825657   25.417801   -6.550229  0
 46.950588   25.452196   -4.057561  0
 40.863525   19.961254  -10.658606  0
 38.223869   21.037500   -8.947883  0
 33.368408   23.534067  -11.328976  0
 32.470253   24.473335  -10.890405  0
 18.219076   19.626692  -12.979845  0
 44.506199   20.127893  -13.693863  0
 41.049820   21.906281  -12.778792  0
 42.828533   20.436079  -13.285198  0
 22.457277   22.048260  -16.889439  0
 23.775768   22.841469  -15.992643  0
 20.551291   21.112564  -16.744881  0
 19.448587   19.342794  -14.750168  0
 18.878902   20.140127  -15.186502  0
 46.058609   23.119762  -13.129365  0
 44.856293   21.486681  -13.939443  0
 33.911179   24.456326  -13.091247  0
 24.914272   23.876724  -17.070917  0
 25.158735   22.766043  -17.978336  0
 26.857719   23.566803  -18.794802  0
 27.226814   22.614166  -19.921026  0
 29.051554   23.151390  -20.834045  0
 33.885174   20.585672  -20.212341  0
 30.781643   21.686985  -21.375124  0
 32.714584   21.464239  -21.156986  0
  8.737210   24.723637   78.131729  0
  6.634746   25.113943   78.242569  0
  4.548951   24.303610   78.447861  0
  3.314381   23.398148   77.840714  0
 10.510591   24.617010   77.365059  0
  2.956048   23.141783   76.661064  0
 12.527677   23.610292   75.012932  0
  2.058449   20.870148   74.665085  0
 15.938293   22.052496   73.616562  0
  1.930778   19.634346   73.566383  0
  3.170556   19.034723   72.017204  0
  1.587687   19.204081   72.367226  0
  2.564939   18.354136   70.453125  0
  1.257927   18.552721   71.119072  0
  0.703878   20.703815   73.097198  0
 -0.128239   19.389191   71.021233  0
 21.994646   22.182198   71.543747  0
 23.259508   23.132109   71.981697  0
 17.969299   22.267845   67.827400  0
 17.977539   21.988050   70.047081  0
  3.810388   18.573656   67.661560  0
  0.227909   18.589323   69.475433  0
 29.353670   22.835480   70.268394  0
 22.087534   23.151943   70.734848  0
  1.346932   18.297808   67.954796  0
 21.515249   23.541451   68.529129  0
  1.610736   18.538731   65.393349  0
 17.308357   21.914125   65.394455  0
 31.671589   24.300533   66.806992  0
  2.719231   18.722788   62.796619  0
  0.897017   19.268188   63.084518  0
 32.062469   23.797508   65.885857  0
 20.878630   23.234779   63.501938  0
  1.257325   19.867029   60.977798  0
 37.197186   22.072744   65.402184  0
  2.263836   19.308222   60.513927  0
 37.410629   23.082533   64.512337  0
 39.084534   22.701132   63.709061  0
 35.667847   23.808651   64.441307  0
 33.981133   24.573263   64.166252  0
 20.167425   23.011869   61.273529  0
  0.673654   20.856848   59.267113  0
 40.391609   22.266607   62.141994  0
 19.850197   22.210527   58.683899  0
 36.791985   24.457005   63.443298  0
 35.116009   25.139162   62.516495  0
 33.983673   25.853626   62.380157  0
 16.373707   21.455505   60.502979  0
  0.181515   22.453844   58.417839  0
  0.933814   24.147715   57.665218  0
 42.869392   21.110731   59.310421  0
 43.124886   22.190023   59.149574  0
  1.317093   23.693760   56.265018  0
  1.848433   23.156519   55.601170  0
 43.973072   22.104431   56.934971  0
 20.012007   22.326481   57.533619  0
  3.920372   22.506405   54.782585  0
  5.681728   22.489683   54.308304  0
 42.199383   20.295202   52.999168  0
 40.937183   20.564003   51.730991  0
 21.367046   22.691113   55.168999  0
 38.277706   22.337433   52.012375  0
 19.698679   22.746529   54.621838  0
  8.331397   21.882093   53.606930  0
  8.966175   22.074076   53.089241  0
 25.304871   22.738838   46.966358  0
  6.547733   18.498463   50.578091  0
 44.953327   23.764980   47.938976  0
 43.394760   23.745712   48.013363  0
 46.326653   23.356171   47.382568  0
 39.329792   23.482620   47.446941  0
 26.239710   22.514690   45.394047  0
 46.321743   22.527363   46.231350  0
 36.072632   23.264505   46.697952  0
 32.884865   23.173660   46.225769  0
 32.698433   21.769962   46.612549  0
 31.245636   21.343958   46.467709  0
 29.421143   22.625404   45.660973  0
 27.276207   22.896980   45.084713  0
 46.644367   23.753927   46.760704  0
 46.090069   23.402868   46.066502  0
 46.217266   22.552183   44.552711  0
  1.794361   22.895094   42.919575  0
 45.562611   20.684393   41.727314  0
 46.110977   21.347044   43.563553  0
 -0.288658   23.060089   41.657928  0
 -0.615316   21.946066   38.812492  0
 -0.355456   21.260632   37.840321  0
 45.427418   20.549265   39.190350  0
 45.554146   19.961235   36.051979  0
 46.331959   20.401199   36.791740  0
 46.702248   20.446245   34.979919  0
  2.161124   22.594646   35.528179  0
 48.357170   22.232378   32.540428  0
 35.408398   17.632950   25.234776  0
 29.741491   20.385103   27.417713  0
 50.621712   24.396849   29.451082  0
 49.832436   22.961954   30.805214  0
 50.613171   23.191196   28.966831  0
 40.745552   19.913483   25.328886  0
 38.739143   18.705097   24.768997  0
 37.027187   17.924837   25.106668  0
 34.024174   17.647879   25.182755  0
 32.856422   18.108799   25.381086  0
 31.723429   18.933813   25.592066  0
 30.950226   19.041010   26.096678  0
 30.320284   20.661299   26.931459  0
 31.034920   20.170443   25.344419  0
 43.390827   21.812428   23.654543  0
 37.612598   18.398699   23.507011  0
 35.911369   18.143776   23.664768  0
 34.328594   18.773066   23.208494  0
 32.352936   20.254110   23.319950  0
 -3.524539   21.680758   27.220583  0
 36.283981   18.934799   22.158922  0
 38.320229   19.420227   21.723049  0
 34.631786   20.540068   21.613522  0
 37.006470   20.273075   20.722166  0
 28.213539   23.080839   26.549372  0
 52.657822   24.568569   21.875473  0
 53.394794   23.742361   23.594208  0
 -2.609140   23.180582   23.672535  0
 30.729914   22.365719   24.634573  0
 30.957645   22.528845   23.380569  0
 -1.629826   22.004528   21.859659  0
 31.513992   22.923599   21.497768  0
  0.039765   20.343288   20.223162  0
 32.455448   23.282864   19.758738  0
 34.463436   23.921843   18.250708  0
 36.678909   25.065699   16.577227  0
 -0.379340   22.035019   14.869722  0
 -0.617334   23.166389   15.999358  0
 37.672951   26.456036   14.338423  0
 37.644676   25.492573   12.670056  0
 36.632084   25.752357   11.575953  0
 -0.781893   21.025934   13.664961  0
  0.049891   22.044216   13.283471  0
 34.792568   25.278402   10.189189  0
  0.081390   21.354053   12.069854  0
 50.607082   23.791698   15.782908  0
 51.348869   24.721098   14.929739  0
 48.885811   25.468388   15.539381  0
 46.177330   25.861532   15.581643  0
  1.154693   22.067009   11.232864  0
 42.905888   25.758757   15.051390  0
 30.593590   24.537331    7.593719  0
 40.496490   26.618835   12.166617  0
 40.141014   26.135668   10.420391  0
 29.373716   23.934092    5.739151  0
  0.333809   21.750469    9.341940  0
 -0.020351   22.287085    7.896273  0
 51.651066   25.846956   10.107026  0
 50.553707   25.699469    8.214163  0
 48.297707   26.243183    6.439951  0
 39.957790   25.338123    9.358476  0
 26.255697   22.413342    3.833139  0
 24.472223   21.629061    2.902884  0
  0.776057   21.519796    5.145159  0
 46.207752   26.842302    5.452661  0
 44.451591   26.662836    5.938345  0
  2.199967   21.413853    3.188141  0
 42.886166   26.271379    7.348212  0
 41.221470   25.892082    8.715757  0
 22.585054   21.232510    1.700365  0
 20.157476   21.631239    0.636288  0
  3.454921   21.948177    3.150708  0
 16.282429   21.612972    1.343366  0
 15.144094   21.818899    2.088152  0
 14.227556   22.189840    2.538984  0
  9.306100   22.503536    3.062865  0
  7.481972   22.813965    3.639026  0
  6.171530   22.504278    3.465396  0
  4.951303   22.874697    2.921749  0
 12.670428   22.271532    3.123732  0
 42.319183   23.646454    6.335180  0
 43.762939   24.543875    5.420783  0
 39.887489   23.647842    6.717816  0
 38.197632   23.689024    6.677729  0
 44.386490   25.141714    3.743642  0
 36.323532   24.065979    6.841535  0
 44.118553   25.325087    1.648253  0
 43.112022   25.001553   -0.463069  0
 42.115696   24.525530   -1.967849  0
 41.134411   24.217079   -3.084315  0
 28.830219   24.266380    0.173314  0
 40.432869   23.447042   -4.511091  0
 26.778337   23.395327   -0.348362  0
 41.080349   23.396353   -5.576385  0
 42.307346   23.766260   -5.648386  0
 17.484581   21.226456   -6.322945  0
 16.975410   20.529234   -9.251520  0
 49.358315   26.348352   -5.343215  0
 45.448994   25.361572   -3.703793  0
 35.805325   23.344971   -9.074929  0
 32.345989   24.653553   -9.848456  0
 17.079647   20.574081  -12.782723  0
 40.210484   21.528509  -11.440594  0
 22.964535   23.519161  -16.010567  0
 24.328068   23.924704  -16.126181  0
 20.727438   22.733276  -16.958015  0
 18.422886   21.635447  -15.950563  0
 47.390808   24.425589  -10.958532  0
 43.566643   22.260168  -13.968539  0
 32.574539   25.584343  -12.614515  0
 32.776798   26.403536  -14.153005  0
 31.424276   27.334864  -14.621776  0
 26.734638   25.430689  -17.880665  0
 25.946867   25.872128  -17.281883  0
 28.609621   27.481464  -16.859537  0
 30.490704   27.130398  -17.778807  0
 34.721664   24.566725  -14.289298  0
 33.350216   26.461420  -14.894248  0
 35.624790   23.355318  -15.301778  0
 34.583790   25.929039  -15.699639  0
 30.353996   23.407263  -21.523247  0
 31.707893   24.467041  -20.983503  0
 33.585003   22.695915  -20.792675  0
  5.330547   25.178173   77.695007  0
  3.694216   24.408951   77.395485  0
  8.752384   25.725641   76.016281  0
 10.014884   25.103271   76.304558  0
  3.773055   25.338814   76.430450  0
  3.225998   24.609810   76.408463  0
 13.002054   24.066122   74.323235  0
 11.143483   24.643116   75.230377  0
  2.536394   23.281750   75.509880  0
  2.653429   24.539185   75.162430  0
 15.186730   23.213888   74.044121  0
  1.387086   22.967958   74.419464  0
  1.862983   24.477303   73.944473  0
 17.158882   21.628250   71.806084  0
 16.489439   22.760141   73.069534  0
  0.807380   23.590971   73.830177  0
  0.192554   22.554089   73.238884  0
  0.525035   23.594688   73.014488  0
 -0.972735   20.850508   71.640472  0
 -0.792383   22.285542   72.078987  0
  0.421894   23.790436   71.771797  0
 24.675631   24.582884   71.844025  0
 23.267677   24.467115   71.108910  0
 27.393541   24.259066   71.368507  0
 28.744736   23.729290   70.477013  0
 -1.734049   19.777948   69.601463  0
 -2.411825   21.025616   69.910362  0
 -2.225223   22.269688   70.165482  0
 -1.087316   19.397871   65.629601  0
 -2.226884   19.789085   67.193085  0
 -2.853456   20.420048   67.960007  0
 -3.040732   21.762869   67.941414  0
 30.661415   24.250612   69.150238  0
 21.769068   24.709743   65.963425  0
 -2.759256   20.959280   65.477348  0
 31.373142   24.271542   67.984833  0
 21.668804   24.277950   64.600372  0
 -1.533000   20.061140   64.074074  0
 16.601662   21.955418   62.534401  0
 -0.152847   20.530605   61.867371  0
 -1.853205   21.294958   63.112232  0
 -0.699971   22.209400   61.281807  0
  0.221210   21.598377   60.093033  0
 33.599354   25.582424   63.828773  0
  0.281329   23.463346   58.937519  0
 -0.073376   22.932671   60.037453  0
 38.318130   24.037119   63.389553  0
 20.750072   23.595888   59.165455  0
 39.676323   24.313185   61.835541  0
 38.330715   25.076622   61.890682  0
 36.599926   25.294205   61.636517  0
 34.999264   25.397961   61.030499  0
 33.892090   25.509226   60.636127  0
 32.946774   25.707142   59.632496  0
 15.747770   22.458139   59.110081  0
 41.615486   23.083250   60.644241  0
 36.048740   25.529396   60.266102  0
 34.010323   25.225475   58.509830  0
 21.431961   23.089361   56.819298  0
 16.061384   22.989162   57.479702  0
  5.326810   23.646004   55.476803  0
  3.973641   23.736246   56.099335  0
 43.593472   21.374752   54.539822  0
 42.493778   21.483093   52.745258  0
 41.113235   22.058178   52.023010  0
 17.494125   23.664625   55.884300  0
  7.058696   23.257187   54.740772  0
 35.150131   22.479137   52.841496  0
 31.136435   22.219246   51.834866  0
 21.739817   23.084404   53.933376  0
 22.496010   23.389854   54.857063  0
 19.508907   23.884565   54.226406  0
  8.434032   21.078243   52.276463  0
 21.355795   23.860573   53.493755  0
  7.636091   19.012886   51.626827  0
  4.619207   18.956663   49.765026  0
  3.595597   19.748739   47.827972  0
 25.278955   22.842518   45.794609  0
  4.894529   22.836609   44.071548  0
 46.082569   24.271679   47.132481  0
 43.748062   24.528904   47.011513  0
 40.865726   24.245253   46.848335  0
  6.497147   22.635887   43.180763  0
 41.416527   24.490438   45.487583  0
 43.929756   24.639801   45.610126  0
 37.886360   24.288605   45.769817  0
 34.991833   24.102924   45.494305  0
 31.119579   24.109837   45.129002  0
 27.922857   23.973137   44.132267  0
 26.283546   23.720327   44.245735  0
 45.931786   24.252117   46.002953  0
 45.798172   23.647297   45.099815  0
 41.234051   23.651041   42.743210  0
 40.194569   24.118700   43.813454  0
 37.953987   24.328218   44.081268  0
 35.667534   24.427557   44.131222  0
 31.298979   24.379169   43.701393  0
 27.905575   24.135473   42.439461  0
 26.316954   24.339680   42.895359  0
  6.062226   23.073622   42.485153  0
 42.640778   23.863186   43.063034  0
 38.202927   23.469570   41.757198  0
 36.027309   23.791498   41.764626  0
 34.095898   24.296038   42.581940  0
 31.253695   24.187502   42.221634  0
 30.049053   23.834742   41.332062  0
  3.043689   23.864016   42.509274  0
  0.822793   24.437222   42.114021  0
 46.886154   21.404572   43.150814  0
 38.691349   23.277544   40.065102  0
 40.435516   23.552168   40.623520  0
 33.623547   23.825926   41.098618  0
 28.438620   23.698795   40.480278  0
 46.746872   20.957184   41.051476  0
 35.573246   23.424179   39.432690  0
 31.804369   23.399546   39.607708  0
  0.217227   22.843853   37.387691  0
 46.753727   20.724234   38.658459  0
 33.216839   23.246716   37.320026  0
 29.517786   23.461075   38.906075  0
 47.622765   20.370659   37.361469  0
 48.481064   20.432718   35.843662  0
 48.575382   20.775068   39.200424  0
 36.468967   23.626286   37.713840  0
 48.014309   21.062586   34.232697  0
 49.702999   21.241741   33.906364  0
  3.539436   24.123571   36.640297  0
 48.254021   21.948149   33.248680  0
  0.220014   22.718811   33.865738  0
  2.525212   24.272997   35.598679  0
 -0.274226   23.695423   33.317596  0
 -2.825182   22.723795   31.278864  0
 49.493984   23.117718   31.840395  0
 49.365353   23.969475   31.883394  0
 28.535936   22.731018   28.494846  0
 29.827360   22.150410   27.848774  0
 -3.027441   23.166073   29.923643  0
 50.549938   25.495037   29.818552  0
 30.525076   22.734119   27.074844  0
 30.935335   21.511353   25.722704  0
 31.261461   21.820818   24.267969  0
 53.108231   23.605684   25.970058  0
 51.494370   24.892252   28.241362  0
 52.673042   24.814526   25.690958  0
 47.535858   24.124826   21.996519  0
 46.323311   23.862452   22.038576  0
 42.938480   21.712887   22.496063  0
 41.540764   20.595182   22.465397  0
 40.690357   20.210402   21.233816  0
 33.026508   21.521341   22.156805  0
 32.425655   22.124317   22.856237  0
 26.616566   24.298338   28.083590  0
 52.297333   25.983110   24.037914  0
 45.726517   24.057377   21.107342  0
 44.716885   23.427486   20.309626  0
 42.672375   21.364990   20.531109  0
 35.939327   21.291687   20.547932  0
 35.052170   22.453196   20.862238  0
 33.860859   22.415119   21.790728  0
 -3.178425   23.443245   26.748993  0
 51.528389   26.184046   22.104328  0
 48.840221   24.785000   21.286812  0
 50.245003   26.231192   20.899385  0
 43.222046   22.259583   18.631498  0
 41.998512   21.313463   18.948498  0
 40.252594   21.413382   18.612543  0
 41.979816   22.634838   17.387976  0
 38.679867   21.160570   19.241697  0
 36.952740   22.131823   19.548037  0
 36.412228   23.794191   20.208979  0
 40.257313   22.812792   17.183674  0
 38.545994   22.767647   18.431730  0
 37.503910   23.790567   18.872511  0
 29.914539   23.532816   23.889790  0
 38.765034   24.120878   17.229076  0
 30.677464   24.321899   22.154385  0
 -0.523932   21.730661   19.715694  0
 31.815084   24.357111   20.658957  0
 -0.777782   23.240925   19.674021  0
 -1.651153   24.466885   21.129744  0
 33.677029   24.901247   19.330322  0
 36.128723   26.168554   17.786343  0
 35.417225   26.340483   18.964598  0
 37.306252   27.009268   15.743116  0
  0.761414   24.548485   14.240810  0
  0.603624   23.079470   13.743686  0
 37.507721   26.912178   13.038794  0
 36.666653   27.877373   12.883173  0
 35.129623   26.821356   11.300194  0
  1.169792   23.210735   12.341661  0
 32.801273   26.199673   10.135551  0
 30.716755   25.924314    8.629454  0
  1.301789   22.694059   11.212220  0
 51.646095   26.248985   12.710669  0
 49.905151   27.789650   13.757203  0
 47.347706   28.126223   14.606080  0
 50.461945   28.343840   10.851871  0
 44.862106   28.593813   14.517404  0
 43.411053   27.934366   14.607718  0
 42.073372   27.868719   13.973199  0
 50.885605   27.064978    9.027313  0
 41.086727   27.768684   13.018092  0
 40.809147   27.987616   12.024600  0
 40.401863   28.835779   10.399123  0
 28.581116   25.034904    5.680628  0
  0.174190   23.643787    9.953723  0
 40.153423   26.773968    9.371684  0
 26.525234   24.104988    4.169648  0
 25.085936   23.279711    3.207235  0
 -0.043328   23.209679    7.155429  0
  0.554334   22.569466    5.034614  0
 50.302135   27.988888    8.131398  0
 49.411873   28.135693    6.738433  0
 47.590908   28.504887    5.649920  0
 45.459686   28.589977    5.559363  0
 43.801414   28.262693    6.660705  0
 40.911320   28.349903    9.002001  0
 23.095806   22.864855    1.785752  0
  1.671202   22.488239    3.305038  0
 42.007095   28.047194    7.691473  0
 21.879028   22.482098    0.856352  0
 20.649395   23.546083    0.294362  0
  2.871094   22.149197    2.653738  0
 19.220982   23.274336    0.092652  0
 17.605101   22.519011    0.802899  0
 16.004204   22.495941    1.987415  0
 10.703731   23.325718    3.060662  0
 11.827885   23.184114    3.600774  0
  9.360888   23.512539    3.196070  0
 43.248470   25.466501    6.469559  0
 44.530842   26.875431    5.069646  0
 40.382641   24.710716    7.641737  0
 39.203785   24.024082    7.403771  0
 38.244297   24.619968    7.676763  0
 36.712711   25.293055    8.102166  0
 44.529533   27.341101    2.986536  0
 43.768078   27.283115    0.653674  0
 42.162029   26.647127   -1.246606  0
 39.774040   24.971619   -3.471166  0
 40.357796   26.353918   -2.245623  0
 30.323921   25.963852    0.455472  0
 29.586878   25.536686   -0.119712  0
 40.012955   24.438499   -4.541195  0
 24.923830   23.915304   -0.425910  0
 41.539951   25.262871   -4.618351  0
 49.214985   26.144251   -6.749578  0
 47.872253   26.546230   -4.497865  0
 46.891651   26.185154   -3.546443  0
 45.755188   27.059088   -3.461222  0
 43.362442   25.988422   -4.288410  0
 47.311348   27.160881   -3.810636  0
 37.034283   23.130629   -9.668068  0
 37.810966   23.403553  -10.782180  0
 33.539017   24.967531   -9.144748  0
 32.951851   24.660433   -9.175050  0
 31.427586   26.279995  -11.281270  0
 31.470669   26.814600  -12.966339  0
 48.861633   27.309595   -4.960837  0
 39.550564   22.839413  -12.121947  0
 23.326292   24.644693  -15.588128  0
 25.048836   25.607931  -17.002453  0
 21.486723   24.416805  -16.091726  0
 18.670200   23.592287  -16.610910  0
 16.428337   22.483923  -14.428374  0
 15.689940   21.905172  -10.084838  0
 45.473469   24.596668  -12.897939  0
 44.468822   23.696106  -13.941575  0
 42.821896   23.201464  -13.949697  0
 30.108719   27.927065  -15.248163  0
 27.204945   26.940102  -16.960915  0
 35.515327   25.055973  -16.341599  0
 34.913776   26.517973  -17.228817  0
 34.087860   27.228260  -16.762449  0
 32.876770   27.517044  -16.231665  0
 29.970352   25.097872  -21.095482  0
 32.727242   25.782177  -20.092848  0
  4.922578   25.966904   75.969460  0
  6.819146   26.230982   75.488251  0
 10.314244   25.227560   74.846771  0
  3.325145   25.385803   74.381088  0
 11.856335   25.717293   73.958450  0
 17.792736   22.843750   71.483147  0
 16.054209   24.005798   73.761253  0
  2.579010   25.158232   72.364838  0
  4.390583   25.889381   73.432495  0
  4.082532   26.233744   71.720718  0
  2.291333   25.524797   71.519341  0
 26.248564   25.390404   71.219559  0
 24.605707   26.469007   69.983025  0
  0.900362   25.124723   71.285095  0
 -0.950221   24.202871   70.663651  0
 -2.365706   23.297787   69.387764  0
 29.704288   24.585815   69.922935  0
 22.533644   25.564816   67.900833  0
 -2.936212   23.631535   67.354202  0
 -3.111160   23.063986   65.554855  0
 -2.670371   22.433300   63.862724  0
 21.744741   24.719311   62.875488  0
 16.944216   23.311562   63.545372  0
 -1.624284   23.103678   62.038578  0
 -2.232278   24.116285   63.375107  0
 -0.265174   24.127138   60.688103  0
 33.276886   26.103846   64.255920  0
 21.449917   24.549667   60.674625  0
  0.592707   24.639500   59.642181  0
 32.974644   26.533762   60.037346  0
 22.424063   24.337330   57.580376  0
 23.746611   25.767248   59.406425  0
  2.116223   24.742119   57.349957  0
 41.131592   24.930580   59.842316  0
 39.662193   25.260969   60.863747  0
 38.703110   25.813904   60.208710  0
  3.310795   24.543280   56.962807  0
 43.457748   23.701834   58.022961  0
 37.026806   26.053072   59.252018  0
 32.582588   25.517269   57.869995  0
 15.926713   23.893337   58.699020  0
  4.442456   25.456457   57.537571  0
 44.344307   23.432232   56.219093  0
 23.001842   24.756348   56.390697  0
 44.496307   23.074097   54.632561  0
 22.963270   24.394737   54.935265  0
  8.034723   24.007935   54.579433  0
 43.423176   22.583933   52.883003  0
 39.865570   22.817173   52.010555  0
 37.036926   23.075188   52.869564  0
 33.121918   22.905481   52.340973  0
 22.629515   24.590681   53.884216  0
 29.934454   22.602512   50.712925  0
 21.117691   24.572380   53.572842  0
 27.863194   22.840897   48.873810  0
  7.775435   20.499268   52.409740  0
  5.907915   18.872910   51.331997  0
  6.471533   19.545198   52.062428  0
  2.900655   19.852875   48.816612  0
 25.615273   23.954374   44.433102  0
  6.468822   24.082357   43.691891  0
 44.545391   23.906141   44.040459  0
 27.188375   24.298252   40.536129  0
 48.954201   22.079014   42.927727  0
 50.747772   23.992409   43.561863  0
 49.078781   23.879881   45.128052  0
 47.151230   22.298708   44.581242  0
 50.720238   22.807558   41.946953  0
 47.191864   23.320036   45.453831  0
 45.855671   23.653118   44.646938  0
 43.239983   24.105091   42.308285  0
 28.382147   23.809351   39.223091  0
 51.943718   22.128614   38.948467  0
 50.220844   21.292107   39.441616  0
 52.830421   22.779345   38.164097  0
 41.264862   24.270630   39.805031  0
  3.364270   23.358168   36.997181  0
 51.652119   21.321833   36.705536  0
 52.791756   21.959591   36.491348  0
 50.136105   20.757360   37.315533  0
 38.672138   24.139915   37.942986  0
 30.996864   23.470139   37.133224  0
 29.361399   24.097578   37.829075  0
 50.538872   20.994535   35.171856  0
 51.350338   21.880945   34.697350  0
 31.075066   24.391939   36.298801  0
 35.347668   24.182310   36.299606  0
 33.068588   24.053728   35.904190  0
 49.686386   22.290066   33.310432  0
 47.347431   23.498674   32.675087  0
 48.207325   23.159916   33.088284  0
 48.444645   24.207212   31.909836  0
 46.096977   24.398895   31.245481  0
 44.285389   24.421810   31.945845  0
 45.545753   24.294384   33.210815  0
 44.003704   24.600258   30.360844  0
 28.118240   25.351881   29.893612  0
 29.575367   24.039476   28.979702  0
 26.302551   25.092882   29.311886  0
 49.705132   26.230225   29.856554  0
 30.902517   22.850554   26.138519  0
 31.688091   23.130424   24.949844  0
 -3.059214   23.829027   28.104813  0
 51.316036   25.964516   28.879465  0
 51.561859   26.946899   27.976326  0
 32.510242   23.117016   24.124731  0
 52.391701   25.884165   26.807819  0
 33.839287   23.451286   22.672848  0
 27.242628   24.470749   26.692490  0
 35.178391   24.160374   21.604021  0
 -2.700080   24.017199   24.831930  0
 51.376694   27.739256   23.516745  0
 50.571781   28.201679   22.201916  0
 48.240433   25.758614   20.802485  0
 48.624512   27.480183   20.366135  0
 46.829903   25.759304   20.075554  0
 45.369358   25.016237   19.154589  0
 46.474075   26.942255   19.635210  0
 43.821152   24.323286   17.776587  0
 28.356617   24.192217   25.269863  0
 50.044979   27.588970   21.077324  0
 44.506527   26.432676   18.638847  0
 42.391708   26.974714   18.415457  0
 41.914387   24.894627   16.826475  0
 40.813797   23.827454   16.547312  0
 40.878063   26.443878   17.170603  0
 36.912182   24.864260   19.532724  0
 37.679634   25.388842   17.873894  0
 40.230347   25.629021   16.634361  0
 39.386761   24.825249   16.713446  0
 29.379892   24.766930   23.948830  0
 38.869888   26.266111   17.116308  0
 30.206823   25.679193   23.497576  0
 31.956091   25.850828   21.848837  0
 33.553989   26.069765   20.346029  0
 -0.603373   24.095051   16.577843  0
 35.189175   27.077778   19.409521  0
 36.261696   27.845432   18.201988  0
 36.829571   28.085140   16.590679  0
 37.219917   28.163174   14.652872  0
 -0.387678   25.328131   16.159227  0
  0.169829   25.699709   15.355867  0
 35.682968   28.008055   12.455853  0
 33.813450   28.166189   12.628987  0
 32.576942   27.197731   11.105380  0
  1.230250   25.049728   12.869400  0
  0.994767   23.998110   11.585572  0
 29.625280   27.257908    9.561824  0
 29.646025   26.344585    7.981478  0
 28.107298   26.297089    6.511309  0
  0.431962   25.365877   11.666114  0
 49.217739   30.110996   11.480685  0
 48.295677   29.449642   13.381340  0
 43.211716   29.515352   13.579062  0
 41.170986   29.105202   12.098284  0
  0.031996   24.958694    8.865067  0
  0.458568   24.654510    7.454714  0
 26.226168   25.516275    4.896728  0
 24.992405   24.413198    3.597689  0
  0.923996   23.629553    5.926196  0
 49.726540   29.239578    7.549863  0
 48.556343   29.842175    6.804555  0
 46.488873   30.228172    6.394342  0
 44.502914   30.098267    6.616970  0
 43.103821   29.674463    7.593265  0
 23.707310   24.174366    2.785473  0
  1.189146   23.055361    4.221853  0
 41.606373   29.622751    8.236219  0
 21.879725   24.148371    0.898983  0
 12.952919   23.072763    4.269114  0
 13.859173   22.595905    3.930699  0
 11.729964   23.774033    5.028496  0
 10.627356   24.061272    3.839192  0
 10.606701   24.334864    5.097403  0
  8.723916   24.621126    4.989460  0
  8.570317   24.144381    3.751658  0
  6.751098   24.236235    3.799972  0
  6.995695   25.156752    4.963598  0
  6.286483   25.373203    4.130821  0
  5.592468   24.656164    3.195392  0
  2.581076   22.540272    2.639836  0
 18.854418   23.780336    0.475210  0
 17.781628   22.954411    1.481747  0
 14.738324   22.764692    2.782147  0
  4.451532   23.238340    2.835843  0
  2.814791   22.372969    3.121796  0
  3.730649   22.817389    2.998412  0
 44.097603   27.415068    5.688515  0
 43.316292   27.753609    6.633531  0
 41.189915   26.948946    7.475306  0
 39.351498   25.477274    8.245893  0
 38.001194   25.919502    8.430988  0
 44.239712   28.133720    5.851084  0
 44.000893   28.551764    4.662057  0
 42.906307   29.590277    2.115424  0
 42.763058   28.473349    0.066503  0
 40.782169   29.289593   -0.447984  0
 39.204456   27.974371   -1.620195  0
 38.187805   26.732258   -2.592396  0
 38.769653   25.993748   -3.446116  0
 26.963839   24.795107   -0.112392  0
 39.624836   26.106432   -3.759748  0
 22.493979   23.378155   -0.984404  0
 46.507729   28.155928   -4.593421  0
 45.306820   27.832623   -3.634904  0
 48.439968   27.826904   -6.466550  0
 48.322220   28.248085   -5.013919  0
 30.509451   27.893648  -14.233894  0
 23.448153   25.608030  -15.889108  0
 21.855354   25.671696  -15.397538  0
 19.606367   25.473410  -15.947615  0
 16.773630   24.524570  -15.629274  0
 14.821507   23.928204  -12.947979  0
 14.288005   23.627785  -10.296209  0
 48.009102   26.495039   -8.467422  0
 43.754887   24.544533  -14.191054  0
 42.028896   23.985273  -14.152904  0
 40.109699   23.342484  -13.562108  0
 28.883850   27.967241  -16.094149  0
 46.413887   26.131001  -10.540848  0
 44.511185   25.901421  -12.967205  0
 33.021786   27.771994  -17.548134  0
 35.470272   25.571547  -17.596096  0
 35.289253   24.369341  -18.017569  0
 34.631721   25.948294  -18.731014  0
 33.401638   26.954210  -18.833820  0
 29.949648   26.554764  -20.180748  0
 31.213820   26.920038  -19.908316  0
  9.208222   26.095869   74.337616  0
  8.709655   26.401867   73.097961  0
  6.395955   26.332193   73.278778  0
 17.382095   24.130764   72.724518  0
 16.773533   25.271126   73.671471  0
 15.233778   25.896957   73.912971  0
 13.605824   26.532694   73.495018  0
 11.099894   26.461056   73.093140  0
 18.510487   24.922794   71.931976  0
 18.100664   25.197041   72.945549  0
 10.171499   26.786091   71.231216  0
  8.098657   26.461712   71.289703  0
  5.509642   26.491068   71.192551  0
 19.537165   24.122534   69.882065  0
 12.797433   27.340260   71.999161  0
  7.779186   26.094135   69.486794  0
  5.264959   26.535149   70.178917  0
 18.981756   22.893164   69.063568  0
 19.611797   23.937113   68.383713  0
  6.894486   26.194481   68.469925  0
  3.595702   26.250008   71.140709  0
 28.067242   25.977745   70.346977  0
 30.175640   26.147823   69.216583  0
 26.231071   26.924019   70.178223  0
 18.757509   23.800491   66.877480  0
 -2.364848   24.357315   69.862411  0
 -2.801505   23.841730   68.616333  0
 24.065216   27.565399   66.767876  0
 17.663422   24.012730   64.447777  0
 -2.996532   24.988819   67.363785  0
 -2.445969   25.253765   65.506889  0
 31.709217   25.771032   67.418999  0
 22.754528   26.291124   65.297371  0
 22.782717   25.909145   63.954521  0
 15.876260   24.119854   60.997540  0
 -0.459082   25.033226   61.765911  0
 -1.650770   25.681244   63.387074  0
 32.618176   26.684361   66.005630  0
 23.168432   25.645941   62.091537  0
  1.085075   25.422235   60.763134  0
  2.106195   25.641296   59.198940  0
 33.688267   26.714128   62.050320  0
 40.672192   26.136631   58.607002  0
 38.432320   26.478045   58.906895  0
 32.622360   26.426298   58.592522  0
 24.068735   26.936949   56.043026  0
  6.631981   25.659718   56.507206  0
 42.743855   25.445423   57.630268  0
 44.104275   24.933189   55.748989  0
 36.263550   26.361509   58.487011  0
 34.144203   25.969053   57.717724  0
 44.341782   24.293509   53.062481  0
 23.147104   26.052353   54.796436  0
 42.519825   23.483955   51.737232  0
 34.903313   23.229584   52.755890  0
 35.217880   23.563448   52.054203  0
 31.810757   23.048395   51.718143  0
 32.929928   23.391365   51.555470  0
 21.533920   25.682775   54.131317  0
 18.996103   24.728857   55.417355  0
  8.894704   23.038115   52.798531  0
 22.489777   26.178589   53.947567  0
  8.094026   22.318834   52.536255  0
 26.303925   24.177507   46.696377  0
  4.889499   19.477217   51.955311  0
  6.149783   21.583885   52.727032  0
  2.950767   19.873026   51.250477  0
  3.976666   20.822168   52.643623  0
  2.649607   20.877331   52.261593  0
  1.464240   20.959766   49.600468  0
  1.647555   20.993280   51.017136  0
  1.234354   21.254173   48.182068  0
 25.400782   24.046801   45.634953  0
  1.622792   21.701090   46.993732  0
  1.928662   22.551033   45.930218  0
  2.748917   23.776878   44.839806  0
  4.361987   24.666889   43.699825  0
  5.311471   24.498934   43.593822  0
  7.180229   24.370079   43.070068  0
 50.298260   25.310446   44.470562  0
 51.725872   25.632998   42.461231  0
  4.687362   24.999743   41.895233  0
 -0.200239   24.600796   41.323261  0
 52.190968   24.514153   41.193069  0
 48.769394   25.229622   45.137852  0
 46.895374   24.219700   45.481876  0
 45.596733   24.835644   44.274517  0
 44.870758   24.463852   44.063675  0
 -0.665346   24.731653   39.692631  0
 -0.586079   24.240528   37.896904  0
 53.349586   23.695663   37.003563  0
 52.448227   25.841150   39.733940  0
 44.235031   25.188002   42.029430  0
  0.527590   24.760099   36.904976  0
  2.335545   24.455736   36.872276  0
 43.022484   24.976572   40.597572  0
  2.835598   25.503063   36.365192  0
 53.120834   22.840282   35.762989  0
 43.174198   25.927835   39.713974  0
 40.549000   25.223534   38.016060  0
 51.090744   23.241276   33.937153  0
 38.990673   25.617222   36.851212  0
 37.035168   25.955414   36.019993  0
 34.739639   26.008389   35.190430  0
 32.884865   26.172813   34.996891  0
 47.020866   23.848200   33.431881  0
 43.205494   25.179770   32.051140  0
  0.805814   24.885908   33.656422  0
 41.443535   25.281511   30.146427  0
 41.710182   24.837023   29.667562  0
 -2.713995   24.899853   31.275295  0
 41.624409   25.036362   28.539751  0
 26.287924   26.274584   30.209808  0
 47.649185   26.074160   29.758116  0
 45.060150   25.278143   29.247522  0
 42.507156   25.429569   27.324114  0
 39.880074   26.598625   26.246561  0
 31.116699   24.644140   27.764194  0
 31.355495   23.994453   27.068430  0
 46.004311   26.652597   27.675022  0
 43.778393   26.778965   25.076685  0
 40.570812   26.829103   24.335457  0
 39.830471   27.023964   24.694685  0
 33.355476   24.987782   25.817394  0
 32.155651   24.192720   26.082094  0
 -3.279021   26.545574   28.909664  0
 49.533974   27.706562   28.415724  0
 48.240917   28.098852   27.389433  0
 42.408001   27.154875   23.302280  0
 41.515228   26.737713   24.322796  0
 39.629276   27.438749   22.808584  0
 34.641518   24.983389   24.483725  0
 25.278315   27.265018   28.764530  0
 51.963383   27.409245   25.873520  0
 51.402748   28.223013   26.402731  0
 50.310879   28.611134   26.765324  0
 46.872829   27.989645   26.048798  0
 45.840424   27.929792   24.405071  0
 41.193172   27.823551   22.518797  0
 43.552765   27.737886   21.741512  0
 35.596638   25.148634   22.375198  0
 -3.058927   25.514631   27.105822  0
 -2.773659   24.823381   26.151274  0
 42.352173   27.878580   20.862123  0
 40.796978   28.363380   20.365133  0
 43.552784   27.511805   19.337994  0
 39.074062   28.490265   20.419085  0
 36.231075   25.006222   21.010466  0
 36.315563   26.020781   21.045321  0
 39.177410   27.652456   18.026266  0
 38.348850   28.446291   19.348703  0
 37.063881   26.357969   18.412622  0
 28.141506   25.659698   25.806150  0
 49.365242   28.834942   21.569260  0
 48.653328   28.493944   20.752478  0
 47.841599   28.678905   20.959625  0
 45.702362   27.890280   19.919075  0
 38.050545   28.007391   18.413736  0
 -2.330091   25.431030   24.048670  0
 37.767193   27.092020   17.754292  0
 -2.293776   25.511551   22.541145  0
 33.727051   27.207699   21.054586  0
 34.926819   28.189735   19.641619  0
 -0.361390   24.533979   19.234219  0
 35.511360   28.951918   18.250921  0
 35.787895   29.721355   16.588003  0
 35.891720   29.316170   14.459428  0
 34.836182   28.983175   13.537146  0
 32.291653   29.083185   14.611869  0
 31.847553   28.013311   12.436881  0
 30.988041   28.197052   13.579561  0
 29.782183   27.870588   11.763727  0
 29.031061   27.500643   13.502077  0
 26.670115   27.086735   12.311986  0
 27.998083   27.574062   10.582149  0
 26.371029   27.567907    9.593541  0
 27.682596   27.282616    8.545894  0
 48.425850   31.187759   11.039311  0
 47.804447   30.786390   12.082802  0
 46.643776   30.069056   13.391910  0
 44.897537   30.654285   12.872513  0
 26.578886   27.171043    6.964834  0
  0.010029   25.677826   10.514853  0
  0.155550   26.390779    9.584110  0
 49.278687   30.174238    8.452639  0
 42.944626   30.967434   11.694514  0
 41.403904   30.441511   10.717278  0
  0.831667   26.449701    7.996484  0
 41.252518   30.413645    9.248264  0
 42.785633   31.439892    9.680919  0
 24.939543   26.378502    5.192460  0
  1.878025   25.011776    6.855587  0
 47.583065   31.111486    7.970505  0
 44.859333   31.467747    8.095179  0
 43.635693   30.910614    7.328280  0
 42.630424   30.948956    8.150071  0
 22.677341   24.934660    2.680805  0
 12.456952   23.794598    6.280793  0
 13.206370   23.743082    5.499641  0
 10.759587   24.210577    6.560174  0
 11.473552   24.365515    7.951914  0
  9.439363   24.729259    7.065354  0
  7.593591   25.903049    8.133460  0
  6.180642   25.992708    5.272783  0
  2.357535   24.012327    4.601023  0
 15.103222   22.837631    3.468383  0
 13.882148   23.427237    5.143220  0
 15.232164   23.238039    3.849903  0
 16.630070   22.998171    2.847746  0
  5.474572   25.739382    4.502341  0
  2.049245   22.951021    3.930354  0
  2.374362   23.147234    3.204262  0
 18.186720   23.946487    1.945418  0
  4.631022   24.304197    3.046124  0
 43.762234   28.715956    5.950433  0
 42.249889   29.602013    5.332813  0
 40.625385   31.157125    1.102451  0
 39.964279   31.152641    3.256277  0
 32.265934   28.772957    1.730318  0
 32.261436   29.017241    3.467510  0
 32.919022   29.385267    2.191656  0
 38.137962   30.105740   -0.844037  0
 38.818748   31.406338    0.713099  0
 36.577904   29.606880   -1.490124  0
 36.189636   30.645494    0.350134  0
 36.878277   27.568150   -3.045073  0
 29.294998   28.093870    0.724994  0
 27.031469   25.926487    0.390558  0
 25.643286   26.104214    0.320858  0
 23.506512   25.519365   -0.440074  0
 21.364744   25.352596   -1.338174  0
 19.957872   23.229311   -2.427519  0
 18.325041   25.523165   -3.786037  0
 42.261593   26.966961   -3.974430  0
 44.797276   28.749739   -4.012997  0
 46.072727   29.254597   -4.630452  0
 35.580555   25.348646  -10.157508  0
 34.044670   25.664827   -9.511519  0
 17.604101   25.913763  -15.526351  0
 15.434685   25.576664  -14.654209  0
 16.754095   26.606171  -14.760264  0
 19.713114   26.789471  -14.883321  0
 14.601047   25.335524  -13.414136  0
 47.680241   28.905930   -6.049847  0
 47.023354   27.828218   -8.861214  0
 47.076904   29.390244   -5.213294  0
 38.996128   24.035221  -13.233463  0
 24.322582   26.461718  -16.834194  0
 26.399298   27.079084  -17.155609  0
 22.061739   26.681873  -15.277470  0
 14.521498   24.919302  -11.663533  0
 43.329536   25.325172  -14.207513  0
 41.028408   24.838865  -14.614038  0
 42.509514   25.114586  -14.693367  0
 42.990479   26.191832  -14.066539  0
 45.805954   27.153324  -10.399196  0
 31.984264   27.767555  -18.467686  0
 18.281675   26.014137   73.130989  0
 17.679350   26.973074   73.271858  0
 15.292141   26.920052   73.293968  0
 19.343439   26.347507   72.090614  0
 11.252622   27.264910   70.717484  0
 21.095697   25.935873   69.696274  0
 12.363861   27.960661   70.867973  0
  9.618322   26.543741   68.840729  0
 27.769400   27.387903   69.611320  0
 25.913013   27.986134   68.779266  0
 20.601019   24.827951   68.687851  0
 19.987724   24.591185   67.311600  0
  8.263800   26.274122   67.659340  0
 -3.252169   24.915516   68.981049  0
 29.320732   27.758181   68.762787  0
 27.692383   28.647760   68.317848  0
 26.770895   29.232676   66.679565  0
 10.715202   27.289860   69.916962  0
  7.180820   26.884398   67.479828  0
 31.366928   27.330801   67.364288  0
 25.146997   28.329840   65.125595  0
 18.847176   24.904173   65.214455  0
 -2.367688   26.264040   65.482361  0
 16.585140   24.971487   61.874393  0
  1.561837   26.159521   61.757957  0
 -0.355553   26.479548   62.930740  0
 24.170395   26.795595   62.669762  0
 25.513563   28.667763   63.843262  0
  3.081986   26.282864   61.241253  0
  4.712695   26.531929   59.327274  0
  5.616236   26.864262   60.846462  0
  5.950227   26.921473   59.898232  0
 33.722507   26.864147   63.140308  0
 24.646542   27.036312   60.114891  0
  6.221829   27.066185   58.576668  0
  5.843431   26.544622   58.009125  0
 17.518879   24.936392   57.639885  0
 24.813662   27.136219   57.941257  0
  7.907971   25.738085   55.202541  0
 42.817146   26.949448   55.941730  0
 43.928463   26.510597   54.124599  0
 41.196930   26.978704   57.539303  0
 39.349857   27.062725   58.373344  0
 37.482849   27.085590   58.498047  0
 35.910995   27.492702   58.148445  0
  8.386539   24.348955   53.677006  0
 44.109005   24.642742   51.897568  0
 44.185791   25.795547   52.305634  0
 40.693016   23.484295   51.339546  0
 38.171627   23.437578   51.846676  0
 34.412445   27.896852   57.674809  0
 33.503956   27.922550   58.008224  0
 43.305531   24.950815   51.194736  0
 41.297909   24.327234   50.545216  0
 21.043709   25.591417   54.879002  0
 33.966473   23.578726   49.846569  0
 31.439199   23.130283   50.172848  0
 30.636414   23.211235   49.207020  0
 30.047474   23.800478   48.026279  0
 28.183155   24.624622   46.879879  0
  4.864990   22.105652   53.094627  0
  0.157979   21.661518   49.777512  0
  1.317949   22.192923   52.125969  0
 -1.950119   22.445436   50.108540  0
 -1.391883   22.166674   48.706936  0
 -0.021788   22.223251   47.101986  0
  5.819944   25.514719   43.646797  0
  6.708562   27.074131   43.576660  0
  7.279672   26.159475   43.569012  0
 26.084177   25.012409   42.399837  0
  6.555923   25.216032   42.198250  0
 27.479013   25.064272   39.879345  0
  1.825353   26.107063   41.624866  0
  0.053736   25.793341   41.270660  0
 51.112370   26.612810   42.724678  0
 49.698475   26.548002   43.802437  0
 48.194214   26.212883   44.357410  0
 47.074959   25.752123   44.418655  0
 -0.906736   25.691576   38.437668  0
 46.815067   26.885283   42.613644  0
 45.337894   26.209827   42.148922  0
 52.924873   25.707449   36.000740  0
 29.234411   24.724049   38.206772  0
  3.295432   25.991993   36.023209  0
 53.150833   24.258799   35.156075  0
 51.865158   24.280323   33.917370  0
 49.379707   24.473690   33.332371  0
 42.503590   27.388243   37.994179  0
 31.172525   25.999760   36.270622  0
 31.825130   26.913839   35.216232  0
 46.669430   25.025229   33.791180  0
 39.907104   27.580256   36.730469  0
 44.648277   25.516464   33.147320  0
  2.401435   27.554518   34.848507  0
  0.408713   26.287100   33.015213  0
 -1.845476   26.379822   31.874830  0
 29.832888   25.719790   29.336494  0
 25.215345   27.077435   29.681549  0
 39.217823   26.990885   24.282625  0
 39.088158   27.171724   24.333937  0
 38.220417   27.319296   23.200356  0
 32.218735   25.128138   26.630924  0
 26.156639   27.741819   27.901440  0
 50.656464   28.939285   24.595114  0
 49.195637   29.253361   24.859898  0
 47.598991   28.835949   24.618647  0
 46.860775   28.811165   22.087458  0
 37.352970   27.773327   21.118477  0
 36.550159   26.838844   22.612228  0
 35.611794   25.970781   23.509699  0
 35.039730   26.173132   24.707754  0
 -2.684210   26.055822   26.085411  0
 44.519417   28.148790   20.355585  0
 37.234730   27.372734   19.123064  0
 -2.000915   25.530632   25.378563  0
 30.008312   28.127899   25.247976  0
 31.243265   27.010048   23.422985  0
 32.865059   27.872957   22.210196  0
 -2.070106   27.210379   21.776386  0
 34.589821   29.099886   19.792187  0
 34.343506   30.291300   17.558928  0
  0.061764   26.341890   19.243513  0
 34.294277   29.935909   15.041416  0
 34.371899   30.545479   16.179968  0
 32.753021   30.300093   15.806832  0
 30.288774   29.023022   16.422178  0
 30.239231   28.110142   14.832391  0
 28.329584   27.230925   15.639798  0
 26.873354   27.180105   17.001654  0
 26.749712   26.619677   15.936520  0
  0.031510   26.571241   16.228218  0
 26.681849   26.657619   14.342468  0
 25.473019   26.615171   15.228888  0
  0.430009   26.597509   14.371135  0
 24.981852   26.771292   12.895458  0
  0.566068   26.163559   13.054158  0
 25.376411   27.470316   11.101604  0
 48.596840   31.128725    9.595424  0
 47.031498   31.765213    9.808568  0
 44.886070   31.880716   10.677418  0
 25.217192   27.774097    7.730579  0
 24.003740   27.199461    5.592319  0
 24.728050   27.715321    6.578503  0
  9.942076   25.294601    8.843864  0
 10.729285   26.317629   10.322869  0
 12.767465   24.882366    8.154548  0
  8.759536   27.005949   10.485642  0
  7.612043   26.945436    9.657593  0
  6.296293   26.842817    7.754400  0
  1.963989   26.809490    7.377975  0
 22.235682   25.162386    2.931238  0
 13.039335   24.337557    6.440082  0
 14.027255   23.489431    4.574741  0
  5.219782   26.198742    6.277200  0
  5.288531   26.184746    5.352851  0
  3.111241   25.704762    5.932528  0
 21.419283   24.650827    1.277892  0
 16.129349   23.637732    2.923464  0
  4.004188   24.830696    4.497291  0
  4.497393   25.938555    5.547393  0
  3.273723   23.829857    3.083941  0
 19.711428   24.478489    1.069036  0
 20.823704   24.871904    2.305951  0
 38.947758   29.848532    6.846591  0
 41.878262   28.874767    7.125785  0
 36.893799   31.610189    2.780582  0
 37.409897   31.202953    4.971944  0
 34.337166   30.598820    2.818978  0
 34.964645   30.811956    4.950188  0
 34.149670   29.292961    1.363058  0
 34.811867   28.857494   -0.291094  0
 35.684734   29.038771   -2.051519  0
 33.574463   28.940401    0.014994  0
 33.165951   28.491468    1.033793  0
 34.916077   28.758249   -1.360882  0
 27.203030   28.196016    1.087789  0
 26.058010   29.145758    0.961207  0
 22.670467   28.611242   -0.796181  0
 40.367989   27.969772   -3.624198  0
 42.221733   28.425709   -3.890390  0
 37.911129   27.839125   -3.643233  0
 45.195679   30.482189   -5.007837  0
 43.914883   29.239208   -4.181381  0
 45.979748   30.192659   -4.865878  0
 36.137894   26.036753  -12.000019  0
 31.707014   26.842884  -10.448256  0
 30.420803   28.373407  -13.063285  0
 21.409628   27.274620  -14.117364  0
 20.920424   27.996544  -13.680786  0
 17.548300   27.830023  -14.141317  0
 15.134421   26.886936  -13.260065  0
 46.556553   30.051958   -6.230511  0
 39.163990   25.556936  -14.925092  0
 37.966293   25.307682  -13.849896  0
 23.150541   27.270494  -16.238195  0
 14.489484   26.150488  -11.274081  0
 42.333862   26.868769  -14.494700  0
 40.804054   26.546030  -15.333450  0
 28.242071   27.988237  -17.137001  0
 45.489723   27.997276  -10.412436  0
