#!ascii file
 42.043976  -12.723838   53.930698  0
 41.256145  -12.224199   53.165802  0
 27.538231  -12.600161   53.133770  0
 28.446871  -12.746127   53.716549  0
 15.187621  -10.850701   51.872578  0
 39.648426  -12.776337   51.815727  0
 43.439289  -11.852262   51.115677  0
 37.248779  -12.330092   52.595703  0
 15.379365  -12.683167   50.525181  0
 42.050011  -11.929641   49.681126  0
 38.334251  -13.048425   50.592255  0
 36.928371  -12.766467   51.082157  0
  6.984558  -13.266547   50.581589  0
  4.072000  -13.060378   50.924637  0
 37.350529  -13.107003   50.116745  0
 14.633080  -12.440824   49.481907  0
  7.630517  -12.503999   48.473530  0
 13.332075  -12.725235   48.485416  0
 11.832330  -13.120915   48.228466  0
  9.893454  -13.147593   48.652328  0
  3.246120  -12.450844   49.696781  0
 40.238277  -10.828072   47.131077  0
  3.480004  -12.304066   47.502789  0
  4.105758  -12.115580   45.622684  0
  4.458508  -12.399640   44.024677  0
  4.337590  -12.014251   42.572365  0
 41.630310  -12.629422   39.678219  0
  4.611318  -12.294362   39.606377  0
 43.085777  -12.699301   38.222393  0
  5.677569  -11.792891   39.359474  0
 55.488476  -13.369606   36.892296  0
 54.326172  -12.763453   37.113903  0
 44.747467  -12.750859   36.992939  0
  9.113256  -12.439929   37.869293  0
  8.119362  -11.753252   37.045296  0
 52.768669  -12.165329   37.114727  0
 51.342548  -12.254266   36.755730  0
 47.315487  -12.040749   36.191551  0
 46.336758  -12.621863   36.311981  0
 52.045513  -12.686786   34.486858  0
 52.437973  -12.146809   35.978649  0
  4.789942  -11.409282   34.980125  0
 50.831524  -12.736640   33.071091  0
 44.221275  -13.210712   32.778996  0
 36.148514  -12.507437   33.943737  0
 34.769028  -12.304222   34.447731  0
 33.491024  -12.282445   34.399189  0
 32.382484  -12.080160   34.023418  0
 31.482544  -12.156301   33.209877  0
 47.324917  -13.146288   32.517700  0
 45.712872  -13.075381   32.557735  0
 43.100533  -13.053650   31.927221  0
 37.750725  -11.621823   32.939438  0
 37.129421  -11.730155   33.783611  0
  1.442244  -11.860085   33.605289  0
  2.729662  -11.355960   34.314171  0
  0.825645  -12.517112   32.974621  0
 49.656563  -12.962428   32.451271  0
 48.089325  -12.510623   32.389038  0
 46.103779  -12.211626   31.991434  0
 44.592331  -12.305971   31.560829  0
 41.446301  -13.408286   31.729298  0
 39.163689  -13.716825   30.893805  0
 30.048489  -13.244970   32.166744  0
  0.895269  -12.110647   32.372498  0
  1.287786  -12.852182   31.224977  0
 41.302380  -13.060597   30.817699  0
 38.857143  -12.903730   30.564787  0
 38.108013  -12.832155   31.160189  0
 29.941589  -12.993201   29.573889  0
  4.721936  -12.617420   28.156153  0
  3.183391  -11.804169   26.618952  0
 30.660442  -12.520260   25.596199  0
  2.198855  -12.400357   24.213339  0
  2.615646  -13.153854   23.784834  0
 60.566715  -12.463913   23.840345  0
 61.310856  -12.205634   23.549084  0
 57.906101  -12.521935   23.214308  0
 51.055225  -11.912643   24.082272  0
 61.504513  -12.146977   22.061319  0
 56.429638  -12.046573   23.112251  0
 47.692223  -12.891897   22.991646  0
 29.883518  -12.182551   21.959352  0
  1.740269  -12.864460   22.544538  0
  1.325499  -12.252802   22.335361  0
 54.157772  -11.705347   23.392155  0
 59.685841  -11.512260   20.971903  0
 46.395748  -12.510642   21.479729  0
 43.462574  -12.583385   20.774912  0
 42.180843  -11.860774   20.844578  0
 37.668449  -13.334800   20.105661  0
 38.980228  -12.064156   19.665562  0
 57.709888  -11.735680   20.078892  0
 55.188320  -12.374218   18.211105  0
 53.831188  -12.653659   17.778595  0
 51.516350  -12.232750   18.253574  0
 49.024456  -11.751909   18.409664  0
 37.841953  -12.695928   17.209389  0
 43.590256  -12.335225   16.399508  0
 36.400669  -12.578614   16.405413  0
 34.459663  -12.152807   16.255590  0
  3.775216  -12.590252   15.661511  0
 42.035992  -12.142026   15.261656  0
 40.982029  -11.734108   13.883025  0
  7.853745  -13.981912   13.496534  0
  8.730795  -13.913472   12.478798  0
  5.755061  -13.723694   13.275641  0
  4.453756  -13.194772   13.535230  0
  3.810632  -12.321693   14.071045  0
 40.110722  -12.534404   12.898794  0
  6.079235  -13.626773   12.099486  0
  4.342216  -13.192363   12.040296  0
  3.276876  -12.419462   12.472821  0
 10.776136  -13.807537   10.157477  0
  5.972520  -13.516155   10.042120  0
  4.069190  -13.143984    9.499922  0
  1.943980  -11.941115   11.274920  0
  2.285500  -12.457681   10.753339  0
 40.345387  -13.065022   10.929050  0
 40.299026  -11.859947   11.442986  0
  3.141375  -12.874278   10.202631  0
 61.050541  -12.890064    9.419900  0
 40.935032  -11.228745    9.249036  0
  3.125668  -12.664269    8.285258  0
  2.403520  -12.278030    9.437242  0
 62.046906  -12.516612    8.443820  0
 58.514923  -12.918287    8.697240  0
 47.781754  -11.995726    9.323676  0
 41.567833  -12.301221    8.925447  0
 29.220602  -12.395023    8.832592  0
 10.846293  -13.390054    8.993963  0
  7.890079  -13.310124    8.859985  0
  5.301048  -13.031855    8.048918  0
  2.646883  -11.769878    7.383446  0
 61.494953  -12.441415    7.582990  0
 55.730537  -12.557246    7.708246  0
 53.872559  -12.575213    7.635048  0
 51.489090  -12.153698    8.347268  0
 50.117069  -12.146141    9.288276  0
 47.518158  -11.317413    8.834792  0
 46.034187  -11.592701    7.961503  0
 44.736134  -11.793273    7.826508  0
 42.802528  -11.386238    8.012439  0
 28.378830  -12.490705    7.840950  0
 28.698519  -11.428279    8.370636  0
 27.718771  -11.891268    7.459413  0
 17.179409  -12.484511    7.645491  0
 13.848132  -13.320812    7.582130  0
 10.609983  -12.645809    7.886688  0
  7.677870  -12.587316    7.520757  0
 58.601536  -12.681822    6.914076  0
 37.381859  -12.504302    6.829695  0
 36.708931  -11.057837    6.891103  0
 38.019768  -12.260319    5.707087  0
 27.552942  -12.367516    6.753707  0
 14.510001  -11.868839    6.715083  0
 13.786407  -12.838591    7.320853  0
 13.932198  -13.391188    7.296990  0
 12.177045  -12.341579    7.449063  0
  6.355464  -12.321985    6.478093  0
  4.751341  -12.652241    6.406519  0
  3.719801  -12.502594    6.005608  0
  3.066051  -12.125490    5.872271  0
 57.066738  -10.823724    6.148567  0
 37.928093  -12.139574    4.559841  0
 23.650534  -12.332785    3.502801  0
 32.398712  -11.862099    2.201138  0
 33.651318  -12.356418    2.800206  0
 25.830994  -12.113905    2.233329  0
 24.660332  -12.204648    3.134597  0
 21.753813  -12.098004    1.332111  0
 53.611141  -12.049006    1.774190  0
 54.787994  -11.903666    0.941184  0
 41.312458  -11.800029    1.098745  0
 42.497314  -11.775211    0.231237  0
 39.936855  -12.101279    1.567152  0
 38.417229  -12.146311    1.777846  0
 35.079735  -12.306337    1.093248  0
 33.420341  -12.746964    0.410524  0
 58.996723  -12.963906   -0.110411  0
 58.682507  -12.361891    0.077052  0
 50.392548  -12.691800    0.284870  0
 48.635715  -12.839552    0.324179  0
 47.489918  -12.850227   -0.336815  0
 22.619154  -12.495546   -0.354115  0
 57.398064  -12.326630   -1.381152  0
 46.744106  -12.231647   -2.259126  0
 43.398254  -11.611609   -1.229864  0
 30.948435  -11.966448   -1.957524  0
 32.130882  -12.301567   -0.639202  0
 24.247082  -12.968856   -1.023506  0
 56.514854  -12.367546   -2.430508  0
 55.978683  -13.101827   -2.251884  0
 30.105303  -12.102101   -2.757545  0
 24.858421  -11.844295   -1.896222  0
 29.210196  -12.196066   -3.113197  0
 26.612284  -11.243109   -2.795913  0
 44.177074  -14.768388   -7.296939  0
 43.316875  -13.765731   -8.186979  0
 44.695290  -13.219582   -7.888552  0
  8.781827  -11.818063   80.784027  0
  7.945641  -11.795061   80.090622  0
 12.518093  -11.730405   77.348862  0
  7.490646  -11.970859   78.969383  0
  7.848029  -12.230546   77.728378  0
  6.491479  -11.740655   78.443977  0
 13.527006  -12.621340   75.030785  0
 12.969645  -11.895231   75.316177  0
  7.200327  -12.158009   76.829529  0
  3.683434  -12.373684   76.740074  0
  4.537124  -12.464936   76.673683  0
  4.023964  -11.768279   77.357819  0
  8.082619  -12.492752   75.503151  0
  6.542916  -12.692488   74.442146  0
  6.034095  -12.065438   77.369576  0
  3.276185  -11.876534   76.677429  0
  2.373623  -11.857047   75.036552  0
 13.353419  -12.109223   73.608139  0
  5.191565  -12.946304   74.653389  0
 13.025142  -11.572903   72.486382  0
 13.211801  -11.457334   71.248253  0
  2.052455  -11.364165   71.022362  0
 27.142565  -11.055486   71.546112  0
 26.098436  -11.710456   71.102043  0
 13.252308  -10.843057   69.959671  0
 28.483244  -10.046392   69.822960  0
 25.055696  -11.529843   70.412216  0
 16.210464  -12.444938   68.948334  0
 14.307405  -11.223674   69.013512  0
 27.957306  -11.394533   68.102806  0
 24.565138  -11.832278   68.802231  0
 17.230501  -12.088735   67.906166  0
 15.959251  -11.331988   67.981735  0
  2.563728  -11.592453   67.682228  0
 40.859676  -10.775860   67.318375  0
 38.154327  -10.576176   67.651909  0
 36.344685  -10.880535   66.780060  0
 23.491325  -11.550559   67.828773  0
 22.031206  -11.324628   67.128296  0
 18.947548  -11.828829   67.190353  0
  2.883012  -11.786278   64.942467  0
 40.964653  -11.066511   65.672653  0
 20.806618  -11.666448   66.854294  0
 27.337559  -10.922444   65.795303  0
 34.565762  -11.125870   64.349724  0
 34.013481  -11.253323   63.017071  0
 38.715572  -11.306069   61.004913  0
 32.878471  -11.744652   61.312634  0
  6.001757  -11.810894   61.909634  0
  3.943075  -11.681575   62.332455  0
  3.373202  -10.736559   62.029812  0
  8.133722  -11.665147   61.007282  0
 32.405827  -11.771798   59.635281  0
 31.403320  -12.014345   58.899010  0
  9.819735  -11.723736   59.762730  0
 11.304528  -11.680736   58.374943  0
 38.485855  -11.650726   57.724239  0
 38.618752  -11.508718   56.377045  0
 38.964611  -10.904058   59.372833  0
 31.536335  -11.911938   57.728622  0
 30.574360  -12.164346   56.627441  0
 24.862909  -10.992770   58.089157  0
 32.729488  -11.551509   55.103962  0
 30.780539  -12.056566   54.546158  0
 24.633909  -10.652952   55.046097  0
 13.782621  -11.426995   55.243549  0
 47.384357  -12.153044   56.015335  0
 47.437092  -11.822224   54.951611  0
 46.921989  -11.804710   56.489902  0
 45.847111  -11.745896   56.203899  0
 44.321365  -11.655927   55.403717  0
 38.047878  -11.692353   54.504700  0
 32.154022  -11.696173   53.239075  0
 46.480751  -11.752651   53.625999  0
 42.917412  -11.844658   54.247417  0
 29.738394  -12.491673   53.264782  0
 38.198647  -12.028079   52.240097  0
 32.050617  -11.958548   51.334435  0
 29.290838  -12.578465   52.108318  0
 25.785688  -11.548151   53.112286  0
 44.774315  -11.467498   52.240055  0
 40.588875  -11.713736   52.943851  0
 39.051697  -12.070870   52.130817  0
 33.499725  -11.102255   52.683281  0
 31.128160  -12.276758   50.509960  0
 29.076176  -12.400842   51.077263  0
 27.231758  -12.085653   51.767597  0
 29.201981  -11.978693   49.999729  0
 27.681143  -11.709645   50.702389  0
 26.492523  -11.303143   51.713490  0
 15.132028  -10.592990   50.927673  0
 32.560902  -11.639247   49.433350  0
 30.910898  -11.972595   49.444420  0
 14.707986  -10.950605   49.477394  0
  4.665809  -12.186682   49.925831  0
 41.035683  -11.013780   48.459507  0
 29.499084  -11.045479   49.138565  0
 13.797006  -11.684692   48.201538  0
  6.084198  -12.232730   49.305325  0
 12.515299  -12.172581   47.332333  0
 11.213890  -12.571748   47.419136  0
  9.145866  -12.665831   47.828976  0
  6.307765  -11.332617   47.754864  0
  5.004667  -11.349302   48.756783  0
  3.828662  -11.392012   49.026550  0
  5.276833  -10.554891   47.885792  0
  3.277722  -11.187266   48.309052  0
  9.896774  -12.145442   46.260109  0
  8.713399  -12.048350   46.359154  0
  7.726335  -11.639709   46.482635  0
  3.345857  -11.001835   46.980030  0
 39.707317  -11.156798   46.145481  0
  8.775472  -10.997613   45.064507  0
  7.206844  -10.735230   45.997482  0
  4.314496  -11.178573   44.776134  0
 39.238239  -11.515377   44.815968  0
 11.155807  -11.025454   45.054615  0
  9.957295  -11.264658   45.002640  0
 39.298286  -12.036038   43.033314  0
  4.466516  -10.774094   43.047962  0
  3.942608  -11.119380   41.135731  0
 40.735268  -11.816303   40.742973  0
  4.101764  -11.509107   40.070118  0
 42.202141  -11.661005   38.892944  0
  8.749719  -10.980827   39.181446  0
  9.063624  -11.477310   38.512592  0
 42.958061  -11.503515   38.123177  0
  8.882843  -11.014025   38.024094  0
 44.701447  -11.850341   36.939079  0
 52.250149  -11.303938   36.798763  0
 51.221203  -11.444139   37.045132  0
 50.993134  -11.168446   35.576839  0
 48.956509  -11.227979   36.615173  0
  6.243791  -10.023125   36.266048  0
 49.077007  -11.679058   33.440845  0
 50.206829  -11.383972   34.712234  0
 35.237320  -11.004537   34.391102  0
 37.055378  -10.900859   33.976349  0
 48.758663  -12.072816   32.675606  0
 38.709415  -11.594764   31.080032  0
 31.063707  -11.897962   31.906864  0
  1.094723  -11.196619   33.374653  0
 46.644016  -11.510408   32.440628  0
 43.011189  -12.064062   30.579580  0
  1.303859  -11.711696   31.662777  0
 44.939487  -11.375615   31.675125  0
 43.690861  -11.480800   30.744223  0
 41.711075  -11.986609   30.005695  0
 40.224483  -12.508383   30.219707  0
 30.690144  -12.277631   30.071415  0
 40.958973  -11.011476   29.555302  0
 39.665146  -11.480384   30.186069  0
  4.497098  -11.837502   29.777956  0
  3.473969  -11.548034   30.403502  0
 31.273087  -12.120209   28.677080  0
 31.327278  -11.423740   30.273043  0
 31.854727  -11.361161   28.176769  0
  4.541592  -11.650794   29.128504  0
 31.498753  -11.985547   27.043356  0
 32.333149  -10.920195   26.672878  0
  3.720116  -10.828182   28.394018  0
 31.962893  -11.117375   25.050842  0
  2.068892  -11.015610   25.074869  0
 30.461979  -12.233570   24.264206  0
 59.688976  -11.420465   23.604132  0
 58.077400  -11.689239   23.258507  0
 50.284416  -11.767557   24.019653  0
 49.323208  -11.948194   23.674139  0
 30.351755  -11.385573   22.924099  0
  1.297893  -11.331366   23.765818  0
 52.852993  -11.293211   23.617430  0
 48.436295  -11.642031   22.099463  0
  0.838204  -10.170414   23.002398  0
  0.846932  -10.642365   20.987963  0
 60.663670  -10.671111   21.353476  0
 47.561726  -10.933980   21.083824  0
 45.275986  -11.742512   20.775215  0
 46.369236  -11.452811   20.924213  0
 41.606483  -10.996087   20.726768  0
 40.783905  -10.733939   20.383801  0
 30.562834  -11.479117   20.234051  0
 44.070877  -10.826096   20.685425  0
 39.856228  -11.028634   19.856932  0
 31.264444  -11.848571   19.094833  0
  1.453294  -11.783624   19.537231  0
 55.958061  -11.327919   18.626102  0
 56.841969  -11.324670   19.091148  0
 54.843037  -11.237412   18.479816  0
 52.437759  -11.042743   18.804508  0
 50.808041  -11.256949   18.697001  0
 48.249741  -10.734587   18.105597  0
 40.099155  -10.610723   17.842306  0
 31.451721  -11.225370   18.494833  0
  2.148237  -11.707434   18.093277  0
  1.227899  -10.203507   18.534536  0
 45.856743  -11.188581   17.106161  0
 39.077587  -10.904838   16.179310  0
  2.929425  -10.205689   15.961878  0
 44.820293  -10.060299   16.026098  0
 37.879005  -11.942134   16.210175  0
 35.711834  -11.560562   15.421141  0
 32.690250  -10.972293   16.633617  0
  3.289968  -10.843792   14.619038  0
 37.219734  -11.137815   15.311928  0
 34.020084  -10.202349   14.776482  0
  2.911489  -10.904515   13.146179  0
 40.547234  -10.910295   11.935176  0
  1.887557  -10.972808   11.743327  0
 40.606487   -9.958350    9.724896  0
  1.060290  -11.343284   10.628270  0
  1.181116  -11.087331   10.982773  0
  1.288238  -11.356104   10.089685  0
 61.616432  -11.660268    8.636606  0
 59.770554  -11.896551    8.474857  0
 62.383038  -10.729400    8.166792  0
 57.304333  -11.623627    7.725781  0
 50.099190  -10.768043    9.815578  0
 33.999870  -10.961337    8.991178  0
 32.828850  -10.860600    9.169941  0
 35.212170  -10.956599    8.059347  0
 30.232563  -10.723248    8.676293  0
  1.940632  -10.989956    8.998142  0
  2.382614  -10.734398    7.606153  0
 62.336208  -10.910472    7.760575  0
 55.132244  -11.332747    7.561567  0
 53.245319  -11.510760    7.837207  0
 18.455238  -11.014529    6.899484  0
 60.718796  -11.635381    6.921462  0
 61.884068  -10.791002    7.234643  0
 23.130922  -10.977395    7.196081  0
 16.364031  -11.545360    6.572722  0
 13.126526  -11.675049    6.857635  0
 12.318914  -11.311336    6.510328  0
 10.070104  -11.399825    6.262049  0
 58.903442  -11.014156    6.541683  0
 37.605656  -10.771181    5.814117  0
 37.971886  -10.915453    4.971883  0
 25.767899  -11.769270    6.688618  0
  6.253838  -11.526042    4.634621  0
  8.036114  -11.058084    4.800809  0
 55.171288  -10.534114    5.672297  0
 54.399246  -10.013159    5.318351  0
 52.822868  -10.551004    4.228570  0
 53.556393   -9.354386    4.749135  0
 37.356422  -11.460777    3.890090  0
 37.603897  -10.363422    3.981630  0
  4.810681  -11.718192    4.083259  0
  2.819579  -10.908801    4.033698  0
 52.626804  -10.975590    3.432241  0
 34.777542  -11.324512    2.950992  0
 22.748775  -12.154616    3.175995  0
  3.870702  -11.292647    2.676978  0
  3.387143  -11.478903    3.231753  0
 23.559502  -11.757772    3.176258  0
 22.419497  -11.028215    2.198126  0
 30.294977  -11.275197    0.858658  0
 27.111883  -11.212309    0.987013  0
  2.988917  -10.151402    2.431187  0
 37.440083  -11.283516    1.411287  0
 34.286434  -11.196077   -0.316296  0
 28.362253  -11.471334    0.764376  0
 58.787277  -12.335827   -0.172671  0
 57.427509  -11.478989   -0.046689  0
 55.930473  -10.244188    0.028838  0
 51.045769  -11.910912   -0.530387  0
 49.565105  -11.930176   -0.311572  0
 21.861832  -11.473770   -0.100823  0
 57.939545  -11.602933   -0.637217  0
 57.290070  -11.139338   -1.852569  0
 53.108131  -12.156193   -1.499615  0
 54.505913  -12.347869   -2.502065  0
 48.093159  -11.916697   -0.878891  0
 43.328300  -10.400978   -0.684972  0
 22.414160  -11.035127   -1.062665  0
 56.331844  -11.493912   -3.485458  0
 55.585075  -12.410767   -2.844478  0
 54.796391  -11.854047   -3.579810  0
 28.311323  -11.740032   -3.259987  0
 30.565199  -10.633914   -4.045288  0
 29.140316  -10.971468   -3.881847  0
 47.437603  -11.331386   -5.546390  0
 46.683746  -11.487001   -4.132721  0
 45.940266  -11.969925   -4.762432  0
 46.290653  -11.989704   -6.866049  0
 47.638245  -11.211801   -8.376438  0
 47.914162  -11.344830   -7.477118  0
 47.885487  -11.917090   -8.145295  0
 47.399063  -12.056329   -8.071493  0
 47.491611  -11.455697   -6.853959  0
 45.926193  -12.510666   -8.104867  0
 47.339340  -12.117291   -8.829535  0
 44.743477  -12.716010   -8.808726  0
 43.272152  -12.658489   -8.731688  0
 45.621449  -11.925255   -9.198627  0
 43.832981  -12.096357   -8.983052  0
 10.536105  -10.522919   80.022202  0
 11.560107  -10.702956   78.715790  0
  8.696568  -10.585107   80.646088  0
  7.211926  -10.634933   80.436440  0
  5.999129  -11.253580   79.124672  0
  6.072496  -10.152356   79.787041  0
 11.752279  -10.833577   75.647697  0
  4.946687  -10.836870   78.534851  0
  3.565760  -10.923662   76.889877  0
  3.122844  -10.449733   75.453735  0
  2.486169  -10.838447   74.102310  0
 11.527752  -10.414095   73.922523  0
  2.549417  -10.191151   72.419563  0
 27.646257  -10.019382   71.969559  0
 26.647135  -10.137033   72.712791  0
 25.200087  -10.602786   71.936157  0
 25.157764   -9.935796   72.707466  0
 28.089727  -10.027041   70.844711  0
 24.472996  -10.698620   71.004005  0
 24.471508  -10.095882   71.792709  0
 23.749678   -9.835915   70.992134  0
 11.916324  -10.161860   71.566292  0
 23.641924  -10.095070   69.883263  0
  2.656317  -10.688650   68.938942  0
 23.816589  -10.676207   69.063591  0
 13.841759  -10.382554   69.002571  0
 28.277315  -10.307383   68.535217  0
 15.188486  -10.470842   68.152817  0
  3.760881  -10.035613   66.903137  0
 40.657310   -9.802558   67.668434  0
 41.438118   -9.301104   66.868034  0
 39.785526   -9.489849   67.945107  0
 28.087399   -9.723207   67.493187  0
 18.132313  -10.605164   67.356209  0
  3.735938  -10.509269   66.228088  0
 41.298084  -10.080066   66.159363  0
 35.595608  -10.545260   66.040482  0
  4.013923   -9.933227   65.378624  0
  3.432778  -10.439048   63.751324  0
 40.066463  -10.460884   64.052124  0
 26.535332  -10.574552   64.002907  0
  3.257125  -10.068389   62.380787  0
 39.407635  -10.748116   62.517471  0
 34.149662  -11.056505   62.176689  0
 33.934883  -11.216548   60.825329  0
 25.827473  -10.643378   61.619698  0
  5.065369  -11.314266   61.536106  0
 25.224096  -10.628615   59.798401  0
  7.128203  -10.717176   60.413857  0
  8.880999  -11.088510   60.077179  0
  4.050705  -10.828983   61.217026  0
 33.810902  -11.490102   58.398872  0
 35.158005  -10.939823   59.696987  0
 36.558773  -10.099032   59.414978  0
 35.441895  -10.796679   57.842300  0
 10.509357  -10.972933   58.493561  0
 39.303001  -10.856739   57.841686  0
 34.266674  -11.219081   56.430054  0
 24.698067  -10.206124   56.663673  0
 12.649076  -10.950560   56.357796  0
 48.280521  -11.243571   56.318977  0
 47.968418  -11.029308   56.882702  0
 48.640079  -10.099597   55.875729  0
 47.445251  -10.675479   54.385246  0
 44.331139  -10.548513   55.273018  0
 39.731663  -10.642538   55.467388  0
 33.920719  -11.060381   54.703697  0
 14.665851  -10.908853   53.602493  0
 42.887100  -11.017133   54.276283  0
 39.362206  -11.082724   53.839733  0
 25.156286  -10.676985   53.593334  0
 45.761242  -10.848908   52.940338  0
 41.838100  -10.792021   53.958054  0
 40.533119  -10.927087   53.656944  0
 26.019646  -10.499987   52.070885  0
 35.330791  -10.119178   54.297066  0
 35.825680   -9.776760   52.274986  0
 34.148369  -10.885567   50.156101  0
 27.324053  -10.729162   50.712074  0
 42.214008   -9.262799   49.922817  0
 32.396000  -10.817625   48.077049  0
 31.230402  -11.162429   48.380875  0
 29.100073  -10.198680   49.338089  0
 30.636045   -9.645037   48.152390  0
 13.901914  -10.491262   47.508694  0
 34.524811  -10.315221   48.812592  0
 31.054014  -10.419739   47.997978  0
  4.165753  -10.562205   48.337631  0
 12.846710  -10.554501   45.787228  0
  3.402432  -10.153223   48.154018  0
  3.069339   -9.979686   47.648960  0
  4.182734   -9.645951   47.779404  0
 12.206136  -11.092049   45.618095  0
  5.579386   -9.612044   46.902843  0
  3.316894  -10.210796   46.193993  0
  7.791817   -9.821245   44.898067  0
  3.434579   -9.661119   45.595062  0
 39.751732  -10.811573   43.902184  0
  9.967009  -10.092273   44.189365  0
  4.309620  -10.032279   43.960007  0
 40.504601  -10.961707   41.835495  0
  3.821822  -10.276855   40.421169  0
 41.625313  -10.649130   40.124390  0
  4.452064  -10.432734   39.668636  0
  8.110549  -10.302562   39.473877  0
  9.029104  -10.236444   38.754562  0
  7.279097   -9.189117   39.664814  0
  5.538037   -9.435791   39.556812  0
 42.700356  -10.436519   38.884720  0
 52.659275  -11.049397   37.632763  0
 53.375618  -10.038539   37.577312  0
 53.435337  -10.390124   38.243183  0
 52.201893  -10.623382   38.152988  0
 50.315044  -10.421650   37.539028  0
 45.238693  -10.842813   37.024296  0
 43.769276  -10.216009   38.132236  0
  8.383919   -9.677541   37.750900  0
 46.543781  -10.516938   36.922375  0
 50.835495  -10.405113   35.823769  0
 49.300636  -10.168566   35.008842  0
  3.929279   -8.646520   35.403225  0
 47.539146  -10.331915   33.980076  0
 33.486767  -10.427012   34.157467  0
 32.448883  -10.526432   33.436050  0
  1.451372   -9.348829   34.244812  0
 38.878796  -10.026825   31.804462  0
 31.810598  -10.746985   32.410831  0
  0.810946   -9.576524   33.143169  0
 45.807575  -10.384255   32.915676  0
 44.969093   -9.813468   32.475861  0
 43.977451  -10.674208   31.060610  0
 31.581997  -10.689455   31.097050  0
  1.257063  -10.287753   31.947897  0
 42.999714  -10.228112   30.004816  0
 39.799187   -9.780482   30.436628  0
  2.715376  -10.059997   30.805441  0
  3.578556  -10.730865   30.189104  0
 41.984577  -10.039482   29.276392  0
 40.784508  -10.049291   29.463497  0
 31.802135  -10.550352   29.390678  0
 32.217747  -10.235584   27.617065  0
 32.941383  -10.036077   25.482496  0
 60.432663   -9.156924   23.440142  0
 58.982819   -9.094352   23.585434  0
 57.992355  -10.467758   23.497923  0
 31.552118  -10.272161   23.286644  0
 32.709576  -10.157567   24.538576  0
 61.506481  -10.061598   23.062012  0
 61.555153  -10.539554   22.169302  0
 55.019001  -10.412103   23.602058  0
 51.831142  -10.809861   23.439695  0
 50.308758  -11.044463   22.916935  0
 30.338739  -11.013921   21.592793  0
 58.972420  -10.416405   20.424715  0
 50.375084  -10.220584   21.908503  0
 49.039684  -10.215468   21.197327  0
 57.211922  -10.369813   19.282547  0
 46.380470  -10.082798   20.785585  0
 43.072208   -9.800280   20.701782  0
 52.960220   -9.685120   19.168383  0
 50.441166  -10.082366   18.748854  0
 41.029408   -9.849376   19.218340  0
  2.112738   -9.949202   17.260807  0
 42.639923  -10.733672   14.879787  0
 40.854099   -9.392657   16.747704  0
 32.961460   -9.756679   15.397482  0
 37.825253   -9.503826   14.451904  0
 41.933155   -9.638855   13.356218  0
 36.268120   -9.548577   13.960071  0
 34.992172   -9.309076   13.837758  0
 40.974167   -9.973064   12.228645  0
 61.753948   -9.852427    8.265024  0
 60.646984  -10.638711    8.203115  0
 58.991112  -10.792360    7.735547  0
 49.804779   -9.573616    9.711965  0
  1.998199   -9.248783    8.580747  0
 58.202236  -10.264270    7.550786  0
 56.576237  -10.397559    7.584662  0
 55.708065   -9.692997    7.875669  0
 54.241375   -9.958942    8.141455  0
 52.285309  -10.750584    8.611874  0
 47.198578   -9.941083    7.728010  0
 41.985638   -9.794131    7.878926  0
 31.701153   -9.624650    8.362787  0
 26.782246  -11.389709    7.160778  0
 27.130810  -10.591853    7.777647  0
 20.407322  -10.540063    7.165306  0
 45.561256  -10.107268    7.218281  0
 43.701969   -9.715575    7.131855  0
 17.124004  -10.374773    5.672278  0
 61.379166  -10.155842    6.801030  0
 60.390347   -9.404294    6.538803  0
 25.814800  -10.520214    7.211983  0
 24.091949  -10.256312    7.083663  0
 16.028070  -10.677734    5.331181  0
 14.899061  -10.401239    4.565330  0
 13.693117  -10.763167    5.148439  0
  2.519386  -10.120390    5.375723  0
 15.829116   -9.587586    4.164113  0
  9.836100  -10.685149    4.318611  0
 36.764473  -10.459896    3.376474  0
  7.062319  -10.375916    3.362044  0
  5.950105  -10.866406    3.599267  0
 53.025940   -9.870772    1.849253  0
 23.132900  -10.771029    2.639805  0
  5.117833  -10.371747    2.534219  0
  4.279491  -10.065170    1.713095  0
 32.822769  -10.688421    1.732322  0
 25.244539   -9.597175    1.692366  0
 24.298178  -10.460467    2.506283  0
 21.816996  -10.166245    0.591860  0
 54.143902  -10.294458    0.813330  0
 41.414787   -9.469598    0.737318  0
 40.014835   -9.864806    1.028078  0
 36.349403  -10.142317    0.085193  0
 26.682022   -9.691770    0.498960  0
 13.279445  -10.378283    1.724579  0
 13.679307  -10.952720    0.990659  0
 13.869046  -10.462901    1.168197  0
 12.541681  -10.363025    0.582247  0
  3.349840   -9.671906    1.540567  0
 29.786732   -9.998551   -0.255066  0
 21.867672  -10.132293   -0.850327  0
 12.593755   -9.708622   -0.406992  0
 57.527088   -9.752358   -0.975754  0
 57.393494   -9.748222   -2.031080  0
 51.550213  -11.403570   -1.614373  0
 49.435711  -11.226565   -1.543552  0
 47.730160  -11.442668   -2.167568  0
 43.551506  -10.081270   -1.539107  0
 32.348770  -10.949920   -1.867391  0
 13.719059   -9.948225    0.430050  0
 52.512012  -11.423656   -2.635032  0
 50.385326  -11.112173   -2.559052  0
 47.702080  -11.131988   -3.350774  0
 43.206818  -11.867173   -2.531807  0
 43.194023  -10.407783   -2.851885  0
 31.397017  -10.616417   -3.431834  0
 23.091812   -9.538764   -2.072042  0
 24.846378   -9.990296   -2.637158  0
 56.368458  -10.664971   -3.943576  0
 55.391106  -11.461274   -4.698324  0
 56.049332  -11.206005   -4.562596  0
 53.685345  -11.285577   -4.685564  0
 53.318897  -11.503790   -3.795104  0
 51.778511  -11.399937   -3.374099  0
 55.572601  -10.439561   -4.681696  0
 54.602505  -10.862103   -5.147752  0
 51.162552  -11.503917   -4.800249  0
 50.393204  -11.172147   -5.034065  0
 51.954651  -10.700185   -4.729603  0
 50.448486  -11.572759   -4.400012  0
 52.053844  -11.415727   -4.402039  0
 49.481873  -11.320342   -5.034313  0
 48.697136  -11.282622   -4.770987  0
 48.232784  -11.167875   -4.029543  0
 50.189621  -10.109377   -4.671158  0
 49.506813  -10.768233   -5.249617  0
 48.351429  -10.902710   -5.726063  0
 42.145096  -11.881248   -4.727568  0
 48.567295  -10.281974   -5.578992  0
 48.165878  -10.434652   -6.377482  0
 48.052292  -10.346992   -7.134309  0
 41.597790  -12.436713   -7.096320  0
 42.745075  -12.283000   -8.043141  0
 41.643562  -13.235606   -7.656477  0
 42.211113  -10.936661   -6.750095  0
 43.776855  -11.095424   -8.247515  0
 46.900330  -11.181106   -8.962605  0
 44.347363  -11.448782   -8.975131  0
 45.625198  -11.257863   -9.101420  0
  8.595854   -9.561729   80.129639  0
  7.735489   -9.545086   80.330063  0
  6.850286   -9.116220   79.922066  0
  5.732204   -9.243024   79.192841  0
 10.584107   -9.760199   77.312027  0
 10.631415  -10.106217   78.667191  0
  4.653560   -9.530975   77.804802  0
  3.867996   -9.861262   76.595543  0
 10.248000   -9.027708   76.033348  0
  3.787438   -9.563151   74.631783  0
 10.964624   -9.582089   73.674889  0
  3.324715   -9.746371   73.127060  0
 25.896656   -8.771353   73.464455  0
 25.236910   -8.980756   73.216438  0
 27.307226   -8.886677   72.854774  0
 24.964977   -9.196414   72.239311  0
 24.950308   -8.560893   73.195549  0
 24.735804   -9.630733   71.991280  0
 28.252096   -9.141297   71.675873  0
 23.899944   -9.457269   71.939056  0
 11.181259   -9.158151   72.317863  0
 28.986349   -9.008671   71.045868  0
 12.043851   -9.302846   70.819160  0
  2.617511   -9.588579   71.233902  0
 13.717764   -9.566729   69.217056  0
  2.561853   -9.648623   70.371666  0
 28.692596   -9.463305   68.778648  0
  2.687742   -9.528508   69.349503  0
 22.161755  -10.222688   67.932808  0
 22.597157   -9.566361   69.429008  0
 15.854830   -9.731833   68.095505  0
  3.172266   -9.486253   68.107468  0
 38.979130   -8.813061   67.921791  0
 37.769917   -8.925525   67.554474  0
 20.358885  -10.181630   67.384026  0
 18.237431   -9.616683   67.726395  0
 36.472355   -9.648978   66.746696  0
 35.700195   -9.927548   65.725883  0
 27.030005   -9.456886   65.843155  0
 41.164276   -9.696583   65.204918  0
 26.017403   -9.340455   63.423187  0
 35.501282  -10.030594   64.164932  0
 40.251202   -9.692955   63.398888  0
 35.841988  -10.237870   61.967701  0
  3.636614   -9.078515   62.433060  0
 39.810078  -10.150294   61.516727  0
 40.609867   -9.252464   62.355656  0
 37.251045   -9.116873   63.343464  0
 25.530724   -9.716886   61.021797  0
 40.999130   -9.442372   60.638405  0
 25.203297   -9.813913   59.352337  0
  4.636129  -10.270532   60.190186  0
  3.586580   -9.767925   60.232700  0
  3.225064   -8.856942   60.061092  0
 40.268143  -10.130079   58.741768  0
 37.700439   -8.926764   61.654358  0
  9.071840  -10.093427   58.255062  0
  4.911123   -9.152992   58.228592  0
  7.507690   -9.277571   57.479721  0
 36.664116   -9.553947   56.251633  0
 11.502527  -10.113697   56.420422  0
 41.206150   -9.675574   56.681690  0
  9.630674   -9.111238   55.976597  0
 48.543091   -9.642395   57.083687  0
 46.845669  -10.426000   56.784466  0
 47.933529   -9.501752   54.967148  0
 41.443825  -10.017445   54.943916  0
 37.186352   -9.048481   53.725330  0
 13.807347  -10.135839   54.073631  0
 12.771603   -9.748312   54.766388  0
 11.228651   -8.691816   54.295086  0
 43.594231   -9.801105   55.388905  0
 45.243137   -9.167356   52.964478  0
 13.838227   -9.181078   52.568783  0
 43.558880   -9.433514   51.504440  0
 25.660393   -9.400038   53.253883  0
 26.846363   -9.150459   51.945312  0
 14.707814   -9.824078   50.183769  0
 41.475445   -9.148656   48.853149  0
 28.661051   -9.541859   50.075718  0
 14.310969   -9.729768   48.541603  0
 41.056290   -9.068408   47.810356  0
 34.195480   -9.682837   47.592354  0
 29.956167   -9.320466   49.056995  0
 40.342880   -9.904499   46.186123  0
 32.186382   -9.038061   46.932899  0
 13.564157   -9.286734   46.821728  0
 12.982520   -9.202109   45.357578  0
  5.058026   -8.664149   46.831841  0
  3.637130   -8.915832   47.440109  0
  2.912769   -9.222981   46.983437  0
 12.108340   -9.571137   44.540703  0
  6.615860   -8.842913   45.454483  0
 41.383812   -9.998800   41.895340  0
 40.640968   -9.861830   44.209213  0
 10.894652   -9.247194   43.918545  0
  9.242110   -9.080498   43.905617  0
  3.384186   -8.761844   45.117420  0
 42.449463   -9.874008   39.730221  0
  3.667191   -8.194360   41.616562  0
  3.764534   -8.800146   40.141651  0
  4.551095   -8.095704   39.763420  0
 54.274315   -9.801034   38.764366  0
 54.796055   -9.696087   39.237808  0
 54.095856   -9.224957   39.220737  0
 53.451641   -9.920471   38.932919  0
 51.449154   -9.676621   38.288723  0
 55.441605   -9.549623   38.832279  0
 54.311314   -9.793741   38.080383  0
 49.302803   -9.274370   37.750023  0
 48.044407   -9.943350   37.290646  0
 45.324772   -9.072395   38.334366  0
 52.610954   -9.097441   36.799706  0
 50.953613   -9.473162   36.000671  0
 48.808590   -9.000384   34.904945  0
 46.593712   -9.386451   33.820190  0
 36.812794   -9.203974   34.083817  0
 34.800922   -9.120311   34.485573  0
 33.507759   -9.006814   34.284264  0
 38.208233   -8.890808   33.230270  0
 39.093849   -8.745912   32.053558  0
 32.732384   -8.913697   33.829720  0
 31.876150   -9.521667   32.228168  0
 43.656967   -9.820405   30.746550  0
 31.700375   -9.711760   30.637442  0
  0.595193   -8.130435   32.673809  0
  1.164686   -7.976181   31.820383  0
  3.527505  -10.078230   29.637550  0
 40.791862   -8.796581   29.412258  0
 31.704912   -9.415851   29.546373  0
  3.135106   -9.466829   28.438637  0
 32.609596   -9.640288   26.472012  0
  2.111450   -9.505624   26.015772  0
 33.458660   -9.616077   24.404377  0
  1.201473   -8.703518   24.816139  0
 56.572155   -9.476655   23.635899  0
 53.445610   -9.763423   23.208937  0
 30.826008  -10.417898   22.213198  0
 51.961761   -9.862417   22.587889  0
  0.615910   -8.704074   21.289040  0
 50.919224   -8.861597   21.254736  0
 49.060692   -8.969023   20.707506  0
 31.421741   -9.929042   20.303234  0
 58.555901   -7.918443   20.400829  0
 44.789780   -8.799485   21.016954  0
 42.560963   -9.134403   20.342558  0
 42.079216   -8.952058   19.623446  0
  0.751998   -8.187903   19.800606  0
 55.976971   -9.795144   19.063751  0
 57.207829   -8.746752   19.556406  0
 31.883297  -10.024414   17.388798  0
 42.055698   -8.837563   18.032904  0
 46.923447   -9.261572   17.046242  0
  1.257554   -8.419713   18.244286  0
 40.457027   -8.991394   15.970377  0
 39.557335   -8.661228   15.065370  0
  2.675498   -8.297497   14.560151  0
 43.930538   -8.759349   14.573666  0
  2.333104   -8.692768   12.914595  0
  1.222234   -9.476903   11.011724  0
 40.606281   -9.349546   10.540609  0
  1.291451   -8.877648    9.866570  0
 62.365730   -8.905361    8.049802  0
 60.289970   -9.667495    7.960025  0
 51.551445   -9.746573    9.815170  0
 50.925488   -8.966712    9.917108  0
 53.100906   -9.263855    9.170943  0
 49.045563   -9.475737    9.042871  0
 41.207096   -8.398752    8.241670  0
 59.096630   -9.430237    7.680771  0
 57.516388   -9.415172    7.714667  0
 34.489925   -9.666111    7.634544  0
 33.028111   -9.890262    8.462770  0
 27.071041   -9.574308    7.820869  0
 35.947479   -9.899351    6.940032  0
 25.198490   -9.720857    7.227725  0
 61.893024   -9.261060    7.089188  0
 36.810776   -9.095389    5.823262  0
 18.651323   -9.338927    6.148573  0
 21.345192   -8.961619    6.835126  0
 11.876587  -10.759400    5.135087  0
 58.509693   -9.150199    6.300555  0
 56.039616   -9.046214    5.706019  0
 37.456802   -9.012826    5.007377  0
 37.463783   -8.303506    4.125219  0
 16.563560   -8.637811    4.271509  0
 53.303665   -7.981494    4.197723  0
 52.806519   -8.393657    3.493073  0
 52.837376   -7.621475    2.099350  0
 37.231827   -8.877516    3.242180  0
 13.764890  -10.265951    3.763301  0
 12.573168  -10.380343    3.177705  0
 10.735646  -10.384007    2.729852  0
  8.377655  -10.051642    2.581916  0
 36.444138   -9.377460    2.745208  0
 35.258068   -9.833479    2.324318  0
 24.073225   -9.200529    2.021759  0
 23.088234   -9.483953    1.996858  0
 14.369098   -9.802988    2.886869  0
 10.470153  -10.147707    0.940125  0
 53.671841   -7.640152    0.785485  0
 38.940083   -9.443088    0.747465  0
 37.898212   -9.218184    0.183034  0
 22.398350   -8.873685    1.052229  0
 14.263857   -9.520842    1.647996  0
  7.909550   -9.451852    0.240509  0
  3.861460   -9.630290    1.236523  0
 54.528244   -8.298559    0.251345  0
 42.748299   -8.020826   -0.101889  0
 31.802673   -9.313534   -0.222212  0
 28.187702  -10.011191   -0.099328  0
 10.530229   -9.869608   -0.112464  0
 33.755180   -9.541219   -2.310843  0
 13.465083   -8.972863    0.138092  0
 43.564827   -8.913345   -2.250096  0
 32.301041  -10.013978   -3.063636  0
  9.371326   -9.168532   -0.585256  0
 11.758858   -8.999175   -0.735867  0
 56.832516   -9.572392   -2.937762  0
 32.442455   -9.115236   -4.317057  0
 54.657269   -9.948642   -4.932869  0
 53.865044  -10.273387   -5.073282  0
 42.847664   -9.125504   -3.841214  0
 26.975328   -9.540901   -3.865059  0
 51.807976   -9.203502   -4.433071  0
 50.358860   -8.608238   -4.027178  0
 41.926582  -11.071380   -5.728726  0
 29.789700   -9.802423   -4.638304  0
 49.051872   -9.577784   -4.767571  0
 48.005825   -9.426975   -5.532624  0
 47.810898   -9.621648   -6.568273  0
 42.337990   -9.048410   -6.168348  0
 42.718620   -9.652314   -6.751555  0
 47.213791   -9.864064   -7.951659  0
 46.784061  -10.530142   -8.549802  0
 45.846519   -9.585680   -8.167913  0
 45.579483  -10.560627   -8.613388  0
 44.145775   -9.670417   -7.705779  0
  8.892275   -9.255002   79.299797  0
  9.948171   -9.471190   78.221069  0
  9.210729   -8.289854   77.708130  0
  5.621001   -7.698033   78.073647  0
  4.911943   -8.447028   77.192825  0
  4.749446   -8.549294   76.030624  0
 10.366415   -8.224204   74.239662  0
  4.528498   -9.151469   73.238876  0
 26.693844   -7.779157   73.323555  0
 23.988344   -8.883787   73.017967  0
 11.050802   -8.165669   72.264374  0
  5.463639   -8.300748   73.652191  0
 28.173563   -8.500564   72.175003  0
  4.775196   -8.908220   71.973511  0
  3.376564   -9.114295   71.561676  0
 22.387173   -8.469768   72.341553  0
 11.781950   -7.837012   71.505974  0
  4.554986   -8.562906   70.894081  0
 29.525351   -8.636607   70.494217  0
 29.641556   -8.245222   69.396858  0
 13.124833   -8.635761   70.051567  0
  3.213521   -8.580800   70.707321  0
 20.786779   -8.625100   70.081932  0
 20.314318   -9.354749   68.193611  0
 15.122231   -8.736204   69.044777  0
  2.525519   -8.605309   70.011742  0
  2.530102   -8.654602   68.914558  0
 29.042509   -8.335933   68.348572  0
 27.826172   -8.612086   67.013222  0
 17.836439   -8.961018   68.407051  0
 18.930063   -8.532344   69.185768  0
  3.207301   -8.254155   67.321457  0
 26.821878   -8.543856   65.502495  0
  3.979437   -8.557716   66.254166  0
 41.866795   -8.884399   65.883385  0
 37.029438   -8.737624   66.747086  0
 36.453266   -9.111337   65.606628  0
  4.442543   -8.324546   64.723701  0
 41.676105   -8.951141   64.712494  0
 26.167397   -8.566024   63.744648  0
  4.228407   -9.054782   63.910572  0
 37.606018   -8.130358   65.863861  0
 38.664150   -7.837332   64.179306  0
 41.274220   -8.850277   63.234612  0
 25.836985   -8.785062   62.288681  0
  4.367295   -7.755815   62.626259  0
 41.830406   -8.669136   62.243290  0
 42.427124   -8.713061   60.822338  0
 25.631948   -8.888662   60.086658  0
  3.395990   -8.362453   61.096058  0
  3.644254   -7.224030   59.977333  0
 41.856262   -9.251315   59.018581  0
 38.199333   -8.465104   59.099072  0
  3.428191   -8.994775   59.039192  0
 43.515930   -8.492901   59.338394  0
 37.925678   -8.568908   56.725121  0
 25.364269   -9.033620   57.764549  0
  3.227397   -7.656383   58.062893  0
 42.248489   -9.193244   57.366261  0
  3.798425   -8.375327   57.790653  0
  4.634834   -7.707470   56.462727  0
 47.934319   -9.488066   57.572311  0
 48.503826   -8.661949   58.094860  0
 48.698975   -8.892877   57.036110  0
 47.158974   -9.255099   57.596806  0
 42.901302   -9.257180   56.271282  0
 43.727551   -8.599728   57.489910  0
 25.136917   -9.140293   55.785282  0
  6.361446   -7.875789   55.876717  0
 45.939362   -9.469319   56.670231  0
 45.344727   -8.934952   56.806164  0
 44.819469   -8.602097   57.285965  0
 48.313721   -8.059937   56.240067  0
 39.110382   -7.619396   53.373615  0
 25.829090   -8.638837   54.519909  0
 37.357464   -8.704753   51.223473  0
 14.126766   -8.860066   50.801762  0
 27.969393   -8.953984   51.220268  0
 37.613434   -8.271639   50.225086  0
 29.117201   -8.657107   51.064064  0
 14.167468   -9.007708   49.122833  0
 30.210363   -8.515564   49.826221  0
 30.768862   -8.422104   48.568371  0
 36.414566   -8.522752   48.362015  0
 31.250420   -8.122816   47.529633  0
 13.604119   -8.795754   47.632893  0
 41.597973   -8.464506   47.397842  0
 41.242043   -9.164351   45.448975  0
 33.643730   -8.249683   46.290276  0
 35.053890   -7.956017   46.376774  0
 31.697367   -8.463084   46.966980  0
 12.823986   -7.606822   45.360844  0
  4.414129   -7.518606   46.741486  0
  3.096132   -7.991903   46.738380  0
 42.443394   -8.947265   43.019627  0
 42.321392   -8.723729   45.140774  0
 12.339789   -7.951035   44.411621  0
 11.639255   -8.488876   43.928318  0
  7.750975   -7.920494   44.284878  0
  9.006241   -7.350109   43.595699  0
  3.408085   -8.052771   43.939117  0
  3.888000   -8.632218   42.769161  0
 43.336079   -8.936320   40.176720  0
 55.275620   -9.202618   39.407639  0
 55.942947   -7.997269   39.143482  0
 54.040558   -8.116398   38.890049  0
  8.432905   -8.618191   39.291668  0
  8.557155   -8.528796   38.248341  0
  6.577161   -7.640001   39.965122  0
 56.119179   -8.716925   38.306244  0
 56.138763   -8.847155   39.158875  0
 52.171074   -8.619678   38.480183  0
 54.557812   -8.873535   37.689739  0
 50.634941   -8.011073   37.974380  0
 49.369446   -8.061857   37.946301  0
 47.727432   -8.377547   38.127834  0
  7.099084   -8.268481   37.063126  0
 51.127285   -8.588107   35.961334  0
  5.177924   -7.759818   36.134331  0
 47.101212   -8.443998   34.055412  0
 36.086987   -8.344383   34.587170  0
  1.953960   -7.902668   34.940216  0
  0.401873   -7.422897   33.937866  0
  0.252199   -7.314755   33.238087  0
 45.378044   -8.800625   32.859833  0
 44.446163   -8.874503   31.655994  0
 32.028889   -7.890689   33.132511  0
 31.640018   -7.869226   32.268646  0
 31.443233   -8.199347   31.095045  0
 43.531094   -9.089006   30.074795  0
  2.527508   -8.226206   30.631006  0
 43.488960   -8.337925   29.082016  0
  2.807705   -8.039357   29.658392  0
 42.943001   -7.657913   28.390415  0
 41.873249   -8.210443   28.646584  0
 31.769360   -8.779422   28.043270  0
 33.325489   -8.692557   25.617996  0
 34.001358   -8.937618   24.855000  0
 34.097019   -9.071720   23.854099  0
  0.776471   -6.578836   24.465347  0
 61.214443   -8.964718   22.394136  0
 60.880474   -8.341560   22.734449  0
 57.685963   -8.198511   23.416300  0
 55.527916   -8.658603   23.336708  0
 54.146179   -8.095337   22.658312  0
 52.634346   -8.842409   22.234694  0
 32.776657   -9.536639   23.450176  0
  0.644152   -6.072025   23.129999  0
 32.024158   -8.996512   21.473095  0
 60.432163   -8.209928   21.705772  0
 47.588493   -8.681773   20.733883  0
 44.370583   -7.922019   20.784790  0
 46.665718   -7.857869   20.967161  0
 42.943157   -8.265593   20.002687  0
 32.690929   -7.620250   18.675352  0
 55.737179   -8.578984   19.245979  0
 53.724857   -7.864341   19.217207  0
 51.920570   -8.124979   18.977301  0
 49.421028   -8.831212   18.125082  0
  1.985425   -7.408949   16.876484  0
 45.583778   -7.632972   15.227036  0
 32.422043   -9.444843   16.320154  0
  2.631673   -8.349371   15.545157  0
 33.428974   -8.905979   14.397895  0
 42.438320   -8.273404   12.941203  0
 37.070362   -7.182410   12.386683  0
 38.287655   -6.896686   12.737276  0
 33.892998   -8.157341   13.619566  0
 41.576221   -8.073712   11.830984  0
  1.129387   -7.605904   10.343725  0
 61.179901   -8.372425    8.343282  0
 53.197975   -8.007211    9.526020  0
 52.554333   -8.759507    9.821942  0
 51.863445   -8.669250   10.001279  0
  1.764435   -7.688860    8.640229  0
 58.633144   -8.217837    8.179565  0
 54.493347   -8.222645    8.998941  0
 50.222584   -8.561260    8.943028  0
 48.600174   -8.775136    7.699469  0
 32.978058   -8.944736    7.726603  0
 27.837341   -7.921107    7.724406  0
  2.178618   -8.075156    6.945862  0
 47.135620   -8.844889    6.821236  0
 45.322025   -8.640143    6.336895  0
 43.798615   -8.002562    6.224877  0
 42.773026   -7.924525    6.715460  0
 32.376289   -7.817846    7.350982  0
 30.090456   -7.979145    7.684169  0
 25.890781   -8.071011    7.424727  0
 24.055479   -8.451371    7.077147  0
 46.494350   -8.277647    6.070029  0
 35.216419   -8.231070    6.418227  0
 19.537331   -7.913686    6.372937  0
 18.027691   -7.772224    5.578674  0
 56.422218   -6.851513    5.747779  0
 54.887840   -7.145213    5.086746  0
 37.294827   -6.925113    3.010598  0
 15.245419   -8.676576    2.502381  0
  2.387191   -8.533279    3.298077  0
 36.341454   -7.895709    1.954116  0
 37.031544   -7.316956    2.539476  0
 15.644952   -7.883071    2.806180  0
 35.019035   -8.481614    1.221184  0
 33.698505   -9.093844    0.789614  0
  5.287617   -9.542482    1.063496  0
  3.178930   -8.170858    0.998003  0
 53.160618   -7.189253    1.339035  0
 23.455721   -8.306862    1.297251  0
 24.574970   -8.365102    1.397405  0
 21.934116   -8.397130   -0.442072  0
 14.258244   -8.633856    1.166266  0
  3.868577   -8.947209    0.477607  0
 40.931454   -7.923450    0.571451  0
 39.762981   -7.461345    0.459183  0
 38.800327   -8.125933    0.087851  0
 37.400032   -8.284624   -0.994675  0
 33.264969   -7.735533   -0.542384  0
 27.547245   -8.922775   -0.719558  0
 26.699869   -8.284801   -0.447426  0
 25.800415   -8.192246    0.704670  0
  5.437603   -8.888107   -0.266338  0
 57.155674   -7.997185   -0.891424  0
 56.014351   -7.229224   -0.546356  0
 43.533188   -7.961915   -1.380282  0
 35.924412   -8.512227   -1.916459  0
 30.137127   -8.182120   -1.958423  0
 28.833204   -8.914010   -1.294753  0
 22.023695   -8.618226   -1.514601  0
 12.716280   -8.362639   -0.313602  0
  4.268421   -8.009719   -0.366878  0
 57.215660   -9.364317   -2.196774  0
 57.764000   -8.477811   -2.008842  0
 57.075863   -8.329844   -2.568646  0
  9.461090   -8.591180   -0.828050  0
  5.955066   -8.247709   -0.804135  0
 56.023441   -8.623424   -3.164633  0
 35.356926   -7.911883   -2.963054  0
 34.316311   -8.011544   -3.927240  0
 24.567846   -8.965726   -3.173911  0
 53.893612   -8.710952   -4.449548  0
 52.856869   -8.669507   -4.546009  0
 49.260834   -8.449602   -3.990741  0
 47.910881   -7.932669   -4.271819  0
 47.068333   -8.425236   -5.817713  0
 42.382931   -8.495864   -5.593064  0
 31.102919   -9.179279   -5.005896  0
 30.200264   -8.368785   -5.550726  0
 28.102417   -7.949267   -5.349018  0
 25.659298   -7.141415   -4.988058  0
 47.444778   -9.273119   -5.984244  0
 46.633549   -7.763422   -6.964721  0
 47.410610   -9.071691   -7.168263  0
 42.597157   -8.578035   -6.750793  0
 45.847870   -8.413599   -7.968390  0
 44.293564   -8.530744   -7.576512  0
 42.971443   -8.336589   -7.198649  0
  7.761171   -8.262444   79.238907  0
  8.384903   -8.075235   78.681854  0
