#!ascii file
5162  5161  5160  0
5159  5163  5160  0
5164  5160  5163  0
5160  5164  5162  0
5165  5162  5164  0
5159  5161  5166  0
4903  5166  5161  0
5159  5166  5167  0
5168  5167  5166  0
5161  5162  4903  0
4904  4903  5162  0
5162  5165  4904  0
4906  4904  5165  0
5165  5169  4906  0
5170  4906  5169  0
5166  4903  5171  0
4905  5171  4903  0
5166  5171  5168  0
5172  5168  5171  0
4906  5173  4642  0
4907  4642  5173  0
4906  5170  5173  0
5174  5173  5170  0
5173  5174  4907  0
5175  4907  5174  0
5171  4905  4910  0
5171  4910  5172  0
5176  5172  4910  0
4907  5175  4908  0
5177  4908  5175  0
5178  5179  5180  0
4910  4911  5176  0
5181  5176  4911  0
4908  5177  4912  0
4912  5177  4915  0
5182  4915  5177  0
4911  4914  5181  0
5182  4916  4915  0
4914  4917  5183  0
4920  5183  4917  0
4914  5183  5181  0
4918  4921  5184  0
4918  5184  4922  0
4921  4916  5185  0
4921  5185  5184  0
4916  5182  5186  0
4916  5186  5185  0
5182  5187  5186  0
5182  5188  5187  0
5183  4920  5189  0
4920  4922  5189  0
4922  5184  5190  0
5184  5185  5191  0
5184  5191  5190  0
5185  5186  5192  0
5185  5192  5191  0
5186  5187  5193  0
5186  5193  5192  0
5187  5188  4925  0
5187  4925  5193  0
4924  5194  4926  0
4924  4923  5188  0
5191  5192  5195  0
5193  4925  5196  0
5193  5196  5192  0
4925  5188  4923  0
4926  5194  5197  0
4926  5197  4927  0
5196  5198  5192  0
5196  4925  4929  0
5196  4929  5199  0
5196  5199  5198  0
4927  5197  5200  0
4927  5200  4928  0
4928  5200  5201  0
4928  5201  4930  0
4928  4930  4659  0
4930  5202  4660  0
5199  4929  5203  0
5199  5203  5198  0
4929  4931  5203  0
4660  5202  5204  0
4940  5205  4941  0
4940  5206  5207  0
4940  5207  5205  0
4940  5208  5206  0
5205  5209  4667  0
5205  4667  4941  0
5209  4932  4667  0
4932  5209  5210  0
4932  5210  4933  0
4933  5210  5211  0
4933  5211  4934  0
4931  5212  5203  0
4931  4936  5212  0
4936  5213  5212  0
4398  4660  5204  0
4398  5204  5214  0
4398  5214  4938  0
4940  4673  5208  0
4942  5215  4937  0
4943  4938  5214  0
4673  4944  5216  0
4673  5216  5208  0
4935  5217  4674  0
4942  4943  5215  0
4673  4400  4944  0
4674  5218  4676  0
4944  4945  5219  0
4945  5220  5219  0
4676  5221  4946  0
4675  4678  4945  0
5222  4945  4678  0
4947  4410  4946  0
4410  4947  4680  0
4678  4679  5222  0
5223  5222  4679  0
4947  5224  4948  0
5225  4948  5224  0
4948  5225  4949  0
4679  4681  5223  0
5226  4682  4949  0
4682  5226  4414  0
5227  4414  5226  0
4685  4956  4950  0
5228  4951  4950  0
4951  5229  4952  0
5229  5230  4952  0
5231  4952  5230  0
4681  4970  5223  0
4414  5227  4955  0
5232  4956  4957  0
4956  5233  4950  0
5228  4950  5233  0
4956  5232  5233  0
4952  5231  4958  0
4960  4959  4958  0
4960  5234  4961  0
5235  4961  5234  0
4961  5236  4691  0
4962  4691  5236  0
4961  5235  5236  0
4966  4694  4965  0
4684  5237  4967  0
5238  4967  5237  0
4684  4955  5237  0
4957  5239  5232  0
4957  4968  5239  0
5240  4962  5236  0
4962  5240  4963  0
5241  4963  5240  0
4963  5241  4964  0
5242  4964  5241  0
4964  5242  4965  0
5243  4965  5242  0
4965  5243  4966  0
5244  4966  5243  0
4966  5244  4969  0
4969  5244  5245  0
4971  5246  4970  0
5247  4708  4967  0
4967  5238  5247  0
5248  4968  4974  0
5249  4977  4976  0
4976  4969  5249  0
5245  5249  4969  0
4441  4981  4980  0
5250  4980  4981  0
5251  4972  4973  0
4973  4708  5251  0
5247  5251  4708  0
5247  5238  5252  0
4974  4714  4984  0
4974  4984  5253  0
4974  5253  5248  0
5254  5248  5253  0
4977  5249  5255  0
5256  5255  5249  0
5249  5245  5256  0
4980  5250  5257  0
4980  5257  4717  0
4984  4715  5258  0
4984  5258  5253  0
4715  4985  5258  0
4983  4977  5259  0
4983  5259  5260  0
4977  5255  5259  0
4979  4716  4989  0
5257  4718  4717  0
4986  4982  5261  0
4982  4987  5261  0
4987  4983  5261  0
4718  5257  5262  0
4718  5262  4990  0
4985  4721  5263  0
4719  4986  4993  0
4720  4725  4988  0
4990  5262  5264  0
4721  4991  5263  0
4725  4726  5265  0
4990  5264  5266  0
4990  5266  4723  0
4726  4731  4999  0
4723  5266  5267  0
4723  5267  4996  0
4999  4739  5268  0
4994  4729  5002  0
4994  5002  5269  0
4739  4741  5270  0
4739  5270  5268  0
5000  4996  5271  0
5000  5271  5272  0
4463  4997  5006  0
4741  5017  5270  0
5273  5010  5004  0
5004  5000  5273  0
5272  5273  5000  0
5002  5005  5274  0
5275  5274  5005  0
5005  4475  4752  0
5005  4752  5275  0
5276  4748  5013  0
5277  5014  4749  0
5014  5277  5015  0
5278  5270  5017  0
5017  5018  5278  0
5279  5278  5018  0
5018  5019  5279  0
5020  5279  5019  0
5280  5020  5010  0
5010  5273  5280  0
5281  5280  5273  0
5282  4752  5025  0
5283  4748  5276  0
4748  5283  4749  0
5284  4749  5283  0
4749  5284  5277  0
5285  5277  5284  0
5286  5015  5277  0
5015  5286  5016  0
5023  5016  5286  0
5287  5282  5025  0
5277  5285  5286  0
5027  5023  5286  0
5288  4759  4760  0
4759  5288  5289  0
4754  5290  4755  0
5291  4755  5290  0
5028  4755  5291  0
5025  5029  5287  0
5286  5292  5027  0
5286  5285  5292  0
5293  4760  4763  0
4760  5293  5288  0
5034  4765  5028  0
5294  5029  5031  0
5292  5295  5027  0
5032  5027  5295  0
5296  5297  5298  0
4763  5033  5293  0
5299  5035  5034  0
5300  5294  5031  0
5301  5302  5296  0
5296  5302  5297  0
5296  5303  5301  0
5040  4773  5041  0
5031  5030  5300  0
5304  5300  5030  0
5030  5037  5304  0
5038  4774  5036  0
5295  5043  5032  0
5295  5305  5043  0
5032  5043  5039  0
5041  4511  5306  0
4511  4518  5306  0
4778  5035  5307  0
4518  5045  5306  0
4774  4792  5036  0
5305  5044  5043  0
4792  4791  5051  0
4792  5051  5308  0
5305  5309  5044  0
5305  5310  5309  0
5049  5311  4789  0
4789  5311  5312  0
4795  5313  5314  0
4795  5314  5050  0
5309  4796  5044  0
5048  4788  5315  0
5048  5315  5049  0
4789  5312  5316  0
4789  5316  5053  0
4794  5053  4803  0
5047  5055  4783  0
5309  5056  4796  0
4788  5052  5317  0
4788  5317  5315  0
4803  5046  4534  0
5318  5046  4803  0
5055  5313  4795  0
5319  5056  5309  0
5317  5052  5054  0
5319  5058  5056  0
5320  5057  5059  0
5059  5060  5320  0
4805  5063  5060  0
5321  5060  5063  0
5060  5321  5320  0
5063  5322  5321  0
5065  5061  5323  0
5077  5324  5325  0
5326  5325  5324  0
5325  5327  5077  0
5079  5077  5327  0
5327  5328  5079  0
5329  5079  5328  0
5328  5330  5329  0
5064  5331  5062  0
5063  5062  5331  0
5064  4806  5331  0
5332  5066  4807  0
4807  4808  5332  0
5333  5332  4808  0
4808  4809  5333  0
5067  5334  4816  0
5335  4816  5334  0
5067  5065  5334  0
5336  5334  5065  0
5334  5337  5335  0
5071  5335  5337  0
5334  5336  5337  0
5072  5071  5337  0
5337  5324  5072  0
5075  5072  5324  0
5337  5338  5324  0
5326  5324  5338  0
5324  5077  5075  0
5079  5329  5081  0
5339  5081  5329  0
4806  5084  5331  0
5340  5331  5084  0
4301  5066  5089  0
5341  5089  5066  0
5342  5341  5066  0
5066  5332  5342  0
5333  4809  5343  0
4809  4815  5343  0
4813  5070  4815  0
4816  5335  5090  0
5344  5090  5335  0
5335  5071  5344  0
5084  5083  5086  0
5084  5086  5340  0
5342  5345  5341  0
4569  5090  5093  0
5090  5346  5093  0
5090  5344  5346  0
5344  5347  5346  0
5344  5071  5091  0
5344  5091  5347  0
5082  5081  5339  0
5082  5339  5348  0
5086  5085  5349  0
5086  5349  5340  0
5085  5087  5350  0
5087  5092  5351  0
5087  5351  5350  0
5092  5088  5352  0
5092  5352  5351  0
5088  5089  5353  0
5088  5353  5352  0
5089  5341  5354  0
5089  5354  5353  0
5341  5355  5354  0
5341  5345  5355  0
5069  5356  5070  0
5091  5095  5347  0
5082  5348  5357  0
5082  5357  5097  0
5350  5351  5358  0
5351  5352  5359  0
5351  5359  5358  0
5352  5353  5360  0
5355  5345  5361  0
4818  5093  5101  0
5095  5102  5362  0
5095  5362  5347  0
5352  5360  5359  0
5354  5355  5363  0
5354  5363  5353  0
5355  5361  5363  0
5361  5364  5363  0
5365  5100  5099  0
5102  5103  5366  0
5102  5366  5362  0
5103  5104  5367  0
5103  5367  5366  0
5104  5097  5367  0
5368  5369  5360  0
5360  5353  5368  0
5370  5368  5353  0
5353  5363  5370  0
5365  5099  5098  0
4820  5106  4821  0
5098  5105  5365  0
5371  5365  5105  0
5372  4829  5106  0
5373  4829  5372  0
4830  4829  5374  0
4829  5373  5374  0
5109  4830  5374  0
5374  5375  5109  0
5376  4825  5377  0
5378  5377  4825  0
4825  5376  4826  0
5107  4826  5376  0
4831  5109  4832  0
5113  4832  5109  0
4825  5110  5378  0
5379  5107  5376  0
5107  5379  5111  0
5111  5115  5108  0
5380  4581  5114  0
4581  5380  4838  0
5381  4838  5380  0
4838  5381  4846  0
5119  5110  4840  0
5382  5116  5383  0
5116  5382  4836  0
4836  5382  4837  0
4842  4837  5382  0
5117  4843  4842  0
4590  5384  5385  0
4590  4845  5384  0
5386  4845  5118  0
5118  5122  5386  0
5119  5123  5387  0
5382  5388  4842  0
4854  5389  5120  0
5120  4595  4854  0
4848  5121  5126  0
5121  4590  5385  0
5123  5390  5387  0
5123  5124  5128  0
5123  5128  5390  0
5131  4857  5391  0
5390  5128  5392  0
5128  5134  5392  0
5136  5141  4864  0
5130  5129  5135  0
4859  4860  5393  0
4860  5394  5393  0
5120  5389  5395  0
5120  5395  5137  0
4857  5138  5391  0
4855  5126  5396  0
4855  5396  4604  0
4604  5396  5139  0
5134  5133  5397  0
5141  5398  4865  0
4860  4874  5394  0
5138  4861  5399  0
5133  5142  5397  0
4865  5398  4872  0
5400  4872  5398  0
5401  5137  5395  0
4870  5402  4861  0
5403  4871  5139  0
4871  5403  4345  0
4879  4345  5403  0
5143  5148  5404  0
5143  5404  5142  0
4872  5400  4873  0
5405  4873  5400  0
5406  4874  5144  0
5406  5144  5152  0
5137  5401  5145  0
4870  4877  5402  0
4879  5407  5146  0
5147  5146  5407  0
5149  5148  4867  0
5148  5408  5404  0
5148  5149  5408  0
5409  5408  5149  0
5149  4873  5409  0
5405  5409  4873  0
5410  5411  4883  0
5412  4883  5411  0
4883  5150  5410  0
5155  5145  5401  0
4877  4878  5413  0
5414  5413  4878  0
4888  5414  4878  0
4884  4883  4890  0
4883  5412  4890  0
5150  4631  5415  0
5145  5155  4887  0
4888  5154  5416  0
5417  5153  4895  0
5418  4897  4890  0
4631  4891  5415  0
5155  5419  4893  0
4895  4896  5417  0
5418  4896  4897  0
5420  4891  5156  0
5419  5421  4893  0
4902  4893  5421  0
5156  5157  5422  0
5156  5422  5420  0
5423  5422  5157  0
5157  4900  5423  0
4902  5421  5158  0
5422  5423  5424  0
5158  5423  4900  0
5163  5425  5426  0
5426  5425  5427  0
5428  5427  5425  0
5429  5163  5426  0
5426  5430  5429  0
5159  5428  5425  0
5431  5432  5428  0
5425  5163  5159  0
5164  5163  5429  0
5429  5433  5164  0
5434  5164  5433  0
5429  5435  5433  0
5433  5435  5436  0
5433  5436  5434  0
5428  5159  5437  0
5167  5437  5159  0
5428  5437  5431  0
5164  5434  5165  0
5169  5165  5434  0
5434  5438  5169  0
5439  5169  5438  0
5434  5436  5440  0
5434  5440  5438  0
5438  5440  5441  0
5438  5441  5439  0
5437  5167  5431  0
5442  5431  5167  0
5167  5168  5442  0
5443  5442  5168  0
5169  5439  5170  0
5174  5170  5439  0
5439  5441  5444  0
5439  5444  5174  0
5445  5446  5447  0
5446  5448  5447  0
5446  5449  5448  0
5174  5444  5175  0
5446  5445  5450  0
5446  5450  5449  0
5172  5176  5451  0
5172  5451  5168  0
5175  5452  5177  0
5175  5444  5452  0
5445  5180  5179  0
5445  5179  5450  0
5176  5181  5453  0
5176  5453  5451  0
5177  5454  5182  0
5177  5452  5455  0
5177  5455  5454  0
5450  5179  5456  0
5181  5457  5453  0
5182  5454  5188  0
5454  5458  5188  0
5456  5179  5178  0
5181  5183  5459  0
5181  5459  5457  0
5458  5194  4924  0
5458  4924  5188  0
5458  5460  5194  0
5183  5189  5461  0
5183  5461  5462  0
5183  5462  5459  0
4922  5190  5189  0
5461  5463  5462  0
5461  5189  5464  0
5461  5464  5463  0
5189  5190  5465  0
5189  5465  5464  0
5190  5191  5465  0
5191  5195  5466  0
5191  5466  5465  0
5194  5467  5197  0
5468  5197  5467  0
5469  5197  5468  0
5195  5192  5198  0
5197  5469  5200  0
5200  5470  5201  0
5201  5470  5471  0
5201  5471  4930  0
4930  5471  5202  0
5206  5472  5207  0
5473  5207  5472  0
5206  5208  5472  0
5207  5209  5205  0
5207  5473  5209  0
5474  5210  5209  0
5210  5475  5211  0
5470  5476  5471  0
5477  5471  5476  0
5471  5477  5202  0
5478  5204  5202  0
5479  5480  5481  0
5482  5479  5483  0
5479  5481  5483  0
5484  4934  5211  0
4934  5484  4935  0
5217  4935  5484  0
5213  5203  5212  0
5204  5478  5214  0
5480  5479  5485  0
5480  5485  5486  0
5487  5488  5216  0
5213  4936  5489  0
4936  4937  5489  0
5481  5480  5490  0
5486  5490  5480  0
5216  4944  5487  0
5218  4674  5217  0
4937  5215  5489  0
5491  5215  4943  0
4943  5214  5491  0
5492  5491  5214  0
4944  5219  5487  0
5218  5221  4676  0
5493  5494  5495  0
5493  5496  5494  0
5494  5496  5497  0
5219  5220  5498  0
5499  5498  5220  0
5222  5220  4945  0
5220  5222  5499  0
5500  5499  5222  0
5222  5223  5501  0
5225  5502  4949  0
4949  5502  5503  0
4949  5503  5226  0
5504  4951  5228  0
4951  5504  5505  0
4951  5505  5229  0
5231  5506  4958  0
4960  4958  5506  0
5231  5230  5506  0
4970  5501  5223  0
5227  5507  4955  0
5228  5233  5508  0
4960  5506  5509  0
4960  5509  5234  0
5234  5236  5235  0
4970  5246  5501  0
4955  5510  5238  0
4955  5238  5237  0
4955  5507  5510  0
5232  5239  5508  0
5232  5508  5233  0
5234  5511  5236  0
5236  5512  5240  0
5236  5511  5512  0
4971  5513  5514  0
4971  5514  5246  0
4971  4706  5513  0
5238  5510  5515  0
5238  5515  5252  0
4968  5248  5516  0
4968  5516  5239  0
5240  5512  5241  0
5245  5244  5517  0
4978  5513  4706  0
4978  4979  5518  0
4978  5518  5513  0
4707  4972  5519  0
4707  5519  4981  0
4972  5251  5520  0
4972  5520  5519  0
5252  5515  5521  0
5252  5521  5247  0
5245  5517  5256  0
4979  5522  5518  0
5250  5523  5257  0
5253  5258  5524  0
5253  5524  5254  0
5255  5525  5259  0
4979  4989  5526  0
4979  5526  5522  0
4989  4988  5527  0
5262  5257  5523  0
4983  5260  5528  0
4983  5528  5529  0
4983  5529  5261  0
5260  5259  5525  0
5260  5525  5528  0
5258  4985  5530  0
4985  5263  5530  0
4986  5261  5531  0
4986  5531  4993  0
5261  5529  5531  0
4988  4725  5532  0
5262  5533  5264  0
5534  5263  4991  0
5532  4725  5265  0
5535  5265  4726  0
5264  5533  5266  0
5267  5266  5533  0
5534  4991  4992  0
4993  5536  4995  0
5535  4726  4999  0
4992  5537  5534  0
4992  4994  5537  0
5538  5537  4994  0
5539  4999  5268  0
4999  5540  5535  0
4999  5539  5540  0
5267  5541  4996  0
4994  5269  5538  0
5542  4997  4995  0
5268  5543  5539  0
5268  5270  5543  0
4996  5541  5271  0
5269  5002  5274  0
5544  5543  5270  0
5273  5272  5281  0
5275  4752  5545  0
5270  5278  5544  0
5278  5279  5544  0
5546  5544  5279  0
5279  5020  5546  0
5547  5546  5020  0
5280  5547  5020  0
5548  5280  5281  0
5272  5548  5281  0
4752  5282  5545  0
5549  5545  5282  0
5013  5006  5550  0
5013  5550  5276  0
5276  5551  5283  0
5284  5552  5285  0
5282  5287  5549  0
5284  5283  5552  0
5552  5553  5285  0
5552  5554  5553  0
5553  5554  5555  0
5553  5555  5292  0
5553  5292  5285  0
5298  5297  5556  0
5298  5556  5557  0
5298  5557  5296  0
5290  5558  5291  0
5028  5559  5034  0
5028  5291  5559  0
5029  5294  5287  0
5287  5294  5560  0
5555  5305  5295  0
5555  5310  5305  0
5555  5295  5292  0
5296  5557  5561  0
5296  5561  5303  0
5293  5033  5562  0
5293  5562  5288  0
5034  5559  5299  0
5294  5300  5560  0
5297  5302  5563  0
5561  5564  5303  0
5033  5040  5562  0
5040  5041  5565  0
5040  5565  5562  0
5300  5566  5560  0
5302  5301  5563  0
5041  5306  5567  0
5041  5567  5565  0
5035  5299  5568  0
5035  5568  5307  0
5300  5304  5566  0
5306  5045  5569  0
5304  5037  5308  0
5308  5037  5036  0
5318  5569  5045  0
4778  5307  4781  0
5307  5568  4781  0
4792  5308  5036  0
4781  5568  5047  0
5050  5314  5308  0
5051  5050  5308  0
5045  5046  5318  0
5570  5571  5310  0
5309  5310  5571  0
5049  5315  5311  0
5311  5315  5312  0
5312  5572  5316  0
5573  5053  5316  0
5053  5574  4803  0
5053  5573  5574  0
5575  5055  5047  0
5315  5317  5312  0
5576  5312  5317  0
5572  5312  5576  0
5576  5577  5572  0
4803  5574  5318  0
5571  5319  5309  0
5054  5057  5317  0
5578  5317  5057  0
5576  5317  5578  0
5319  5579  5058  0
5057  5320  5578  0
5580  5578  5320  0
5578  5580  5576  0
5581  5576  5580  0
5576  5581  5577  0
5058  5579  5061  0
5320  5582  5580  0
5580  5582  5583  0
5580  5583  5581  0
5581  5583  5584  0
5581  5584  5577  0
5061  5579  5323  0
5320  5321  5585  0
5320  5585  5582  0
5582  5585  5583  0
5583  5585  5586  0
5587  5588  5327  0
5587  5327  5325  0
5587  5589  5588  0
5587  5325  5589  0
5588  5590  5328  0
5588  5328  5327  0
5590  5591  5330  0
5590  5330  5328  0
5322  5592  5321  0
5321  5592  5593  0
5321  5593  5585  0
5586  5584  5583  0
5065  5323  5594  0
5595  5338  5337  0
5595  5337  5336  0
5338  5595  5596  0
5338  5596  5326  0
5326  5596  5589  0
5326  5589  5325  0
5330  5591  5597  0
5330  5597  5329  0
5063  5331  5598  0
5063  5598  5322  0
5322  5598  5592  0
5585  5593  5586  0
5329  5597  5339  0
5331  5340  5599  0
5598  5600  5592  0
5592  5600  5601  0
5592  5601  5593  0
5332  5333  5602  0
5333  5343  5602  0
4815  5603  5604  0
4815  5604  5343  0
4815  5070  5603  0
5070  5605  5603  0
5606  5607  5608  0
5609  5348  5339  0
5609  5339  5610  0
5609  5610  5607  0
5340  5349  5599  0
5332  5345  5342  0
5332  5602  5345  0
5602  5611  5345  0
5602  5343  5611  0
5356  5605  5070  0
5345  5611  5361  0
5612  5361  5611  0
5100  5356  5069  0
5093  5346  5613  0
5607  5606  5609  0
5614  5349  5085  0
5085  5350  5614  0
5615  5614  5350  0
5350  5358  5615  0
5616  5615  5358  0
5361  5612  5364  0
5617  5356  5100  0
5101  5093  5613  0
5346  5347  5613  0
5618  5619  5347  0
5362  5618  5347  0
5620  5357  5348  0
5357  5620  5097  0
5621  5097  5620  0
5358  5359  5616  0
5369  5359  5360  0
5622  5364  5612  0
5612  5623  5622  0
5100  5365  5617  0
4820  5101  5106  0
5372  5106  5101  0
5101  5613  5372  0
5624  5618  5362  0
5362  5366  5624  0
5621  5367  5097  0
5359  5369  5625  0
5626  5370  5363  0
5363  5364  5626  0
5622  5626  5364  0
5627  5624  5366  0
5366  5367  5627  0
5621  5627  5367  0
5369  5368  5625  0
5628  5625  5368  0
5368  5370  5628  0
5629  5370  5626  0
5626  5622  5630  0
5626  5630  5631  0
5626  5631  5629  0
5365  5371  5617  0
5628  5370  5629  0
5374  5373  5375  0
5377  5632  5376  0
5377  5378  5633  0
5376  5632  5634  0
5376  5634  5379  0
5113  5109  5635  0
5113  5635  5114  0
5114  5635  5636  0
5114  5636  5380  0
5379  5637  5111  0
5638  4844  5117  0
4844  5638  5639  0
4844  5639  5112  0
5381  5640  4846  0
5115  5111  5637  0
5115  5637  5116  0
5116  5637  5383  0
5383  5641  5382  0
4842  5388  5642  0
4842  5642  5117  0
5384  4845  5643  0
4845  5386  5643  0
5119  5387  5644  0
5119  5644  5110  0
5645  5382  5641  0
5382  5645  5388  0
5389  4854  5646  0
4854  5647  5646  0
5648  5387  5390  0
5392  5648  5390  0
5648  5392  5649  0
5650  5649  5392  0
5649  5650  5651  0
5393  5652  5129  0
5129  4859  5393  0
4854  5131  5647  0
5391  5647  5131  0
5392  5134  5650  0
5397  5650  5134  0
5650  5397  5653  0
5654  5653  5397  0
5655  5650  5653  0
5656  5655  5653  0
5653  5654  5656  0
5657  5656  5654  0
5658  5141  5136  0
5136  5135  5659  0
5652  5659  5135  0
5136  5659  5658  0
5135  5129  5652  0
5660  5139  5396  0
5661  5654  5397  0
5654  5661  5657  0
5662  5398  5141  0
5141  5658  5662  0
5663  5395  5389  0
5391  5138  5664  0
5138  5399  5664  0
5397  5142  5661  0
5404  5661  5142  0
5665  5661  5404  0
5666  5400  5398  0
5398  5662  5667  0
5398  5667  5666  0
4874  5668  5394  0
4874  5406  5668  0
5395  5669  5401  0
5399  4861  5670  0
5402  5670  4861  0
5139  5660  5671  0
5139  5671  5403  0
5407  4879  5403  0
5408  5665  5404  0
5672  5665  5408  0
5400  5666  5673  0
5400  5673  5405  0
5402  4877  5413  0
5402  5413  5674  0
5407  5675  5147  0
5408  5409  5672  0
5152  5153  5676  0
5152  5676  5406  0
5410  5150  5677  0
5413  5678  5674  0
5413  5414  5678  0
5414  4888  5416  0
5414  5416  5679  0
5414  5679  5678  0
5147  5680  5151  0
5412  5411  5681  0
5682  5683  5155  0
5682  5155  5401  0
5416  5684  5679  0
5416  5154  5685  0
5416  5685  5684  0
5154  5151  5680  0
5154  5680  5685  0
5153  5417  5676  0
4890  5412  5418  0
5412  5681  5686  0
5415  5687  5150  0
5683  5682  5688  0
5683  5419  5155  0
5417  4896  5689  0
4896  5418  5690  0
4896  5690  5689  0
5418  5412  5686  0
5418  5686  5690  0
5415  4891  5420  0
5415  5420  5687  0
5683  5688  5691  0
5683  5691  5419  0
5687  5420  5692  0
5691  5421  5419  0
5692  5420  5693  0
5420  5422  5424  0
5420  5424  5693  0
5691  5694  5421  0
5695  5421  5694  0
5421  5695  5158  0
5693  5424  5696  0
5424  5423  5697  0
5424  5697  5696  0
5423  5158  5695  0
5423  5695  5697  0
5698  5699  5426  0
5698  5426  5427  0
5700  5699  5698  0
5699  5701  5430  0
5699  5430  5426  0
5699  5700  5701  0
5702  5701  5700  0
5701  5703  5704  0
5701  5704  5430  0
5701  5702  5703  0
5705  5703  5702  0
5703  5706  5704  0
5707  5706  5703  0
5432  5427  5428  0
5432  5708  5427  0
5698  5427  5708  0
5430  5704  5435  0
5430  5435  5429  0
5704  5706  5436  0
5704  5436  5435  0
5706  5709  5710  0
5706  5710  5436  0
5706  5707  5709  0
5709  5711  5710  0
5712  5709  5707  0
5709  5712  5711  0
5432  5431  5708  0
5713  5708  5431  0
5436  5710  5440  0
5714  5440  5710  0
5710  5711  5714  0
5715  5714  5711  0
5711  5716  5715  0
5717  5715  5716  0
5711  5712  5716  0
5716  5718  5717  0
5719  5718  5716  0
5720  5718  5719  0
5721  5713  5431  0
5440  5714  5441  0
5722  5441  5714  0
5714  5715  5722  0
5448  5717  5718  0
5718  5720  5448  0
5447  5448  5720  0
5720  5723  5447  0
5445  5447  5723  0
5723  5724  5445  0
5431  5442  5721  0
5443  5721  5442  0
5441  5722  5444  0
5725  5722  5715  0
5715  5717  5725  0
5717  5448  5725  0
5449  5725  5448  0
5726  5445  5724  0
5727  5721  5443  0
5443  5168  5727  0
5728  5727  5168  0
5452  5444  5722  0
5722  5725  5452  0
5725  5449  5455  0
5445  5726  5180  0
5729  5180  5726  0
5168  5451  5728  0
5730  5728  5451  0
5455  5452  5725  0
5455  5449  5454  0
5450  5454  5449  0
5180  5729  5178  0
5451  5453  5730  0
5731  5730  5453  0
5454  5450  5458  0
5453  5457  5731  0
5732  5731  5457  0
5733  5732  5457  0
5460  5458  5450  0
5450  5456  5460  0
5194  5460  5456  0
5456  5178  5194  0
5467  5194  5178  0
5178  5729  5467  0
5734  5467  5729  0
5735  5736  5737  0
5733  5457  5459  0
5737  5738  5735  0
5459  5739  5733  0
5459  5462  5739  0
5738  5737  5740  0
5741  5740  5737  0
5484  5463  5464  0
5464  5465  5484  0
5466  5484  5465  0
5467  5734  5469  0
5467  5469  5468  0
5474  5462  5210  0
5474  5742  5739  0
5474  5739  5462  0
5462  5463  5475  0
5462  5475  5210  0
5463  5484  5475  0
5484  5466  5217  0
5466  5743  5217  0
5466  5195  5744  0
5466  5744  5743  0
5195  5198  5744  0
5734  5745  5469  0
5469  5745  5746  0
5469  5746  5200  0
5200  5746  5470  0
5482  5747  5479  0
5482  5748  5747  0
5482  5483  5748  0
5747  5749  5750  0
5747  5750  5479  0
5749  5751  5752  0
5749  5752  5750  0
5751  5753  5752  0
5751  5749  5754  0
5751  5754  5753  0
5753  5754  5755  0
5753  5755  5756  0
5472  5757  5758  0
5472  5758  5473  0
5472  5208  5759  0
5472  5759  5757  0
5473  5758  5760  0
5473  5760  5209  0
5209  5760  5742  0
5209  5742  5474  0
5475  5484  5211  0
5198  5203  5761  0
5470  5746  5476  0
5476  5746  5762  0
5476  5762  5477  0
5202  5477  5478  0
5479  5750  5485  0
5752  5753  5763  0
5752  5763  5764  0
5752  5764  5750  0
5753  5756  5763  0
5208  5216  5488  0
5208  5488  5765  0
5208  5765  5759  0
5765  5488  5766  0
5203  5213  5761  0
5478  5767  5768  0
5478  5768  5214  0
5481  5769  5483  0
5481  5490  5770  0
5481  5770  5769  0
5485  5750  5771  0
5485  5771  5772  0
5750  5764  5771  0
5488  5487  5773  0
5488  5773  5766  0
5773  5487  5774  0
5773  5774  5775  0
5217  5743  5218  0
5213  5489  5776  0
5213  5776  5761  0
5489  5777  5776  0
5214  5768  5492  0
5490  5486  5778  0
5490  5778  5779  0
5490  5779  5780  0
5490  5780  5770  0
5486  5485  5781  0
5486  5781  5778  0
5485  5772  5781  0
5487  5219  5782  0
5487  5782  5774  0
5774  5782  5783  0
5489  5215  5777  0
5215  5491  5784  0
5215  5784  5785  0
5215  5785  5777  0
5496  5786  5779  0
5780  5779  5786  0
5496  5493  5786  0
5787  5786  5493  0
5779  5778  5788  0
5779  5788  5496  0
5778  5781  5789  0
5778  5789  5790  0
5778  5790  5788  0
5219  5498  5782  0
5782  5498  5783  0
5791  5783  5498  0
5787  5493  5495  0
5496  5788  5497  0
5792  5497  5788  0
5788  5790  5792  0
5793  5792  5790  0
5498  5499  5791  0
5500  5791  5499  0
5495  5494  5794  0
5795  5794  5494  0
5497  5792  5796  0
5793  5796  5792  0
5494  5497  5795  0
5796  5795  5497  0
5500  5222  5797  0
5222  5501  5797  0
4946  5798  4947  0
4947  5798  5224  0
5224  5799  5225  0
5225  5799  5502  0
5800  5504  5228  0
5514  5797  5501  0
5507  5227  5226  0
5801  5228  5508  0
5228  5801  5800  0
5509  5802  5234  0
5501  5246  5514  0
5803  5510  5507  0
5239  5804  5508  0
5239  5516  5804  0
5805  5804  5516  0
5234  5802  5511  0
5806  5243  5242  0
5243  5806  5244  0
5516  5248  5805  0
5512  5807  5241  0
5241  5807  5808  0
5241  5808  5242  0
5242  5808  5809  0
5242  5809  5806  0
5244  5806  5517  0
5513  5518  5810  0
5519  5250  4981  0
5521  5251  5247  0
5515  5510  5811  0
5248  5254  5812  0
5256  5517  5813  0
5250  5519  5814  0
5250  5814  5523  0
5520  5251  5815  0
5521  5515  5816  0
5521  5816  5251  0
5515  5811  5816  0
5254  5524  5817  0
5254  5817  5812  0
5525  5255  5818  0
5525  5818  5819  0
5525  5819  5820  0
5255  5256  5813  0
5255  5813  5818  0
5526  4989  5527  0
5526  5527  5821  0
5526  5821  5822  0
5526  5822  5522  0
5258  5823  5524  0
5528  5525  5820  0
5527  4988  5532  0
5527  5532  5824  0
5527  5824  5821  0
5262  5523  5825  0
5262  5825  5533  0
5258  5530  5823  0
5531  5529  5826  0
5529  5528  5826  0
5533  5825  5827  0
5263  5534  5828  0
5263  5828  5530  0
4993  5531  5536  0
5531  5826  5536  0
5532  5265  5829  0
5533  5827  5830  0
5533  5830  5267  0
5534  5537  5828  0
5535  5831  5829  0
5535  5829  5265  0
5535  5832  5831  0
5267  5830  5833  0
5267  5833  5541  0
5834  5835  5836  0
5837  5838  5839  0
5537  5840  5828  0
5542  4995  5536  0
5540  5832  5535  0
5540  5539  5841  0
5540  5841  5832  0
5842  5541  5833  0
5839  5838  5843  0
5844  5843  5838  0
5840  5537  5538  0
5538  5269  5845  0
5543  5846  5539  0
5541  5842  5271  0
5847  5271  5842  0
5848  5845  5269  0
5542  5849  4997  0
5850  4997  5849  0
5543  5544  5846  0
5271  5847  5272  0
5269  5274  5848  0
5274  5275  5848  0
5550  5006  4997  0
5544  5546  5851  0
5852  5851  5546  0
5546  5547  5852  0
5853  5852  5547  0
5547  5280  5853  0
5854  5853  5280  0
5280  5548  5854  0
5855  5848  5275  0
5275  5545  5855  0
5856  5276  5550  0
5276  5856  5551  0
5550  5857  5856  0
5858  5859  5289  0
5549  5287  5860  0
5861  5860  5287  0
5862  5297  5863  0
5297  5862  5556  0
5862  5557  5556  0
5864  5289  5288  0
5289  5864  5858  0
5290  5865  5866  0
5290  5866  5558  0
5287  5560  5861  0
5555  5867  5310  0
5557  5868  5561  0
5564  5561  5868  0
5557  5862  5869  0
5557  5869  5868  0
5288  5562  5864  0
5291  5558  5870  0
5291  5870  5559  0
5863  5297  5871  0
5563  5871  5297  0
5863  5871  5872  0
5564  5868  5873  0
5564  5873  5303  0
5299  5559  5874  0
5874  5875  5299  0
5560  5566  5861  0
5871  5563  5872  0
5876  5872  5563  0
5563  5301  5877  0
5878  5877  5301  0
5563  5877  5879  0
5563  5879  5876  0
5301  5303  5878  0
5303  5873  5880  0
5303  5880  5878  0
5306  5569  5881  0
5306  5881  5567  0
5299  5875  5568  0
5867  5570  5310  0
5877  5878  5882  0
5877  5882  5879  0
5878  5880  5882  0
5569  5318  5883  0
5566  5304  5314  0
5566  5314  5884  0
5304  5308  5314  0
5867  5885  5570  0
5568  5875  5886  0
5570  5885  5887  0
5884  5314  5313  0
5047  5568  5575  0
5313  5575  5884  0
5570  5887  5571  0
5316  5572  5888  0
5316  5888  5573  0
5573  5888  5889  0
5572  5577  5890  0
5572  5890  5888  0
5883  5318  5574  0
5055  5575  5313  0
5887  5319  5571  0
5579  5319  5887  0
5577  5891  5890  0
5890  5891  5892  0
5890  5892  5888  0
5893  5892  5891  0
5577  5584  5891  0
5891  5584  5893  0
5894  5893  5584  0
5595  5895  5596  0
5896  5596  5895  0
5596  5896  5589  0
5897  5589  5896  0
5589  5897  5588  0
5590  5588  5897  0
5898  5584  5586  0
5584  5898  5894  0
5899  5894  5898  0
5594  5336  5065  0
5594  5900  5336  0
5901  5336  5900  0
5336  5901  5595  0
5898  5586  5593  0
5898  5902  5899  0
5903  5606  5904  0
5608  5904  5606  0
5905  5904  5608  0
5608  5607  5610  0
5608  5610  5905  0
5339  5597  5610  0
5331  5599  5598  0
5906  5593  5601  0
5593  5906  5898  0
5907  5898  5906  0
5898  5907  5902  0
5606  5903  5908  0
5599  5349  5614  0
5598  5599  5909  0
5598  5909  5600  0
5600  5909  5910  0
5600  5910  5601  0
5601  5910  5907  0
5601  5907  5906  0
5911  5611  5343  0
5343  5604  5911  0
5605  5356  5912  0
5908  5903  5913  0
5611  5911  5612  0
5606  5914  5915  0
5606  5908  5914  0
5606  5915  5916  0
5606  5916  5609  0
5609  5916  5348  0
5614  5615  5917  0
5615  5616  5917  0
5918  5919  5920  0
5918  5920  5921  0
5918  5921  5922  0
5918  5922  5923  0
5918  5923  5919  0
5921  5924  5922  0
5921  5925  5924  0
5612  5911  5623  0
5356  5617  5926  0
5613  5347  5619  0
5616  5359  5625  0
5616  5625  5927  0
5616  5927  5928  0
5623  5929  5622  0
5613  5930  5372  0
5613  5619  5931  0
5613  5931  5930  0
5618  5624  5932  0
5618  5932  5619  0
5625  5933  5927  0
5929  5623  5934  0
5929  5934  5935  0
5929  5935  5622  0
5617  5936  5926  0
5930  5373  5372  0
5930  5931  5373  0
5619  5932  5931  0
5932  5937  5931  0
5624  5627  5938  0
5624  5938  5932  0
5627  5621  5939  0
5630  5622  5935  0
5936  5617  5371  0
5375  5373  5931  0
5937  5375  5931  0
5938  5937  5932  0
5940  5628  5629  0
5941  5940  5629  0
5629  5631  5941  0
5109  5375  5937  0
5635  5109  5937  0
5636  5635  5937  0
5377  5633  5632  0
5632  5942  5634  0
5943  5634  5942  0
5634  5943  5379  0
5944  5379  5943  0
5379  5944  5637  0
5945  5105  5112  0
5636  5946  5380  0
5381  5380  5946  0
5946  5947  5381  0
5948  5381  5947  0
5949  5950  5633  0
5951  5637  5944  0
5638  5952  5639  0
5945  5639  5952  0
5639  5945  5112  0
5953  5954  5385  0
5385  5384  5953  0
5643  5953  5384  0
5953  5643  5955  0
5381  5948  5640  0
5378  5110  5633  0
5644  5633  5110  0
5633  5644  5949  0
5956  5949  5644  0
5637  5951  5383  0
5383  5951  5641  0
5957  5641  5951  0
5641  5957  5645  0
5958  5117  5642  0
5117  5958  5638  0
5959  5638  5958  0
5121  5385  5954  0
5960  5121  5954  0
5961  5643  5386  0
5386  5122  5962  0
5386  5962  5961  0
5962  5122  5640  0
4846  5640  5122  0
5948  5962  5640  0
5644  5387  5963  0
5648  5963  5387  0
5644  5963  5956  0
5963  5648  5649  0
5388  5964  5642  0
5642  5964  5965  0
5389  5646  5966  0
5121  5960  5967  0
5121  5967  5126  0
5649  5651  5968  0
5649  5968  5969  0
5649  5969  5963  0
5970  5971  5389  0
5389  5966  5970  0
5647  5972  5646  0
5651  5650  5655  0
5647  5391  5972  0
5126  5967  5396  0
5655  5656  5973  0
5655  5973  5651  0
5656  5657  5974  0
5656  5974  5973  0
5659  5975  5658  0
5391  5664  5976  0
5391  5976  5972  0
5396  5977  5660  0
5396  5978  5977  0
5657  5661  5979  0
5657  5979  5974  0
5974  5979  5980  0
5974  5980  5973  0
5971  5981  5663  0
5971  5663  5389  0
5660  5977  5982  0
5661  5665  5979  0
5667  5983  5666  0
5663  5669  5395  0
5664  5399  5670  0
5664  5670  5976  0
5660  5982  5671  0
5671  5984  5403  0
5403  5984  5985  0
5403  5985  5407  0
5665  5672  5979  0
5986  5979  5672  0
5673  5666  5983  0
5406  5987  5668  0
5988  5989  5410  0
5410  5989  5411  0
5990  5411  5989  0
5991  5663  5981  0
5663  5992  5669  0
5663  5991  5992  0
5674  5670  5402  0
5407  5985  5675  0
5680  5147  5675  0
5672  5409  5986  0
5409  5405  5986  0
5673  5986  5405  0
5406  5993  5987  0
5406  5676  5993  0
5994  5993  5676  0
5995  5411  5990  0
5682  5669  5992  0
5996  5992  5991  0
5669  5682  5401  0
5670  5674  5997  0
5998  5997  5674  0
5674  5678  5999  0
5674  5999  5998  0
5679  5999  5678  0
6000  5677  5150  0
5992  5996  5682  0
5999  6001  5998  0
5999  5679  6001  0
6002  6001  5679  0
5679  5684  6002  0
6003  5684  5685  0
5685  5680  6004  0
5685  6004  6003  0
6005  5676  5417  0
5417  5689  6005  0
6006  6005  5689  0
6007  5686  5681  0
5150  5687  6000  0
5996  5688  5682  0
6008  6001  6009  0
6001  6002  6009  0
6010  6009  6002  0
6002  5684  6010  0
6011  6010  5684  0
5684  6003  6011  0
5689  5690  6006  0
6012  6006  5690  0
5690  5686  6012  0
6007  6012  5686  0
6013  6008  6009  0
6009  6010  6013  0
5688  6014  5691  0
5694  5691  6014  0
6014  6015  5694  0
5697  5694  6015  0
5694  5697  5695  0
5696  6016  5693  0
5696  5697  6017  0
6018  6019  5700  0
5700  5705  5702  0
5700  6019  6020  0
5700  6020  5705  0
5703  5705  6021  0
5705  6020  6022  0
5705  6022  6021  0
6021  6022  6023  0
5698  6024  5700  0
5700  6024  6018  0
5703  6021  5707  0
6021  6023  5712  0
6021  5712  5707  0
6023  6025  5712  0
5708  6026  5698  0
5698  6026  6024  0
6024  6027  6018  0
5712  6028  5716  0
5712  6025  6029  0
5712  6029  6028  0
6028  6030  5719  0
6028  5719  5716  0
6028  6029  6030  0
5708  5713  6031  0
5708  6031  6026  0
6026  6027  6024  0
6026  6031  6027  0
5719  6032  5723  0
5719  5723  5720  0
5719  6030  6032  0
6031  5713  6033  0
6031  6033  6027  0
5723  6032  6034  0
5723  6034  5724  0
5721  5727  5713  0
5713  5727  6035  0
5713  6035  6033  0
6033  6035  6036  0
5724  6034  5726  0
5727  6037  6035  0
5727  5728  6037  0
5726  6038  5729  0
6037  5728  6039  0
5729  6038  6040  0
5730  6041  6039  0
5730  6039  5728  0
5730  5731  6042  0
5730  6042  6041  0
5729  6040  6043  0
6044  5736  5735  0
6044  5735  6045  0
5731  5732  6042  0
5729  6043  5734  0
6046  5735  5738  0
6046  6045  5735  0
5736  6047  5737  0
5733  5739  6048  0
5733  6048  5732  0
6049  5734  6043  0
6049  6043  6050  0
5738  5740  6051  0
5738  6051  6046  0
5737  6047  5741  0
5740  5741  6052  0
5740  6052  6051  0
5741  6053  6052  0
6049  5745  5734  0
5757  6054  6055  0
5757  6055  6056  0
6056  5758  5757  0
5758  6056  5760  0
5762  5746  6057  0
5746  6058  6057  0
6059  5477  5762  0
6060  5748  5483  0
5748  6061  5747  0
6062  5747  6061  0
5747  6062  5749  0
6063  5749  6062  0
5749  6063  5754  0
6064  5754  6063  0
5754  6064  5755  0
6065  5756  5755  0
6065  5755  6064  0
5198  5761  5744  0
5745  6066  5746  0
6058  5746  6066  0
5477  6059  5478  0
6060  5483  5769  0
6067  6068  5763  0
5763  6068  5764  0
6069  5764  6068  0
5763  5756  6067  0
6070  6067  5756  0
5756  6065  6070  0
6071  6070  6065  0
5757  5759  6054  0
6072  6054  5759  0
5759  5765  6072  0
5766  6072  5765  0
5766  5773  5775  0
6060  5769  6073  0
5769  5770  6073  0
6074  6073  5770  0
6075  5772  5771  0
5771  5764  6075  0
6069  6075  5764  0
5775  5774  6076  0
6077  5492  5768  0
5780  5786  5770  0
5786  6078  5770  0
6074  5770  6078  0
6079  6078  5786  0
5781  5772  6080  0
6081  6080  5772  0
5781  6080  5789  0
6082  5789  6080  0
5772  6075  6081  0
5774  5783  6076  0
6076  5783  6083  0
6084  6083  5783  0
6085  5221  5218  0
6086  5776  5777  0
5785  6086  5777  0
5491  5492  5784  0
6087  5784  5492  0
5492  6077  6087  0
5786  5787  6079  0
6088  6079  5787  0
6089  5790  5789  0
5789  6082  6089  0
6084  5783  5791  0
6087  5785  5784  0
5794  5787  5495  0
5787  5794  6090  0
5787  6090  6088  0
5790  6089  5793  0
5791  5500  6091  0
5791  6091  6084  0
5794  5795  6090  0
5793  6092  5796  0
5500  5797  6091  0
5221  5798  4946  0
5221  6085  5798  0
5795  5796  6093  0
5795  6093  6090  0
5796  6092  6093  0
6094  6095  6096  0
6094  6096  6097  0
6094  6098  6099  0
6094  6099  6095  0
6097  6100  6094  0
6097  6096  6101  0
6097  6101  6100  0
5224  5798  5799  0
5229  6102  5230  0
5229  6103  6102  0
5229  5505  6103  0
6102  5506  5230  0
6102  6098  5509  0
6102  5509  5506  0
6102  6099  6098  0
6094  6100  6104  0
6094  6104  6098  0
5502  5799  6105  0
5502  6105  5503  0
5504  5800  5505  0
5505  5800  6106  0
5509  6098  5802  0
6098  6104  6107  0
5797  5514  6108  0
5226  5503  6109  0
5226  6109  5507  0
5802  6098  6107  0
5514  6110  6108  0
5507  6111  5803  0
5508  5804  6112  0
5508  6112  5801  0
5802  6113  5511  0
6114  5514  5513  0
6114  5513  5810  0
5514  6114  6110  0
5805  6112  5804  0
5805  5248  6115  0
5512  5511  5807  0
6116  5806  5809  0
5806  6116  5517  0
6117  5517  6116  0
5510  5803  5811  0
6118  5811  5803  0
5248  5812  6115  0
5813  5517  6117  0
6119  5810  5518  0
5814  5519  6120  0
5519  5520  6120  0
6121  5815  5251  0
5251  5816  6121  0
6122  5816  5811  0
5811  6118  6122  0
6123  6122  6118  0
5518  5522  5822  0
5518  5822  6119  0
6124  5523  5814  0
6125  6121  5816  0
5816  6122  6125  0
6123  6125  6122  0
6126  5817  5524  0
5524  5823  6126  0
6127  5528  5820  0
5822  5821  6128  0
5824  6128  5821  0
6124  5825  5523  0
6129  5823  5530  0
5826  5528  6127  0
5826  6127  6130  0
6131  5824  5532  0
5829  6131  5532  0
5830  5827  5825  0
5530  5828  6129  0
6132  5536  5826  0
5826  6130  6132  0
6133  5831  5832  0
6134  5835  5834  0
5835  6135  5836  0
5836  6135  6136  0
6137  6136  6135  0
6136  6137  5837  0
6138  5837  6137  0
5837  6138  5838  0
6139  5838  6138  0
5536  6132  5542  0
5849  5542  6132  0
6140  6141  6142  0
6143  5832  5841  0
5538  6144  5840  0
5538  5845  6144  0
6142  6145  6146  0
6147  6146  6145  0
6148  6145  6142  0
6142  6141  6148  0
6141  6149  6148  0
6141  6140  6150  0
6141  6150  6149  0
5539  6151  6143  0
5539  6143  5841  0
5539  5846  6151  0
5838  6152  5844  0
6145  6153  6154  0
6145  6154  6147  0
6148  6149  6155  0
6148  6155  6145  0
5846  5544  6156  0
5846  6156  6151  0
5847  6157  5272  0
5844  6152  6158  0
5848  6159  5845  0
5850  5550  4997  0
6153  6160  6154  0
6145  6155  6153  0
5544  5851  6156  0
5852  6161  5851  0
5853  5854  6162  0
5854  5548  6163  0
5548  5272  6157  0
5548  6157  6163  0
5850  6164  5550  0
5550  6164  6165  0
5550  6165  5857  0
5852  5853  6161  0
5545  5549  5860  0
5545  5860  6166  0
5545  6166  5855  0
5856  5857  6167  0
5856  6167  5551  0
5551  6167  6168  0
5551  6168  6169  0
5551  6169  5283  0
5552  6170  5554  0
5866  5865  6171  0
6172  5554  6170  0
5863  6173  5862  0
6174  5558  5866  0
5861  6175  5860  0
5555  5554  6172  0
6172  5867  5555  0
5863  5872  6173  0
6173  6176  5862  0
6177  5862  6176  0
5862  6177  5869  0
6178  5868  5869  0
5870  5558  6174  0
6179  5559  5870  0
5872  6180  6173  0
5876  6180  5872  0
5868  6178  5873  0
6181  5873  6178  0
5562  5565  6182  0
5559  6179  5874  0
5861  5566  6175  0
6183  6175  5566  0
5876  5879  6184  0
6185  6184  5879  0
5873  6181  5880  0
6186  5880  6181  0
6187  5565  5567  0
5881  6187  5567  0
5879  5882  6188  0
6189  6188  5882  0
5879  6188  6185  0
5882  5880  6189  0
6190  6189  5880  0
5880  6186  6190  0
6191  6190  6186  0
5569  5883  5881  0
5566  5884  6183  0
6190  6188  6189  0
5875  6192  5886  0
5575  5568  5886  0
5885  6193  5887  0
6194  6195  6196  0
6197  6196  6195  0
5889  6198  5573  0
5573  6198  5574  0
5889  5888  6199  0
5574  6198  6200  0
5574  6200  5883  0
5887  6193  5579  0
6201  5888  5892  0
5892  6202  6201  0
5579  6193  6203  0
5892  5893  6202  0
5579  6203  5323  0
5893  5894  6204  0
5893  6204  6202  0
5323  6203  5594  0
6205  6206  5895  0
6205  5895  5595  0
6205  6207  6206  0
6206  5897  5896  0
6206  5896  5895  0
6206  6207  6208  0
6206  6208  5897  0
5897  6208  6209  0
6209  6210  5590  0
6209  5590  5897  0
6210  5591  5590  0
6210  6211  5591  0
5594  6203  5900  0
5901  6205  5595  0
5591  6211  5597  0
6212  5597  6211  0
5899  6213  5894  0
6204  5894  6214  0
5894  6213  6214  0
5597  6212  5610  0
5905  5610  6212  0
5902  6213  5899  0
5903  6215  6216  0
5903  5904  6215  0
5904  6217  6215  0
5904  6218  6217  0
5904  5905  6218  0
5907  6219  5902  0
6213  5902  6219  0
5599  5614  6220  0
5599  6220  5909  0
5910  5909  5907  0
6221  5907  5909  0
6219  5907  6221  0
5603  6222  5604  0
5603  5605  6222  0
6216  5913  5903  0
6223  6224  6225  0
6223  6225  5922  0
6226  5922  6225  0
6223  5922  5924  0
6223  5924  6224  0
5604  6222  6227  0
5604  6227  5911  0
6228  5912  5356  0
6216  6229  5913  0
6230  5908  5913  0
5914  5908  6230  0
5917  5616  5928  0
6220  5917  5928  0
5928  5927  6220  0
5933  6226  5927  0
5927  6226  6220  0
6226  5933  5922  0
5923  5922  5933  0
6231  5925  5921  0
5925  6231  6232  0
6233  6232  6231  0
5911  6227  5623  0
5356  5926  6228  0
5914  6230  5915  0
6234  5915  6230  0
5915  6235  5916  0
5620  5916  6235  0
5916  5620  5348  0
6236  5921  5920  0
5921  6236  6231  0
6236  6233  6231  0
5936  6228  5926  0
5915  6234  6237  0
5915  6237  6235  0
5621  5620  5939  0
5620  6235  6238  0
5620  6238  5939  0
5933  5625  5923  0
5628  5923  5625  0
5923  5628  5919  0
5940  5919  5628  0
5919  5940  5920  0
6239  5920  5940  0
5920  6239  6236  0
6240  6236  6239  0
6241  5934  5623  0
6242  5938  5627  0
5627  5939  6242  0
6243  6242  5939  0
5939  6238  6243  0
5941  6239  5940  0
6239  6244  6240  0
6239  5941  6244  0
6245  6244  5941  0
6246  5630  5935  0
5636  5937  5938  0
5938  6242  5636  0
5946  5636  6242  0
6242  6243  5946  0
5941  5631  6245  0
5631  5630  6245  0
6246  6245  5630  0
5371  6247  5936  0
5946  6243  5947  0
5632  5633  5950  0
5632  5950  5942  0
5942  6248  6249  0
5942  6249  5943  0
5942  5950  6250  0
5942  6250  6248  0
5943  6249  6251  0
5943  6251  5944  0
5944  6251  6252  0
5105  5945  6247  0
5105  6247  5371  0
5947  6253  5948  0
5947  6254  6253  0
6253  6254  6255  0
5950  5949  6250  0
5944  6256  5951  0
5944  6252  6256  0
5638  5959  5952  0
5945  5952  6257  0
5954  6258  5960  0
5955  5643  5961  0
5955  5961  6259  0
5948  6253  6255  0
5951  6256  6260  0
5951  6260  5957  0
5642  5965  5958  0
5961  5962  6261  0
5962  5948  6255  0
5962  6255  6261  0
5963  5969  6262  0
5963  6262  5956  0
5964  5388  5645  0
5958  5965  6263  0
5966  5646  6264  0
5969  5968  6265  0
5646  6266  6264  0
5646  5972  6266  0
5968  5651  6267  0
5968  6267  6265  0
5652  5393  6268  0
5970  6269  5971  0
5972  6270  6266  0
5978  5967  6271  0
5967  5978  5396  0
5651  5973  6267  0
5659  5652  6272  0
6268  6272  5652  0
5659  6272  5975  0
5393  5394  6268  0
6273  6268  5394  0
6274  5971  6269  0
5976  6270  5972  0
5973  5980  6275  0
6276  6275  5980  0
6277  5662  5658  0
5658  5975  6277  0
6272  6277  5975  0
5987  6273  5394  0
6270  5976  6278  0
6279  6278  5976  0
6280  5982  5977  0
6281  5982  6280  0
5982  6281  5671  0
5984  5671  6281  0
5986  5980  5979  0
5980  5986  6276  0
6282  6276  5986  0
5667  5662  5983  0
5662  6277  6283  0
5662  6283  5983  0
6284  5983  6283  0
5394  5668  5987  0
5976  5670  6279  0
5984  6285  5985  0
6286  5985  6285  0
6284  6287  5983  0
5983  6287  5673  0
6288  5673  6287  0
5981  6289  5991  0
5670  5997  6279  0
6290  6279  5997  0
5985  6286  6291  0
5985  6291  5675  0
5410  5677  6292  0
5996  5991  6293  0
5991  6289  6293  0
5998  6294  5997  0
5997  6294  6290  0
6295  6290  6294  0
5675  6004  5680  0
6005  5994  5676  0
6296  5994  6005  0
5411  5995  5681  0
6292  5677  6297  0
6000  6297  5677  0
6298  6292  6297  0
6294  5998  6299  0
6300  6299  5998  0
6294  6299  6295  0
6301  6295  6299  0
6001  6300  5998  0
6004  5675  6003  0
6005  6006  6296  0
5681  5995  6007  0
6297  6302  6298  0
5996  6014  5688  0
5996  6293  6303  0
5996  6303  6014  0
6299  6300  6304  0
6299  6304  6305  0
6299  6305  6301  0
6300  6001  6008  0
6300  6008  6304  0
6003  6306  6011  0
6006  6012  6307  0
6006  6307  6296  0
6000  5687  6297  0
6014  6303  6308  0
6304  6008  6309  0
6304  6309  6305  0
6008  6013  6309  0
6010  6011  6310  0
6010  6310  6013  0
5687  5692  6311  0
5687  6311  6297  0
6014  6308  6015  0
6309  6013  6312  0
5692  5693  6016  0
5692  6016  6313  0
5692  6313  6311  0
6015  6017  5697  0
6015  6314  6017  0
6016  5696  6315  0
6016  6315  6313  0
5696  6017  6314  0
5696  6314  6315  0
6316  6020  6019  0
6020  6317  6022  0
6317  6318  6023  0
6317  6023  6022  0
6023  6318  6319  0
6320  6023  6319  0
6018  6321  6019  0
6019  6321  6322  0
6023  6323  6029  0
6023  6029  6025  0
6023  6320  6323  0
6018  6027  6324  0
6018  6324  6321  0
6321  6324  6325  0
6321  6325  6326  0
6321  6326  6322  0
6327  6030  6029  0
6027  6033  6324  0
6324  6328  6325  0
6325  6328  6329  0
6033  6036  6324  0
6324  6036  6328  0
6328  6330  6329  0
6032  6331  6034  0
6332  6034  6331  0
6036  6333  6328  0
6328  6333  6330  0
6034  6332  5726  0
6038  5726  6332  0
6035  6037  6334  0
6035  6334  6036  0
6036  6334  6333  0
6333  6335  6330  0
6330  6335  6336  0
6037  6039  6334  0
6337  6334  6039  0
6334  6337  6333  0
6335  6333  6337  0
6039  6041  6338  0
6339  6338  6041  0
6039  6340  6337  0
6341  6337  6340  0
6337  6341  6335  0
6342  6335  6341  0
6336  6335  6342  0
6050  6043  6040  0
6343  6044  6344  0
6044  6045  6344  0
6345  6044  6343  0
6044  6345  5736  0
6346  5736  6345  0
6041  6042  6339  0
6347  6339  6042  0
6042  5732  6348  0
6042  6348  6347  0
6046  6349  6045  0
6350  6349  6046  0
5736  6346  6047  0
6351  6047  6346  0
6048  6348  5732  0
6050  6352  6049  0
6051  6353  6046  0
6353  6350  6046  0
6354  6350  6353  0
5741  6047  6053  0
6351  6053  6047  0
6355  6348  6048  0
6356  6049  6352  0
6353  6051  5762  0
6357  5762  6051  0
6353  5762  6354  0
6057  6354  5762  0
6051  6052  6357  0
6358  6357  6052  0
6052  6053  6359  0
6360  6359  6053  0
6052  6359  6358  0
5739  5742  6048  0
6048  5742  6355  0
6361  6355  5742  0
6049  6356  5745  0
6059  5762  6357  0
6357  6358  6059  0
6362  6056  6055  0
6056  6362  5760  0
6361  5760  6362  0
5760  6361  5742  0
5745  6356  6363  0
6066  5745  6363  0
6059  6358  6364  0
5748  6060  6061  0
6365  6061  6060  0
6061  6365  6366  0
6061  6366  6062  0
6062  6366  6367  0
6062  6367  6063  0
6063  6367  6368  0
6063  6368  6064  0
6064  6368  6369  0
6064  6369  6370  0
6064  6370  6065  0
6065  6370  6371  0
6065  6371  6071  0
6071  6371  6372  0
6373  5743  5744  0
6374  6373  5744  0
5744  5761  6374  0
6059  6364  6375  0
6059  6375  5478  0
6060  6376  6365  0
6068  6067  6069  0
6377  6069  6067  0
6067  6070  6377  0
6070  6071  6378  0
6070  6378  6377  0
6372  6378  6071  0
6054  6072  6379  0
6072  5766  6380  0
6072  6380  6379  0
5766  5775  6381  0
5766  6381  6380  0
5775  6076  6382  0
5775  6382  6381  0
5743  6373  5218  0
5761  5776  6374  0
5767  5478  6375  0
5767  6375  5768  0
6073  6383  6060  0
6073  6074  6383  0
6060  6383  6376  0
6075  6069  6384  0
6075  6384  6385  0
6069  6377  6386  0
6069  6386  6384  0
6076  6083  6382  0
5218  6373  6387  0
5768  6375  6388  0
5768  6388  6077  0
6080  6081  6082  0
6081  6075  6385  0
5218  6387  6085  0
5776  6086  6389  0
6079  6074  6078  0
6079  6088  6390  0
6082  6081  6391  0
6389  6086  6392  0
5785  6087  6393  0
5785  6393  6394  0
5785  6394  6086  0
6087  6077  6395  0
6088  6090  6396  0
6088  6396  6390  0
6089  6082  6391  0
6089  6391  6397  0
6089  6397  5793  0
6087  6395  6393  0
5793  6397  6398  0
5793  6398  6092  0
6399  5798  6085  0
6090  6093  6400  0
6093  6092  6106  0
6093  6106  6400  0
6091  5797  6401  0
6091  6401  6402  0
6106  6092  6103  0
6092  6398  6103  0
6398  6403  6103  0
6095  6404  6096  0
6101  6096  6404  0
6095  6099  6404  0
6405  6100  6101  0
6406  6100  6405  0
6407  5798  6399  0
5505  6106  6103  0
