#!ascii file
1493  1487  1711  0
1350  1362  1488  0
1363  1708  1712  0
1363  1712  1218  0
1495  1713  1498  0
1499  1714  1491  0
1491  1715  1710  0
1491  1714  1715  0
1493  1711  1716  0
1493  1716  1361  0
1362  1717  1488  0
1488  1717  1718  0
1218  1712  1501  0
1365  1502  1496  0
1498  1713  1497  0
1719  1497  1713  0
1497  1719  1499  0
1714  1499  1719  0
1361  1720  1364  0
1361  1716  1720  0
1721  1720  1716  0
1362  1500  1717  0
1502  1367  1722  0
1364  1720  1506  0
1720  1721  1506  0
1723  1506  1721  0
1724  1504  1503  0
1225  1501  1505  0
1367  1368  1513  0
1367  1513  1722  0
1506  1723  1507  0
1725  1507  1723  0
1724  1508  1726  0
1724  1726  1727  0
1724  1727  1728  0
1724  1503  1508  0
1729  1511  1510  0
1507  1725  1370  0
1514  1730  1508  0
1505  1520  1377  0
1379  1516  1731  0
1379  1731  1241  0
1516  1370  1732  0
1725  1732  1370  0
1733  1726  1508  0
1730  1514  1734  0
1735  1734  1514  0
1380  1735  1514  0
1736  1512  1381  0
1513  1375  1737  0
1383  1737  1375  0
1513  1737  1738  0
1384  1241  1739  0
1384  1739  1521  0
1508  1730  1733  0
1734  1733  1730  0
1735  1380  1740  0
1518  1740  1380  0
1517  1515  1741  0
1517  1741  1519  0
1381  1386  1736  0
1736  1386  1742  0
1737  1524  1738  0
1519  1741  1743  0
1386  1523  1742  0
1737  1383  1744  0
1737  1744  1524  0
1519  1743  1745  0
1519  1745  1526  0
1744  1383  1392  0
1522  1394  1746  0
1527  1747  1523  0
1744  1392  1532  0
1521  1739  1528  0
1521  1528  1248  0
1394  1530  1746  0
1739  1748  1528  0
1527  1391  1747  0
1389  1749  1262  0
1528  1750  1751  0
1528  1751  1393  0
1393  1751  1395  0
1531  1747  1391  0
1264  1399  1752  0
1395  1751  1753  0
1395  1753  1397  0
1397  1753  1536  0
1533  1754  1529  0
1533  1537  1754  0
1749  1532  1262  0
1752  1399  1755  0
1399  1535  1755  0
1536  1753  1756  0
1535  1536  1757  0
1535  1757  1758  0
1535  1758  1759  0
1535  1759  1755  0
1536  1756  1757  0
1537  1538  1760  0
1537  1760  1754  0
1758  1757  1761  0
1757  1762  1761  0
1762  1763  1761  0
1764  1761  1763  0
1405  1110  1765  0
1405  1765  1766  0
1766  1407  1406  0
1766  1406  1405  0
1766  1767  1407  0
1767  1542  1407  0
1539  1768  1541  0
1110  1769  1765  0
1542  1760  1266  0
1538  1266  1760  0
1277  1543  1408  0
1768  1770  1541  0
1110  1411  1769  0
1544  1273  1771  0
1273  1543  1771  0
1545  1541  1770  0
1770  1417  1545  0
1411  1412  1772  0
1547  1772  1412  0
1773  1548  1546  0
1276  1773  1546  0
1549  1413  1774  0
1775  1550  1776  0
1415  1776  1550  0
1776  1415  1417  0
1770  1776  1417  0
1550  1552  1287  0
1777  1553  1778  0
1413  1551  1779  0
1413  1779  1774  0
1780  1778  1555  0
1780  1781  1778  0
1780  1782  1781  0
1778  1553  1555  0
1553  1777  1556  0
1777  1783  1556  0
1566  1556  1783  0
1784  1290  1552  0
1565  1782  1780  0
1565  1564  1785  0
1565  1785  1782  0
1780  1555  1563  0
1780  1563  1565  0
1557  1569  1558  0
1786  1419  1558  0
1419  1786  1559  0
1559  1787  1560  0
1788  1560  1787  0
1566  1789  1567  0
1568  1790  1420  0
1791  1420  1790  0
1569  1420  1791  0
1560  1788  1574  0
1788  1418  1561  0
1788  1561  1574  0
1788  1551  1418  0
1570  1422  1290  0
1570  1290  1784  0
1425  1792  1426  0
1426  1792  1430  0
1430  1792  1575  0
1575  1793  1576  0
1576  1793  1564  0
1794  1578  1567  0
1572  1567  1578  0
1573  1790  1568  0
1435  1572  1578  0
1300  1795  1428  0
1290  1429  1130  0
1796  1579  1578  0
1796  1578  1797  0
1300  1580  1798  0
1582  1440  1799  0
1440  1441  1594  0
1440  1594  1800  0
1440  1800  1799  0
1583  1585  1801  0
1585  1444  1590  0
1585  1590  1802  0
1796  1803  1579  0
1804  1803  1796  0
1588  1581  1582  0
1805  1806  1604  0
1805  1604  1807  0
1584  1808  1589  0
1802  1809  1585  0
1590  1448  1597  0
1590  1597  1802  0
1803  1592  1579  0
1810  1803  1804  0
1811  1580  1586  0
1594  1812  1813  0
1594  1813  1800  0
1600  1806  1601  0
1806  1814  1601  0
1815  1601  1814  0
1806  1600  1604  0
1816  1807  1604  0
1589  1808  1596  0
1817  1809  1802  0
1598  1451  1619  0
1803  1810  1818  0
1803  1818  1592  0
1592  1818  1591  0
1591  1818  1819  0
1591  1819  1453  0
1588  1820  1587  0
1594  1319  1812  0
1454  1812  1319  0
1812  1454  1813  0
1602  1601  1813  0
1604  1603  1816  0
1802  1597  1821  0
1613  1821  1597  0
1802  1821  1817  0
1597  1598  1613  0
1615  1613  1598  0
1598  1619  1615  0
1606  1619  1451  0
1624  1607  1453  0
1453  1819  1822  0
1453  1822  1624  0
1586  1609  1811  0
1587  1820  1610  0
1454  1455  1627  0
1454  1627  1813  0
1813  1627  1602  0
1596  1629  1605  0
1817  1821  1639  0
1616  1639  1821  0
1817  1639  1823  0
1821  1613  1616  0
1624  1822  1824  0
1610  1820  1825  0
1455  1635  1627  0
1630  1629  1826  0
1639  1827  1823  0
1632  1633  1828  0
1633  1634  1828  0
1634  1624  1824  0
1609  1599  1829  0
1609  1829  1811  0
1599  1625  1829  0
1830  1610  1825  0
1630  1826  1831  0
1832  1831  1826  0
1827  1639  1833  0
1639  1640  1834  0
1639  1834  1833  0
1640  1631  1835  0
1640  1835  1836  0
1640  1836  1834  0
1837  1834  1836  0
1631  1632  1838  0
1631  1838  1835  0
1632  1828  1839  0
1632  1839  1838  0
1828  1840  1839  0
1828  1634  1841  0
1828  1841  1840  0
1829  1625  1842  0
1628  1643  1843  0
1844  1842  1625  0
1625  1610  1844  0
1830  1844  1610  0
1643  1650  1843  0
1845  1843  1650  0
1661  1653  1654  0
1845  1650  1656  0
1657  1661  1846  0
1657  1847  1656  0
1656  1847  1848  0
1656  1848  1845  0
1664  1663  1662  0
1664  1665  1849  0
1652  1666  1654  0
1850  1663  1664  0
1664  1849  1850  0
1665  1667  1849  0
1672  1849  1667  0
1851  1673  1668  0
1851  1668  1852  0
1853  1666  1669  0
1669  1670  1854  0
1669  1854  1853  0
1855  1671  1663  0
1663  1850  1855  0
1849  1856  1850  0
1849  1672  1856  0
1672  1673  1857  0
1854  1670  1858  0
1670  1674  1859  0
1670  1859  1858  0
1675  1860  1674  0
1671  1855  1861  0
1671  1861  1675  0
1855  1862  1861  0
1855  1850  1856  0
1855  1856  1862  0
1856  1672  1857  0
1856  1857  1863  0
1862  1856  1863  0
1862  1863  1864  0
1676  1865  1679  0
1680  1679  1865  0
1680  1866  1684  0
1680  1684  1677  0
1680  1867  1866  0
1866  1868  1869  0
1866  1869  1684  0
1866  1867  1868  0
1870  1868  1867  0
1868  1871  1872  0
1868  1872  1869  0
1868  1870  1871  0
1873  1871  1870  0
1871  1874  1685  0
1871  1685  1872  0
1871  1873  1874  0
1875  1874  1873  0
1874  1876  1686  0
1874  1686  1685  0
1874  1875  1876  0
1877  1876  1875  0
1876  1688  1686  0
1876  1877  1688  0
1878  1688  1877  0
1879  1688  1878  0
1681  1692  1880  0
1681  1678  1692  0
1881  1681  1880  0
1681  1881  1676  0
1865  1676  1881  0
1684  1869  1695  0
1684  1695  1683  0
1882  1695  1869  0
1869  1872  1882  0
1883  1882  1872  0
1884  1883  1872  0
1872  1685  1884  0
1687  1884  1685  0
1688  1879  1689  0
1885  1689  1879  0
1886  1883  1884  0
1887  1886  1884  0
1884  1687  1887  0
1477  1887  1687  0
1689  1885  1696  0
1691  1888  1692  0
1695  1882  1889  0
1887  1477  1698  0
1890  1887  1698  0
1476  1696  1697  0
1891  1697  1696  0
1696  1885  1891  0
1692  1888  1892  0
1694  1695  1889  0
1698  1699  1890  0
1697  1891  1893  0
1697  1893  1894  0
1697  1894  1700  0
1888  1691  1895  0
1888  1895  1896  0
1888  1896  1892  0
1701  1694  1897  0
1694  1705  1897  0
1699  1702  1890  0
1700  1894  1898  0
1700  1898  1703  0
1691  1693  1899  0
1691  1899  1895  0
1693  1701  1900  0
1693  1900  1899  0
1701  1897  1900  0
1704  1703  1898  0
1704  1898  1901  0
1899  1902  1903  0
1899  1903  1895  0
1348  1484  1705  0
1706  1704  1901  0
1899  1900  1902  0
1900  1904  1902  0
1484  1707  1705  0
1481  1706  1482  0
1708  1482  1706  0
1905  1906  1907  0
1908  1905  1909  0
1905  1907  1909  0
1905  1908  1906  0
1713  1906  1908  0
1711  1487  1485  0
1902  1904  1910  0
1911  1707  1488  0
1494  1912  1907  0
1907  1906  1494  0
1495  1494  1906  0
1906  1713  1495  0
1488  1718  1911  0
1912  1494  1496  0
1913  1710  1715  0
1710  1913  1914  0
1711  1915  1716  0
1502  1916  1496  0
1714  1917  1715  0
1918  1715  1917  0
1715  1918  1913  0
1716  1915  1919  0
1716  1919  1721  0
1718  1717  1920  0
1916  1502  1722  0
1714  1719  1917  0
1721  1919  1921  0
1721  1921  1723  0
1724  1728  1922  0
1724  1922  1504  0
1504  1922  1509  0
1723  1921  1923  0
1723  1923  1725  0
1922  1924  1509  0
1509  1925  1510  0
1509  1924  1925  0
1510  1925  1729  0
1500  1512  1736  0
1500  1736  1717  0
1717  1736  1920  0
1722  1513  1738  0
1725  1923  1926  0
1927  1729  1925  0
1505  1928  1520  0
1732  1725  1926  0
1732  1926  1516  0
1929  1726  1733  0
1727  1726  1929  0
1729  1515  1511  0
1928  1738  1524  0
1241  1731  1930  0
1241  1930  1739  0
1931  1929  1733  0
1740  1518  1932  0
1729  1927  1515  0
1933  1515  1927  0
1515  1933  1741  0
1520  1928  1524  0
1934  1931  1733  0
1733  1734  1934  0
1935  1934  1734  0
1734  1735  1935  0
1936  1935  1735  0
1735  1740  1936  0
1932  1936  1740  0
1742  1523  1937  0
1739  1938  1939  0
1940  1932  1518  0
1522  1940  1518  0
1743  1741  1941  0
1743  1941  1745  0
1389  1525  1524  0
1744  1389  1524  0
1739  1939  1748  0
1522  1746  1940  0
1523  1747  1942  0
1523  1942  1937  0
1389  1744  1532  0
1389  1532  1749  0
1748  1943  1750  0
1748  1750  1528  0
1526  1745  1747  0
1526  1747  1531  0
1529  1754  1530  0
1944  1530  1754  0
1530  1944  1746  0
1750  1945  1751  0
1946  1751  1945  0
1751  1946  1753  0
1947  1944  1754  0
1264  1752  1401  0
1402  1401  1752  0
1756  1753  1946  0
1948  1947  1754  0
1949  1752  1755  0
1759  1949  1755  0
1950  1757  1756  0
1951  1754  1760  0
1754  1951  1948  0
1757  1950  1762  0
1949  1759  1952  0
1953  1952  1759  0
1949  1952  1954  0
1949  1954  1752  0
1759  1758  1953  0
1761  1953  1758  0
1766  1955  1956  0
1766  1956  1767  0
1766  1765  1955  0
1767  1956  1957  0
1767  1957  1542  0
1760  1958  1951  0
1953  1761  1959  0
1761  1764  1959  0
1769  1960  1765  0
1769  1961  1960  0
1962  1776  1770  0
1962  1770  1768  0
1953  1959  1963  0
1953  1964  1952  0
1959  1764  1965  0
1959  1965  1963  0
1961  1769  1411  0
1771  1966  1544  0
1771  1543  1967  0
1543  1277  1967  0
1277  1549  1967  0
1953  1963  1968  0
1953  1968  1964  0
1969  1964  1968  0
1970  1963  1965  0
1971  1773  1544  0
1276  1544  1773  0
1971  1544  1966  0
1972  1775  1962  0
1776  1962  1775  0
1973  1968  1963  0
1963  1970  1973  0
1974  1973  1970  0
1772  1961  1411  0
1772  1547  1975  0
1976  1975  1547  0
1547  1548  1976  0
1773  1976  1548  0
1552  1550  1775  0
1968  1973  1977  0
1777  1977  1973  0
1968  1977  1969  0
1973  1978  1777  0
1783  1777  1978  0
1973  1974  1978  0
1979  1783  1978  0
1781  1980  1977  0
1980  1981  1977  0
1969  1977  1981  0
1982  1981  1980  0
1977  1777  1781  0
1778  1781  1777  0
1774  1779  1983  0
1782  1982  1980  0
1980  1781  1782  0
1979  1789  1783  0
1566  1783  1789  0
1979  1984  1789  0
1982  1782  1785  0
1982  1785  1985  0
1986  1789  1984  0
1558  1569  1987  0
1558  1987  1988  0
1558  1988  1786  0
1559  1786  1989  0
1559  1989  1787  0
1787  1551  1788  0
1787  1779  1551  0
1784  1990  1570  0
1570  1990  1991  0
1793  1992  1985  0
1793  1985  1785  0
1793  1575  1993  0
1793  1993  1992  0
1785  1564  1793  0
1986  1994  1794  0
1986  1794  1567  0
1986  1567  1789  0
1569  1791  1987  0
1570  1991  1425  0
1425  1991  1792  0
1994  1995  1794  0
1428  1795  1573  0
1996  1573  1795  0
1573  1996  1790  0
1997  1790  1996  0
1998  1995  1994  0
1995  1797  1794  0
1578  1794  1797  0
1995  1999  1797  0
1796  1797  1999  0
1995  1998  1999  0
2000  1999  1998  0
1300  1798  1795  0
2001  1795  1798  0
1584  2002  1808  0
2003  1584  1583  0
1583  1801  2003  0
1801  1585  2004  0
1801  2004  2003  0
1999  2000  1804  0
1999  1804  1796  0
1798  1580  2001  0
1582  1799  1588  0
1815  1800  1813  0
1815  1814  2005  0
1805  1814  1806  0
1805  1807  2006  0
1807  2007  2006  0
2004  1585  1809  0
2004  2008  2003  0
2000  2009  2010  0
2000  2010  1804  0
1804  2010  1810  0
1580  1811  2011  0
1588  1799  2012  0
1588  2012  1820  0
1813  1601  1815  0
2004  1809  1817  0
2004  1817  2013  0
2004  2013  2008  0
1810  2014  1818  0
1818  2015  1819  0
1818  2014  2015  0
1820  2012  1825  0
2013  1817  1823  0
1819  2015  2016  0
1819  2016  1822  0
1603  1628  1816  0
2017  1816  1628  0
1629  1596  2018  0
2019  1629  2018  0
1822  2016  1824  0
2020  1824  2016  0
1629  2019  1826  0
2021  1823  1827  0
1634  1824  1841  0
2020  1841  1824  0
1811  1829  2022  0
1825  2023  1830  0
1825  2024  2023  0
2025  2023  2024  0
1628  1843  2017  0
2026  2017  1843  0
2027  2017  2026  0
2017  2027  2028  0
1827  1833  2029  0
1834  2029  1833  0
1827  2029  2021  0
2030  2021  2029  0
1836  1835  2031  0
2032  2031  1835  0
1836  2031  1837  0
1835  1838  2032  0
2033  2032  1838  0
1838  1839  2033  0
2034  2033  1839  0
1839  1840  2035  0
2036  2035  1840  0
1839  2035  2034  0
2036  2034  2035  0
1840  1841  2036  0
2037  2036  1841  0
1841  2020  2037  0
1829  1842  2022  0
2038  2022  1842  0
2039  2027  2026  0
2040  1832  1826  0
2029  1834  2041  0
2042  2041  1834  0
1834  1837  2042  0
2043  2042  1837  0
1837  2031  2043  0
1842  1844  2044  0
1842  2044  2045  0
1842  2045  2038  0
1830  2023  2025  0
1830  2025  2046  0
1830  2046  2047  0
1830  2047  1844  0
1843  1845  2048  0
1843  2048  2026  0
1832  2049  2050  0
1832  2040  2049  0
2042  2043  2051  0
2043  2052  2051  0
2044  1844  2047  0
2048  2039  2026  0
2048  1845  2053  0
2049  1851  2050  0
1654  2054  1661  0
1661  2054  1846  0
1848  2053  1845  0
1848  1847  2055  0
1848  2055  2053  0
2056  1851  2049  0
2056  2049  2057  0
1654  1666  1853  0
1654  1853  2054  0
1657  1846  2055  0
1657  2055  1847  0
1851  1857  1673  0
1851  2056  1857  0
2058  1857  2056  0
2059  1854  1858  0
1860  1859  1674  0
1863  1857  2058  0
2060  1858  1859  0
1859  1860  2060  0
1864  1863  2061  0
1865  2062  1680  0
1680  2062  1867  0
2063  1867  2062  0
2064  1867  2063  0
1867  2064  1870  0
2065  1870  2064  0
1870  2065  1873  0
2066  1873  2065  0
2067  1873  2066  0
1873  2067  1875  0
1877  1875  2067  0
1879  1878  2068  0
1881  2069  1865  0
2062  1865  2069  0
2062  2070  2063  0
1879  2068  2071  0
1879  2071  1885  0
1692  2072  1880  0
2072  2073  2074  0
2072  2074  1880  0
2072  2075  2073  0
1880  2074  2076  0
1880  2076  1881  0
1881  2076  2069  0
2069  2077  2062  0
2069  2078  2077  0
2062  2077  2070  0
2070  2079  2063  0
1882  1883  1886  0
1882  1886  1889  0
2072  1692  1892  0
2072  1892  2075  0
2077  2078  2079  0
2077  2079  2070  0
1886  1890  1889  0
1886  1887  1890  0
1891  1885  2080  0
1891  2080  2081  0
1892  2082  2075  0
1889  1890  1702  0
1893  1891  2081  0
1892  1896  2082  0
1694  1889  1705  0
1894  1893  2083  0
1894  2083  1898  0
1896  2084  2085  0
1896  2085  2082  0
1896  1895  2084  0
2083  1901  1898  0
2084  1895  1903  0
2086  1706  1901  0
2087  2088  2089  0
2090  2089  2091  0
2089  2088  2091  0
2092  2091  2088  0
2089  2090  2087  0
2093  2085  2084  0
1900  1897  1904  0
1707  1904  1897  0
1706  2086  1708  0
2094  1708  2086  0
2086  2095  2094  0
2096  2088  1909  0
1908  1909  2088  0
2096  2097  2088  0
2092  2088  2097  0
2096  1909  2097  0
2098  2097  1909  0
2088  2087  1908  0
2099  1908  2087  0
2087  2100  2099  0
2084  1903  2093  0
1903  1902  2093  0
2101  2093  1902  0
1910  2101  1902  0
2098  1909  1912  0
1907  1912  1909  0
2098  1912  2102  0
1908  2099  1713  0
1719  1713  2099  0
2099  2100  2103  0
2099  2103  1719  0
1485  1710  1914  0
1485  1914  1711  0
2101  1910  2104  0
2105  2104  1910  0
2106  2105  1910  0
1910  1904  2106  0
1904  1707  2107  0
1904  2107  2106  0
1708  2094  1712  0
2102  1912  1496  0
1719  2103  2108  0
2102  1496  1916  0
2102  1916  2109  0
1719  2108  2110  0
1913  2111  1914  0
1914  2111  1915  0
1914  1915  1711  0
1913  2112  2111  0
2113  2111  2112  0
1913  1918  2112  0
2111  2113  1919  0
2111  1919  1915  0
1718  1920  2114  0
1718  2114  1911  0
1719  2110  1917  0
2115  1917  2110  0
1917  2115  1918  0
2113  2116  1919  0
2117  1919  2116  0
1919  2117  1921  0
1923  1921  2118  0
2117  2118  1921  0
1924  1922  2119  0
2120  2114  1920  0
1928  1505  1501  0
1501  1722  1928  0
1738  1928  1722  0
2118  2121  1923  0
2122  1923  2121  0
1923  2122  1926  0
2123  1926  2122  0
2124  1728  1727  0
1728  2124  1922  0
2119  1922  2124  0
2125  1925  1924  0
2126  1925  2125  0
1927  1925  2126  0
2127  1920  1736  0
1920  2127  2120  0
1516  1926  2123  0
1516  2123  1731  0
2128  1731  2123  0
2129  1727  1929  0
2119  2130  1924  0
2131  1924  2130  0
2125  2132  2126  0
1736  1742  2127  0
2128  1930  1731  0
2133  1929  1931  0
2133  2129  1929  0
1927  2134  1933  0
1742  1937  2127  0
2127  1937  2135  0
2127  2135  2120  0
1739  1930  2136  0
1739  2136  1938  0
2137  2138  2139  0
2137  2139  2140  0
2137  2141  2142  0
2137  2142  2138  0
2140  2143  2144  0
2140  2144  2137  0
2140  2139  2143  0
2143  1931  1934  0
2143  1934  2144  0
2143  2139  2133  0
2143  2133  1931  0
1933  2134  1741  0
1937  2145  2135  0
2142  2141  2146  0
2137  2144  2141  0
2144  1934  2147  0
2144  2147  2141  0
1934  1935  2148  0
1934  2148  2147  0
1935  1936  2148  0
1936  1932  2149  0
1741  2150  1941  0
2145  2151  2135  0
2141  2152  2146  0
2141  2147  2153  0
2141  2153  2152  0
2147  2148  2153  0
2148  1936  2154  0
1936  2149  2155  0
1936  2155  2154  0
2149  2156  2155  0
2149  1932  2157  0
1932  1940  2157  0
2158  1745  1941  0
1937  1942  2145  0
2159  1748  1939  0
2146  2152  2160  0
2153  2160  2152  0
2154  2153  2148  0
1940  1746  2161  0
2162  2161  1746  0
2163  1745  2158  0
1942  2164  2145  0
2151  2145  2164  0
1943  1748  2159  0
2165  2160  2153  0
2164  1745  2163  0
1745  1942  1747  0
1745  2164  1942  0
1945  1750  1943  0
1746  1944  2162  0
1947  2162  1944  0
1945  1943  2166  0
1945  2167  1946  0
2168  1946  2167  0
1946  2168  1756  0
2168  1950  1756  0
1402  1752  1954  0
1539  1402  2169  0
1402  1954  2169  0
1954  2170  2169  0
1950  1764  1763  0
1950  1763  1762  0
1950  2168  2171  0
1950  2171  1764  0
2172  1955  1765  0
2172  1765  1960  0
2172  2173  2174  0
2172  2174  1955  0
2172  1960  2175  0
2172  2175  2173  0
1955  2174  2176  0
1955  2176  1956  0
1956  2176  1957  0
1957  2177  1542  0
1542  2177  2178  0
2178  1958  1760  0
2178  1760  1542  0
2170  1954  2179  0
2170  2179  2180  0
2170  2180  2169  0
1954  1952  2179  0
1764  2171  2181  0
1960  2182  2175  0
2179  1952  1964  0
2179  1964  2180  0
1764  2181  1965  0
2183  1965  2181  0
1960  1961  2182  0
2184  1967  1549  0
2180  1964  2185  0
1969  2185  1964  0
1965  2183  1970  0
2186  1970  2183  0
1549  1774  2184  0
1983  2184  1774  0
2185  1969  1981  0
1970  2186  1974  0
2187  1974  2186  0
1961  1772  2188  0
1975  2188  1772  0
1975  1976  2189  0
1976  1773  2190  0
1773  1971  2190  0
2191  1552  1775  0
1981  2192  2185  0
1974  2193  1978  0
1979  1978  2193  0
1974  2187  2194  0
1974  2194  2193  0
2192  1981  1985  0
1982  1985  1981  0
2192  1985  2195  0
2193  1984  1979  0
2193  2194  2196  0
2193  2196  1984  0
1552  2191  1990  0
1984  2196  2197  0
1989  1786  2198  0
1787  1989  2199  0
1787  2199  1779  0
1779  2199  2200  0
1552  1990  1784  0
1992  2201  2195  0
1992  2195  1985  0
1984  2197  1986  0
1988  1987  2202  0
1786  1988  2198  0
1991  1990  2203  0
2203  1993  1792  0
2203  1792  1991  0
2203  2204  1993  0
1993  1575  1792  0
1992  1993  2204  0
2197  1994  1986  0
2205  1994  2197  0
1791  2206  1987  0
1998  1994  2205  0
1790  2207  1791  0
2206  1791  2207  0
1790  1997  2207  0
2208  1996  1795  0
1996  2208  1997  0
2209  1997  2208  0
1795  2001  2208  0
2210  2208  2001  0
1799  1800  2211  0
2212  2211  1800  0
1800  1815  2212  0
2005  2212  1815  0
2005  1814  1805  0
2005  1805  2213  0
2006  2213  1805  0
2006  2007  2214  0
1584  2003  2002  0
1998  2215  2000  0
2000  2215  2009  0
2210  2001  2216  0
2001  2217  2216  0
2007  1807  2218  0
2007  2218  2219  0
2007  2219  2214  0
2010  2009  2220  0
2010  2220  1810  0
2001  1580  2217  0
1580  2011  2217  0
1799  2221  2012  0
1807  1816  2222  0
1807  2222  2218  0
2218  2222  2223  0
1808  2224  1596  0
2008  2013  2225  0
1810  2220  2014  0
2222  1816  2028  0
2222  2028  2226  0
2222  2226  2223  0
2226  2227  2223  0
1596  2224  2018  0
2228  2225  2013  0
2015  2014  2229  0
2230  2011  1811  0
1825  2012  2024  0
2012  2231  2024  0
2028  1816  2017  0
2232  2226  2028  0
2226  2232  2233  0
2019  2233  2232  0
2226  2233  2227  0
2233  2019  2018  0
2224  2233  2018  0
2013  1823  2228  0
2021  2228  1823  0
2015  2234  2016  0
2020  2016  2234  0
2015  2229  2234  0
1811  2022  2230  0
2235  2024  2231  0
2028  2236  2232  0
2232  2237  2019  0
1826  2019  2237  0
2037  2234  2238  0
2229  2239  2234  0
2234  2239  2238  0
2234  2037  2020  0
2024  2235  2025  0
2240  2025  2235  0
2028  2027  2236  0
2236  2241  2232  0
2237  2232  2241  0
2237  2040  1826  0
2021  2030  2242  0
2031  2032  2243  0
2244  2243  2032  0
2245  2031  2243  0
2032  2033  2244  0
2246  2244  2033  0
2033  2034  2246  0
2247  2246  2034  0
2034  2036  2238  0
2037  2238  2036  0
2034  2238  2247  0
2022  2038  2248  0
2022  2248  2230  0
2046  2025  2240  0
2027  2039  2249  0
2027  2249  2236  0
2236  2249  2241  0
2237  2241  2250  0
2237  2250  2040  0
2031  2245  2043  0
2251  2043  2245  0
2039  2252  2249  0
2241  2249  2057  0
2241  2057  2250  0
2043  2251  2052  0
2045  2044  2253  0
2047  2046  2254  0
2039  2048  2252  0
2249  2252  2057  0
2250  2057  2049  0
2250  2049  2040  0
2044  2047  2255  0
2044  2255  2253  0
2053  2055  2256  0
2053  2256  2048  0
2048  2256  2257  0
2048  2257  2252  0
2252  2257  2258  0
2252  2258  2057  0
2056  2057  2258  0
2259  2054  1853  0
2054  2259  1846  0
2260  2055  1846  0
2055  2260  2256  0
2261  2257  2256  0
2262  2257  2261  0
2257  2262  2258  0
2263  2258  2262  0
2258  2263  2056  0
2058  2056  2263  0
1853  1854  2259  0
2059  2259  1854  0
2259  2059  2264  0
2259  2264  1846  0
1846  2264  2260  0
2256  2260  2265  0
2256  2265  2261  0
2261  2266  2262  0
2261  2265  2266  0
2262  2266  2263  0
2058  2263  2266  0
2060  2059  1858  0
2059  2060  2267  0
2268  2267  2060  0
1863  2266  2061  0
2266  2265  2268  0
2266  2268  2061  0
2266  1863  2058  0
2064  2063  2269  0
2064  2269  2065  0
2065  2269  2066  0
2067  2066  2270  0
2067  2270  2271  0
2067  2271  1877  0
1877  2271  2272  0
1878  1877  2068  0
2273  2073  2274  0
2073  2273  2074  0
2076  2074  2273  0
2063  2275  2269  0
2063  2276  2275  0
1877  2272  2068  0
2073  2075  2274  0
2076  2078  2069  0
2076  2277  2078  0
2079  2276  2063  0
2278  2071  2068  0
2075  2279  2274  0
2078  2280  2281  0
2078  2281  2079  0
2079  2281  2282  0
2079  2282  2283  0
2079  2283  2276  0
1885  2071  2278  0
1885  2278  2080  0
2075  2082  2279  0
2284  2279  2082  0
2285  1893  2081  0
2081  2080  2285  0
2286  2284  2082  0
2283  2282  2287  0
1889  1702  1705  0
2288  2083  1893  0
1893  2285  2288  0
2082  2085  2286  0
2289  2286  2085  0
1901  2083  2086  0
2095  2086  2083  0
2083  2288  2095  0
2290  2090  2091  0
2290  2091  2291  0
2087  2090  2292  0
2090  2290  2292  0
2292  2293  2087  0
2294  2289  2085  0
1707  1897  1705  0
2092  2097  2091  0
2291  2091  2295  0
2091  2097  2295  0
2087  2293  2100  0
2296  2100  2293  0
2085  2093  2294  0
2095  2297  2109  0
2298  2097  2102  0
2098  2102  2097  0
2295  2097  2298  0
2299  2100  2296  0
2093  2101  2300  0
2093  2300  2294  0
1707  1911  2107  0
2095  2109  2094  0
2297  2102  2109  0
2298  2102  2297  0
2100  2299  2103  0
2300  2101  2301  0
2094  2109  1916  0
2094  1916  1712  0
2103  2302  2108  0
2300  2301  2303  0
2301  2101  2304  0
2101  2104  2304  0
2106  2305  2105  0
2106  2107  2305  0
2107  1911  2305  0
2306  2305  1911  0
2307  2110  2108  0
2104  2308  2304  0
2104  2105  2308  0
2105  2305  2308  0
2116  2113  2112  0
1911  2114  2309  0
1722  1712  1916  0
2110  2307  2115  0
2115  2310  1918  0
2311  1918  2310  0
2115  2307  2310  0
1918  2311  2112  0
2116  2312  2117  0
2117  2312  2313  0
1712  1722  1501  0
2313  2118  2117  0
2118  2314  2121  0
2121  2123  2122  0
2121  2314  2315  0
2121  2315  2123  0
2125  1924  2131  0
2123  2315  2316  0
2123  2316  2128  0
1727  2129  2124  0
2317  2124  2129  0
2124  2317  2119  0
2130  2119  2317  0
2132  2125  2131  0
2120  2135  2318  0
2319  2128  2316  0
2133  2320  2129  0
2129  2320  2321  0
2129  2321  2317  0
2317  2322  2130  0
2323  2130  2322  0
2130  2323  2131  0
2132  2324  2126  0
2126  2324  2134  0
2126  2134  1927  0
2136  1930  2325  0
1930  2128  2326  0
1930  2326  2325  0
2128  2319  2326  0
2327  2328  2146  0
2328  2142  2146  0
2328  2329  2142  0
2330  2142  2329  0
2142  2330  2138  0
2331  2138  2330  0
2138  2331  2139  0
2332  2139  2331  0
2139  2332  2133  0
2320  2133  2332  0
2324  2333  2334  0
2324  2334  2134  0
1938  2335  1939  0
2336  1939  2335  0
2334  2150  2134  0
2134  2150  1741  0
2149  2157  2156  0
2157  1940  2161  0
2334  2333  2150  0
2158  1941  2150  0
2159  1939  2336  0
2146  2160  2337  0
2153  2154  2165  0
2338  2165  2154  0
2154  2155  2338  0
2339  2338  2155  0
2156  2339  2155  0
2162  2157  2161  0
2159  2166  1943  0
2340  2341  2160  0
2160  2165  2340  0
2342  2340  2165  0
2164  2163  2151  0
2165  2338  2342  0
2166  2343  1945  0
2344  1945  2343  0
1945  2344  2167  0
2343  2345  2344  0
2344  2346  2167  0
1948  1951  2347  0
2167  2346  2168  0
2348  1951  1958  0
2347  1951  2348  0
1768  1539  2349  0
1539  2169  2349  0
2346  2350  2171  0
2346  2171  2168  0
2351  2350  2346  0
2352  2353  2354  0
2353  2182  2355  0
2353  2355  2354  0
2353  2173  2175  0
2353  2175  2182  0
2353  2352  2173  0
2356  2173  2352  0
2173  2356  2174  0
2357  2174  2356  0
2174  2357  2176  0
2176  2357  1957  0
1957  2357  2177  0
2178  2358  1958  0
2348  1958  2358  0
2169  2180  2349  0
2350  2181  2171  0
2182  2359  2355  0
2177  2357  2360  0
1768  2349  1962  0
2350  2351  2361  0
2350  2361  2181  0
2181  2361  2183  0
2362  2359  2182  0
1967  2363  1771  0
2184  2363  1967  0
2364  1972  1962  0
2192  2365  2349  0
2349  2180  2192  0
2185  2192  2180  0
2182  1961  2362  0
2188  2362  1961  0
1971  1966  2366  0
2367  1966  1771  0
1983  2200  2184  0
1972  2368  2191  0
2186  2183  2187  0
2188  1975  2369  0
2189  2369  1975  0
2189  1976  2370  0
2190  2370  1976  0
2190  1971  2366  0
1775  1972  2191  0
2365  2192  2195  0
2365  2195  2201  0
2371  2194  2187  0
2194  2371  2196  0
2372  2196  2371  0
2200  1983  1779  0
2368  2201  1992  0
2368  1992  2204  0
2372  2197  2196  0
2373  2197  2372  0
1989  2198  2374  0
2199  1989  2374  0
2375  2203  1990  0
2375  2204  2203  0
2376  2197  2373  0
2202  2198  1988  0
2197  2376  2205  0
2205  2377  1998  0
2378  1997  2209  0
1997  2378  2379  0
1997  2379  2207  0
2207  2379  2206  0
2006  2380  2213  0
2214  2380  2006  0
1998  2377  2381  0
1998  2381  2215  0
2208  2382  2209  0
2208  2210  2382  0
2212  2005  2383  0
2213  2383  2005  0
2384  2214  2219  0
2385  2384  2219  0
2219  2223  2385  0
2386  2385  2223  0
1808  2002  2224  0
2387  2224  2002  0
2002  2003  2387  0
2215  2381  2388  0
2215  2388  2009  0
2216  2389  2382  0
2216  2382  2210  0
2211  2221  1799  0
2219  2218  2223  0
2003  2008  2390  0
2009  2391  2220  0
2392  2220  2391  0
2217  2393  2216  0
2223  2227  2386  0
2008  2225  2390  0
2394  2220  2392  0
2393  2217  2395  0
2217  2011  2395  0
2011  2396  2395  0
2227  2233  2397  0
2397  2233  2224  0
2220  2394  2229  0
2220  2229  2014  0
2011  2230  2396  0
2012  2221  2231  0
2398  2231  2221  0
2228  2021  2242  0
2228  2242  2225  0
2399  2247  2239  0
2399  2239  2394  0
2400  2247  2399  0
2394  2239  2229  0
2231  2398  2235  0
2401  2235  2398  0
2246  2400  2244  0
2400  2402  2403  0
2400  2246  2247  0
2238  2239  2247  0
2235  2401  2404  0
2235  2404  2240  0
2405  2242  2030  0
2243  2244  2406  0
2400  2406  2244  0
2243  2406  2245  0
2230  2248  2407  0
2240  2404  2408  0
2240  2408  2046  0
2245  2406  2409  0
2245  2409  2251  0
2038  2410  2248  0
2046  2408  2254  0
2411  2410  2038  0
2047  2254  2255  0
2254  2412  2255  0
2038  2045  2411  0
2413  2045  2253  0
2255  2414  2253  0
2415  2413  2253  0
2414  2415  2253  0
2267  2264  2059  0
2416  2417  2273  0
2416  2273  2274  0
2269  2418  2066  0
2066  2418  2270  0
2271  2419  2272  0
2280  2078  2277  0
2276  2420  2275  0
2418  2275  2420  0
2275  2418  2269  0
2421  2270  2418  0
2270  2421  2271  0
2419  2271  2421  0
2419  2422  2272  0
2423  2272  2422  0
2272  2423  2068  0
2424  2068  2423  0
2425  2278  2068  0
2426  2068  2424  0
2068  2426  2425  0
2274  2279  2427  0
2276  2283  2420  0
2428  2420  2283  0
2429  2420  2428  0
2420  2429  2418  0
2418  2429  2430  0
2418  2430  2421  0
2431  2080  2278  0
2278  2425  2431  0
2432  2431  2425  0
2425  2426  2432  0
2279  2284  2427  0
2433  2427  2284  0
2280  2434  2281  0
2282  2281  2434  0
2283  2287  2428  0
2291  2285  2080  0
2080  2431  2291  0
2432  2426  2435  0
2284  2286  2436  0
2284  2436  2433  0
2282  2434  2437  0
2282  2437  2287  0
2285  2438  2288  0
2285  2291  2438  0
2431  2432  2290  0
2431  2290  2291  0
2432  2435  2292  0
2432  2292  2290  0
2435  2293  2292  0
2286  2289  2436  0
2437  2434  2439  0
2437  2440  2287  0
2288  2438  2441  0
2438  2295  2441  0
2438  2291  2295  0
2289  2294  2442  0
2095  2288  2297  0
2288  2441  2298  0
2288  2298  2297  0
2441  2295  2298  0
2443  2444  2445  0
2443  2445  2446  0
2103  2299  2302  0
2447  2302  2299  0
2303  2294  2300  0
2302  2447  2108  0
2448  2108  2447  0
2108  2448  2307  0
2449  2303  2301  0
2304  2449  2301  0
2304  2308  2450  0
2451  2450  2308  0
2308  2305  2451  0
2306  1911  2309  0
2450  2449  2304  0
2450  2451  2452  0
2306  2451  2305  0
2112  2453  2454  0
2112  2454  2116  0
2112  2311  2453  0
2455  2453  2311  0
2116  2454  2312  0
2312  2456  2313  0
2451  2306  2452  0
2306  2309  2457  0
2458  2457  2309  0
2309  2114  2318  0
2120  2318  2114  0
2309  2318  2458  0
2307  2459  2310  0
2310  2459  2460  0
2310  2460  2311  0
2311  2460  2455  0
2118  2313  2314  0
2313  2456  2461  0
2313  2461  2314  0
2314  2462  2315  0
2314  2461  2463  0
2314  2463  2462  0
2462  2463  2464  0
2462  2464  2315  0
2465  2466  2467  0
2465  2468  2466  0
2465  2467  2329  0
2315  2464  2316  0
2469  2316  2464  0
2465  2470  2468  0
2465  2329  2328  0
2465  2328  2470  0
2467  2471  2329  0
2317  2321  2322  0
2131  2323  2472  0
2131  2472  2132  0
2132  2472  2324  0
1938  2136  2335  0
2319  2316  2469  0
2470  2328  2327  0
2329  2471  2330  0
2473  2330  2471  0
2330  2473  2331  0
2474  2331  2473  0
2331  2474  2332  0
2475  2332  2474  0
2332  2475  2320  0
2320  2475  2321  0
2322  2476  2323  0
2323  2477  2472  0
2472  2478  2324  0
2333  2324  2478  0
2479  2318  2135  0
2335  2136  2480  0
2136  2325  2480  0
2326  2319  2481  0
2319  2469  2481  0
2146  2470  2327  0
2135  2151  2479  0
2335  2482  2336  0
2470  2146  2483  0
2337  2483  2146  0
2484  2479  2151  0
2337  2160  2485  0
2341  2485  2160  0
2162  2156  2157  0
2333  2486  2150  0
2150  2487  2158  0
2163  2484  2151  0
2482  2488  2336  0
2336  2488  2159  0
2489  2339  2156  0
2156  2162  2489  0
2150  2486  2487  0
2158  2487  2163  0
2340  2342  2490  0
2342  2338  2491  0
2338  2339  2491  0
2162  1947  2489  0
2159  2492  2166  0
2166  2492  2343  0
2491  2339  2493  0
2339  2494  2493  0
2339  2489  2494  0
2492  2345  2343  0
1947  1948  2495  0
2496  2497  2498  0
2498  2499  2496  0
1948  2347  2495  0
2500  2344  2345  0
2344  2500  2346  0
2499  2501  2502  0
2499  2502  2496  0
2499  2503  2501  0
2504  2501  2503  0
2501  2352  2354  0
2501  2354  2502  0
2501  2504  2352  0
2505  2352  2504  0
2506  2352  2505  0
2500  2507  2346  0
2346  2507  2351  0
2496  2355  2497  0
2496  2502  2355  0
2502  2354  2355  0
2352  2506  2356  0
2356  2506  2357  0
2360  2357  2506  0
2358  2178  2177  0
2358  2508  2348  0
2500  2509  2507  0
2359  2510  2355  0
2506  2511  2360  0
2360  2512  2177  0
2177  2512  2358  0
2507  2513  2351  0
2361  2351  2513  0
2362  2514  2359  0
2359  2514  2515  0
2363  2367  1771  0
1962  2349  2364  0
2365  2364  2349  0
2513  2516  2361  0
2183  2361  2516  0
2514  2362  2517  0
2188  2517  2362  0
2366  1966  2518  0
2367  2518  1966  0
2200  2363  2184  0
1972  2364  2368  0
2516  2519  2371  0
2516  2513  2519  0
2516  2371  2187  0
2516  2187  2183  0
2517  2188  2520  0
2521  2520  2188  0
2188  2369  2521  0
2369  2189  2521  0
2189  2370  2522  0
2189  2522  2521  0
2190  2366  2523  0
2190  2523  2370  0
2366  2518  2523  0
2520  2521  2524  0
2521  2525  2524  0
2521  2522  2525  0
2191  2375  1990  0
2191  2368  2375  0
2364  2201  2368  0
2364  2365  2201  0
2519  2526  2372  0
2527  2526  2519  0
2519  2372  2371  0
2375  2368  2204  0
2373  2372  2526  0
2527  2528  2526  0
2373  2526  2528  0
2527  2529  2528  0
2374  2198  2530  0
2376  2373  2528  0
2531  1987  2206  0
1987  2531  2202  0
2379  2532  2206  0
2533  2213  2380  0
2534  2535  2214  0
2214  2384  2534  0
2205  2376  2377  0
2533  2212  2383  0
2383  2213  2533  0
2386  2536  2385  0
2388  2391  2009  0
2389  2216  2537  0
2389  2538  2382  0
2382  2538  2209  0
2386  2227  2397  0
2386  2397  2536  0
2387  2003  2390  0
2387  2390  2224  0
2216  2393  2539  0
2216  2539  2537  0
2392  2391  2540  0
2392  2540  2541  0
2392  2541  2394  0
2542  2394  2541  0
2395  2396  2543  0
2390  2225  2544  0
2399  2542  2402  0
2542  2545  2402  0
2542  2399  2394  0
2546  2543  2396  0
2396  2230  2546  0
2221  2547  2398  0
2548  2398  2547  0
2545  2403  2402  0
2400  2399  2402  0
2407  2546  2230  0
2398  2548  2549  0
2398  2549  2401  0
2550  2225  2242  0
2403  2551  2400  0
2552  2400  2551  0
2553  2554  2555  0
2554  2553  2556  0
2242  2405  2550  0
2406  2400  2557  0
2552  2557  2400  0
2404  2558  2408  0
2555  2554  2559  0
2560  2559  2554  0
2561  2560  2554  0
2554  2556  2561  0
2406  2557  2409  0
2562  2248  2410  0
2559  2563  2555  0
2560  2561  2564  0
2565  2564  2561  0
2561  2556  2565  0
2409  2566  2251  0
2566  2567  2251  0
2411  2045  2413  0
2413  2415  2568  0
2414  2255  2412  0
2568  2415  2569  0
2415  2414  2569  0
2416  2570  2417  0
2571  2417  2570  0
2417  2572  2273  0
2572  2417  2571  0
2416  2274  2573  0
2076  2273  2277  0
2273  2572  2574  0
2273  2574  2277  0
2274  2427  2573  0
2277  2574  2575  0
2277  2575  2280  0
2576  2423  2422  0
2577  2424  2423  0
2419  2578  2422  0
2426  2424  2579  0
2433  2573  2427  0
2580  2429  2428  0
2429  2580  2430  0
2430  2581  2421  0
2421  2581  2419  0
2578  2419  2581  0
2426  2579  2582  0
2426  2582  2435  0
2428  2287  2583  0
2430  2580  2581  0
2435  2582  2584  0
2435  2584  2293  0
2433  2436  2585  0
2436  2289  2585  0
2434  2586  2439  0
2437  2439  2440  0
2428  2583  2580  0
2581  2587  2578  0
2293  2584  2296  0
2588  2296  2584  0
2289  2442  2585  0
2439  2589  2440  0
2583  2287  2440  0
2590  2296  2588  0
2296  2590  2299  0
2447  2299  2590  0
2591  2592  2593  0
2593  2446  2445  0
2593  2445  2591  0
2442  2294  2594  0
2595  2447  2596  0
2591  2597  2592  0
2591  2445  2598  0
2591  2598  2597  0
2445  2444  2598  0
2444  2599  2598  0
2600  2601  2602  0
2294  2303  2603  0
2294  2603  2594  0
2447  2595  2448  0
2597  2598  2604  0
2598  2605  2604  0
2598  2599  2605  0
2599  2601  2600  0
2599  2600  2605  0
2303  2449  2606  0
2303  2606  2603  0
2448  2459  2307  0
2312  2454  2607  0
2454  2453  2607  0
2608  2449  2450  0
2609  2608  2450  0
2450  2452  2609  0
2610  2609  2452  0
2452  2306  2611  0
2452  2611  2610  0
2306  2457  2611  0
2459  2612  2460  0
2456  2613  2461  0
2614  2611  2457  0
2615  2457  2458  0
2461  2613  2463  0
2457  2615  2614  0
2615  2458  2318  0
2466  2616  2617  0
2466  2468  2616  0
2618  2616  2468  0
2466  2617  2619  0
2466  2619  2467  0
2467  2619  2620  0
2615  2318  2621  0
2615  2621  2614  0
2469  2464  2622  0
2463  2622  2464  0
2469  2622  2623  0
2624  2623  2622  0
2625  2626  2468  0
2618  2468  2626  0
2625  2627  2626  0
2468  2470  2625  0
2467  2620  2471  0
2628  2471  2620  0
2629  2471  2628  0
2621  2318  2630  0
2623  2481  2469  0
2623  2624  2481  0
2631  2481  2624  0
2625  2632  2627  0
2471  2629  2473  0
2633  2473  2629  0
2473  2633  2474  0
2474  2633  2475  0
2322  2321  2634  0
2322  2634  2476  0
2477  2478  2472  0
2630  2318  2479  0
2335  2635  2482  0
2335  2480  2635  0
2480  2325  2636  0
2325  2326  2637  0
2325  2637  2636  0
2326  2481  2631  0
2326  2631  2637  0
2470  2483  2632  0
2470  2632  2625  0
2638  2633  2639  0
2633  2638  2475  0
2475  2638  2640  0
2475  2640  2634  0
2475  2634  2321  0
2634  2641  2476  0
2323  2476  2477  0
2477  2642  2478  0
2484  2630  2479  0
2482  2635  2643  0
2632  2483  2644  0
2483  2645  2644  0
2483  2337  2645  0
2646  2634  2640  0
2476  2642  2477  0
2478  2486  2333  0
2478  2642  2486  0
2337  2485  2645  0
2484  2163  2647  0
2643  2648  2482  0
2488  2482  2648  0
2485  2341  2649  0
2650  2649  2341  0
2341  2340  2650  0
2487  2486  2651  0
2652  2647  2163  0
2340  2490  2650  0
2653  2490  2342  0
1947  2494  2489  0
2487  2652  2163  0
2488  2648  2492  0
2488  2492  2159  0
2342  2491  2653  0
2491  2493  2654  0
2491  2654  2653  0
2648  2655  2492  0
2492  2655  2345  0
2494  1947  2495  0
2655  2656  2345  0
2498  2497  2657  0
2498  2658  2499  0
2503  2499  2658  0
2656  2509  2345  0
2345  2509  2500  0
2503  2659  2504  0
2660  2505  2504  0
2505  2660  2506  0
2661  2506  2660  0
2508  2347  2348  0
2495  2347  2508  0
2662  2509  2656  0
2497  2355  2510  0
2497  2510  2663  0
2506  2661  2511  0
2509  2662  2664  0
2509  2664  2507  0
2510  2665  2663  0
2510  2359  2515  0
2510  2515  2665  0
2666  2665  2515  0
2511  2667  2360  0
2360  2667  2512  0
2514  2668  2515  0
2515  2668  2666  0
2507  2664  2513  0
2669  2668  2514  0
2200  2670  2363  0
2664  2671  2513  0
2672  2673  2669  0
2672  2514  2674  0
2675  2674  2514  0
2672  2669  2514  0
2514  2517  2675  0
2520  2675  2517  0
2676  2522  2370  0
2370  2677  2678  0
2370  2678  2676  0
2370  2523  2677  0
2519  2671  2679  0
2671  2519  2513  0
2680  2681  2672  0
2672  2674  2680  0
2682  2680  2674  0
2675  2682  2674  0
2675  2520  2683  0
2524  2683  2520  0
2525  2522  2676  0
2200  2199  2670  0
2679  2529  2527  0
2679  2527  2519  0
2684  2529  2679  0
2681  2680  2685  0
2682  2675  2686  0
2675  2683  2686  0
2683  2524  2687  0
2524  2525  2687  0
2525  2676  2688  0
2689  2525  2688  0
2680  2682  2690  0
2682  2686  2690  0
2683  2687  2686  0
2687  2525  2689  0
2374  2691  2199  0
2529  2684  2528  0
2202  2530  2198  0
2531  2692  2202  0
2206  2532  2531  0
2531  2693  2692  0
2694  2695  2380  0
2694  2380  2214  0
2694  2214  2535  0
2528  2696  2376  0
2532  2693  2531  0
2697  2693  2532  0
2533  2380  2695  0
2376  2696  2698  0
2376  2698  2377  0
2377  2698  2699  0
2377  2699  2381  0
2381  2699  2700  0
2701  2379  2378  0
2379  2701  2697  0
2379  2697  2532  0
2212  2702  2211  0
2536  2384  2385  0
2224  2703  2397  0
2381  2700  2704  0
2381  2704  2388  0
2388  2704  2391  0
2538  2389  2537  0
2538  2705  2706  0
2538  2706  2209  0
2209  2706  2378  0
2378  2706  2701  0
2705  2538  2537  0
2547  2221  2211  0
2211  2702  2547  0
2707  2547  2702  0
2390  2544  2224  0
2708  2224  2544  0
2542  2709  2545  0
2545  2709  2710  0
2709  2542  2541  0
2711  2709  2541  0
2541  2540  2711  0
2539  2393  2712  0
2393  2395  2713  0
2543  2713  2395  0
2547  2707  2548  0
2714  2548  2707  0
2225  2715  2544  0
2544  2715  2716  0
2544  2716  2708  0
2545  2717  2403  0
2551  2403  2717  0
2393  2713  2712  0
2718  2548  2714  0
2719  2720  2721  0
2722  2721  2720  0
2546  2407  2723  0
2548  2718  2549  0
2720  2724  2725  0
2724  2719  2553  0
2724  2553  2555  0
2724  2720  2719  0
2719  2721  2726  0
2719  2726  2553  0
2721  2727  2726  0
2727  2728  2726  0
2727  2729  2728  0
2715  2225  2550  0
2401  2549  2718  0
2401  2718  2730  0
2401  2730  2404  0
2731  2404  2730  0
2563  2732  2555  0
2724  2555  2732  0
2553  2726  2733  0
2553  2733  2556  0
2726  2728  2733  0
2728  2729  2734  0
2728  2734  2735  0
2557  2552  2736  0
2404  2731  2558  0
2733  2728  2737  0
2728  2735  2738  0
2728  2738  2737  0
2557  2736  2409  0
2566  2409  2736  0
2736  2739  2566  0
2248  2740  2407  0
2248  2562  2740  0
2563  2559  2741  0
2742  2741  2559  0
2559  2560  2742  0
2743  2742  2560  0
2560  2564  2743  0
2744  2743  2564  0
2564  2565  2744  0
2745  2744  2565  0
2746  2565  2556  0
2556  2733  2746  0
2747  2746  2733  0
2733  2737  2747  0
2566  2739  2748  0
2566  2748  2567  0
2408  2558  2749  0
2408  2749  2254  0
2565  2746  2745  0
2750  2745  2746  0
2746  2747  2750  0
2751  2750  2747  0
2747  2737  2751  0
2254  2749  2412  0
2752  2412  2749  0
2411  2413  2753  0
2568  2753  2413  0
2752  2414  2412  0
2411  2753  2754  0
2753  2568  2755  0
2569  2755  2568  0
2752  2569  2414  0
2756  2757  2758  0
2756  2759  2757  0
2758  2760  2761  0
2760  2762  2763  0
2760  2763  2761  0
2760  2758  2762  0
2758  2757  2762  0
2762  2764  2763  0
2762  2765  2764  0
2762  2757  2766  0
2762  2766  2767  0
2762  2767  2765  0
2768  2769  2572  0
2768  2572  2770  0
2768  2771  2769  0
2772  2773  2774  0
2772  2774  2775  0
2772  2776  2777  0
2772  2777  2773  0
2772  2775  2778  0
2772  2778  2776  0
2773  2779  2774  0
2773  2777  2780  0
2773  2780  2779  0
2779  2780  2781  0
2571  2782  2770  0
2571  2770  2572  0
2571  2570  2782  0
2572  2769  2783  0
2572  2783  2574  0
2769  2771  2784  0
2769  2784  2783  0
2785  2778  2786  0
2785  2787  2778  0
2785  2788  2787  0
2778  2775  2786  0
2779  2781  2789  0
2416  2573  2790  0
2416  2790  2570  0
2574  2783  2791  0
2574  2791  2575  0
2783  2784  2791  0
2785  2792  2788  0
2280  2575  2793  0
2575  2791  2793  0
2791  2794  2793  0
2577  2423  2576  0
2573  2795  2790  0
2579  2424  2577  0
2573  2433  2795  0
2280  2793  2586  0
2796  2422  2578  0
2576  2422  2796  0
2576  2797  2577  0
2280  2586  2434  0
2797  2576  2796  0
2577  2798  2579  0
2799  2579  2798  0
2579  2799  2582  0
2584  2582  2799  0
2433  2585  2800  0
2433  2800  2801  0
2802  2439  2586  0
2583  2803  2580  0
2580  2803  2804  0
2804  2587  2580  0
2580  2587  2581  0
2587  2805  2578  0
2578  2805  2796  0
2806  2577  2797  0
2577  2806  2798  0
2807  2799  2798  0
2799  2590  2588  0
2799  2588  2584  0
2799  2807  2590  0
2585  2442  2808  0
2439  2802  2589  0
2583  2440  2809  0
2797  2796  2805  0
2810  2590  2807  0
2811  2446  2812  0
2442  2813  2808  0
2589  2814  2440  0
2583  2809  2803  0
2804  2815  2587  0
2815  2805  2587  0
2810  2816  2596  0
2810  2596  2590  0
2590  2596  2447  0
2592  2812  2593  0
2593  2812  2446  0
2442  2594  2813  0
2440  2814  2817  0
2440  2817  2809  0
2816  2818  2596  0
2595  2596  2818  0
2592  2597  2819  0
2602  2820  2821  0
2602  2821  2600  0
2822  2594  2603  0
2816  2823  2818  0
2448  2595  2818  0
2604  2819  2597  0
2604  2605  2824  0
2825  2824  2605  0
2826  2825  2605  0
2605  2600  2826  0
2821  2826  2600  0
2827  2822  2603  0
2818  2823  2828  0
2818  2828  2448  0
2603  2606  2827  0
2829  2827  2606  0
2459  2448  2828  0
2830  2453  2831  0
2453  2455  2831  0
2832  2831  2455  0
2453  2830  2607  0
2833  2607  2830  0
2607  2833  2312  0
2456  2312  2833  0
2606  2449  2834  0
2606  2834  2829  0
2455  2460  2832  0
2612  2832  2460  0
2608  2834  2449  0
2456  2835  2613  0
2836  2613  2835  0
2837  2610  2611  0
2614  2838  2611  0
2611  2838  2837  0
2828  2839  2459  0
2459  2839  2612  0
2840  2612  2839  0
2617  2616  2841  0
2838  2614  2842  0
2613  2836  2463  0
2843  2463  2836  0
2617  2844  2619  0
2845  2619  2844  0
2619  2845  2620  0
2842  2614  2846  0
2614  2621  2846  0
2622  2463  2843  0
2622  2843  2847  0
2622  2847  2848  0
2622  2848  2624  0
2620  2845  2849  0
2620  2849  2628  0
2628  2849  2850  0
2628  2850  2629  0
2846  2621  2630  0
2846  2630  2647  0
2624  2848  2631  0
2627  2632  2851  0
2629  2850  2633  0
2635  2480  2852  0
2480  2636  2852  0
2636  2637  2853  0
2637  2631  2854  0
2637  2854  2855  0
2637  2855  2853  0
2639  2856  2638  0
2630  2484  2647  0
2852  2636  2857  0
2636  2853  2855  0
2636  2855  2857  0
2638  2856  2640  0
2640  2858  2646  0
2859  2646  2858  0
2634  2646  2641  0
2641  2646  2476  0
2476  2860  2642  0
2861  2643  2862  0
2863  2644  2645  0
2645  2485  2863  0
2858  2640  2856  0
2476  2646  2860  0
2642  2864  2486  0
2865  2861  2866  0
2485  2649  2863  0
2867  2863  2649  0
2868  2486  2864  0
2486  2868  2651  0
2869  2861  2865  0
2861  2870  2643  0
2648  2643  2870  0
2649  2650  2867  0
2871  2867  2650  0
2872  2871  2650  0
2650  2490  2872  0
2487  2651  2652  0
2861  2869  2870  0
2490  2653  2872  0
2870  2873  2648  0
2648  2873  2655  0
2654  2493  2874  0
2493  2494  2495  0
2493  2495  2874  0
2869  2875  2876  0
2869  2877  2870  0
2870  2877  2873  0
2655  2873  2656  0
2878  2657  2879  0
2878  2498  2657  0
2878  2880  2498  0
2498  2880  2658  0
2658  2881  2503  0
2503  2881  2659  0
2874  2495  2508  0
2876  2875  2882  0
2869  2876  2877  0
2873  2877  2883  0
2657  2884  2879  0
2659  2885  2504  0
2504  2885  2660  0
2876  2886  2877  0
2887  2877  2886  0
2883  2877  2887  0
2662  2873  2883  0
2873  2662  2656  0
2657  2497  2884  0
2663  2884  2497  0
2661  2888  2511  0
2667  2511  2888  0
2667  2358  2512  0
2358  2667  2508  0
2882  2886  2876  0
2889  2884  2663  0
2890  2889  2663  0
2663  2665  2890  0
2666  2890  2665  0
2891  2886  2882  0
2886  2891  2887  0
2892  2662  2893  0
2662  2883  2893  0
2662  2892  2664  0
2894  2889  2673  0
2889  2890  2673  0
2669  2673  2890  0
2890  2666  2669  0
2668  2669  2666  0
2895  2896  2893  0
2893  2896  2892  0
2897  2894  2681  0
2897  2898  2894  0
2894  2673  2672  0
2894  2672  2681  0
2518  2367  2899  0
2367  2900  2899  0
2367  2363  2900  0
2363  2670  2900  0
2896  2901  2892  0
2892  2901  2671  0
2892  2671  2664  0
2677  2523  2902  0
2523  2518  2903  0
2523  2903  2902  0
2518  2899  2903  0
2895  2904  2896  0
2901  2679  2671  0
2897  2681  2685  0
2676  2678  2688  0
2670  2199  2900  0
2901  2905  2684  0
2901  2684  2679  0
2901  2896  2906  0
2901  2906  2905  0
2685  2680  2907  0
2688  2678  2908  0
2691  2900  2199  0
2909  2907  2680  0
2680  2690  2909  0
2910  2909  2690  0
2690  2686  2910  0
2911  2910  2686  0
2686  2687  2911  0
2689  2911  2687  0
2689  2688  2912  0
2908  2913  2688  0
2374  2530  2691  0
2691  2530  2914  0
2684  2915  2528  0
2911  2689  2916  0
2914  2530  2202  0
2202  2692  2914  0
2694  2917  2695  0
2700  2699  2698  0
2701  2918  2697  0
2919  2702  2212  0
2212  2533  2919  0
2920  2919  2533  0
2533  2695  2920  0
2384  2536  2921  0
2704  2711  2540  0
2704  2540  2391  0
2704  2922  2711  0
2923  2711  2922  0
2705  2924  2706  0
2706  2925  2701  0
2918  2701  2925  0
2707  2702  2919  0
2536  2397  2703  0
2536  2703  2926  0
2224  2708  2927  0
2224  2927  2703  0
2928  2710  2709  0
2928  2709  2711  0
2928  2711  2923  0
2929  2537  2539  0
2929  2539  2930  0
2931  2537  2929  0
2537  2931  2705  0
2932  2705  2931  0
2924  2705  2932  0
2545  2710  2933  0
2545  2933  2717  0
2930  2934  2929  0
2930  2712  2935  0
2930  2935  2934  0
2930  2539  2712  0
