#!ascii file
 37.292034  -71.362701    1.338634  0
 27.488779  -71.795486    0.435001  0
 22.486338  -71.832397   -0.079694  0
 10.196405  -71.398705    1.298248  0
 -2.003962  -69.961578    2.036421  0
 36.199993  -71.171875    0.078274  0
 22.488932  -70.974754   -1.475294  0
  9.278861  -71.748734   -1.028584  0
  4.882522  -71.710281   -0.359970  0
 -0.788716  -70.768456    0.233516  0
 33.379578  -71.170456   -2.147418  0
 20.964304  -72.072105   -2.943500  0
 36.949993  -70.947441   -2.781886  0
 19.206564  -71.288742   -4.313137  0
 35.885674  -71.080681   -4.164544  0
 17.467266  -71.747238   -5.130557  0
 18.645609  -70.859550   -5.427421  0
 -1.929100  -71.218445   -2.454680  0
 -3.353326  -71.027229   -3.310038  0
 -3.933316  -71.683197   -4.242680  0
 -3.759861  -71.236832   -4.739917  0
 -3.598852  -72.221893   -5.830499  0
 17.019388  -72.178452   -6.895918  0
 -1.643407  -72.402122   -6.759327  0
 -2.209822  -71.962334   -5.748137  0
 -0.700642  -71.775749   -6.190129  0
 34.050755  -71.760628   -6.665213  0
 29.427851  -70.593590   -7.317067  0
 27.454668  -70.293427   -8.778864  0
  3.807308  -72.291687   -8.508186  0
  2.065942  -72.234596   -8.847918  0
 38.905041  -72.145187   -9.702424  0
 38.960968  -71.931000   -8.638074  0
 39.733242  -71.165855   -8.681232  0
 38.640469  -71.623314   -8.105802  0
 37.379009  -71.184792   -7.981010  0
 34.758167  -71.358955   -8.199148  0
 23.117077  -71.686478   -9.423749  0
  1.044492  -71.860329   -8.798180  0
 25.179996  -70.549622   -9.570048  0
 21.054512  -70.906738   -9.572818  0
  5.307389  -72.043266   -8.687835  0
  6.742868  -71.937096   -8.845004  0
  7.853118  -72.378853   -9.564251  0
  3.892957  -71.718231   -8.731076  0
  2.230742  -71.674591   -9.014403  0
 39.114876  -71.736115  -11.127846  0
 39.827797  -71.487823  -13.023057  0
 10.866736  -71.234848  -11.223702  0
 35.060024  -70.776245  -12.148224  0
 36.479012  -70.715149  -12.997993  0
 37.416943  -71.464455  -14.383597  0
 33.315128  -71.057571  -12.180042  0
 31.874992  -70.419937  -12.084997  0
 39.917183  -71.710747  -14.419894  0
 38.933228  -70.690399  -14.805789  0
 30.199902  -71.112770  -13.393925  0
 29.431791  -70.909492  -14.113778  0
 39.902283  -70.857338  -14.653205  0
 29.272591  -70.660263  -14.848227  0
 29.346596  -71.090515  -16.011990  0
 29.079878  -71.379593  -17.247503  0
 28.354414  -71.303040  -19.738752  0
 23.581394  -71.817139  -19.181700  0
  5.920448  -70.358101  -17.332190  0
  3.890727  -71.336784  -17.612623  0
 25.533485  -71.239342  -20.380066  0
 21.773682  -71.958298  -20.335495  0
  1.631700  -72.014603  -18.592476  0
 27.627794  -71.330330  -20.697962  0
 -0.230814  -71.947823  -18.996168  0
 -1.710557  -71.781219  -18.713467  0
 -3.580126  -72.001205  -18.801987  0
 -4.785201  -71.686508  -19.052328  0
 22.423122  -71.499084  -21.568243  0
 -5.445796  -72.069954  -21.881866  0
 -3.782408  -71.452003  -22.591482  0
 -2.914601  -70.985085  -24.203640  0
 -3.072268  -71.392258  -25.459930  0
 20.561613  -72.201286  -27.380646  0
 18.497766  -72.455727  -26.537746  0
  2.453991  -72.038391  -26.273340  0
  3.528307  -70.960350  -24.767399  0
  4.010007  -71.408867  -25.629898  0
  3.699155  -71.476120  -26.753445  0
  0.914347  -72.078400  -26.390354  0
  1.963966  -71.172554  -25.254480  0
  0.261722  -71.230423  -26.243683  0
 -0.457128  -71.675896  -27.470600  0
 31.841133  -71.425392  -27.071402  0
 19.580002  -72.029282  -27.402964  0
 18.942352  -72.354347  -27.888792  0
  2.710565  -71.855003  -28.056299  0
 -1.384483  -70.243721  -27.816120  0
 -1.964060  -70.752930  -29.245127  0
 36.889851  -71.832985  -27.782743  0
 36.685036  -72.004700  -28.683420  0
 34.849705  -71.888214  -27.206587  0
 20.588854  -71.915573  -29.243681  0
 19.979969  -72.179253  -29.621275  0
 -4.792109  -71.129280  -28.574018  0
 22.882528  -72.256393  -31.025606  0
 22.357754  -71.953087  -31.038826  0
 21.444803  -71.910110  -30.058247  0
 14.374088  -71.394066  -28.415779  0
 14.703593  -70.635399  -28.770708  0
 15.738070  -71.887825  -30.656185  0
 13.489877  -71.552055  -28.026405  0
 12.267018  -71.567726  -28.062105  0
  2.382224  -71.305817  -29.759785  0
 36.050220  -71.355591  -29.107796  0
 34.047279  -71.429817  -30.135147  0
 21.080849  -71.946915  -31.056046  0
  1.849131  -71.211128  -31.449820  0
 -3.678868  -71.046257  -31.246218  0
 -2.868625  -70.919144  -30.615036  0
 -5.162585  -71.175552  -30.359594  0
 33.328629  -70.665031  -30.773088  0
  2.073777  -72.142166  -32.188435  0
  1.411806  -71.216751  -32.711189  0
 32.883915  -71.461830  -32.722717  0
 33.717175  -68.965919  -31.438398  0
 23.692612  -72.230560  -33.322773  0
  8.619536  -71.311310  -31.911102  0
  1.655156  -72.420006  -33.330959  0
  1.094398  -71.411194  -33.935295  0
 27.685926  -71.989212  -32.693932  0
 28.603235  -71.578491  -32.583626  0
 26.639801  -71.217789  -32.312832  0
 21.531178  -72.013222  -34.815487  0
 21.922806  -71.876823  -32.894341  0
  8.282140  -71.721443  -34.159176  0
 29.395626  -71.363571  -33.317314  0
 30.111172  -71.214653  -35.414711  0
 26.328348  -71.857346  -33.392292  0
 24.856943  -72.058029  -34.713791  0
 14.708371  -71.626404  -34.408028  0
  1.049274  -70.979256  -34.200962  0
  1.517308  -71.834976  -35.056454  0
  1.628848  -70.867142  -34.522251  0
 34.828213  -71.564568  -34.711628  0
 25.688217  -71.833626  -34.352272  0
 21.348482  -72.071770  -36.275127  0
 14.665051  -71.144638  -35.685047  0
 31.044762  -71.074776  -36.582863  0
  6.805612  -72.315346  -36.035461  0
  3.103405  -71.863358  -35.638008  0
 34.390606  -71.175095  -36.542339  0
 15.698083  -71.655296  -36.648670  0
 19.201365  -71.713066  -37.623959  0
 15.663116  -71.699081   28.829445  0
 16.370453  -71.898476   28.173649  0
 16.588106  -71.240891   28.436451  0
 16.464117  -71.596329   27.424265  0
 14.851049  -72.158806   28.154644  0
 14.244804  -71.029732   29.230669  0
 13.752806  -71.468170   28.152683  0
 26.142000  -70.918900   28.158312  0
 27.167793  -71.257599   27.618757  0
 27.376345  -70.821472   28.054106  0
 25.620773  -71.493668   27.269030  0
 26.652880  -71.585251   26.389154  0
 24.402634  -71.014343   27.379526  0
 23.857431  -71.359245   26.266470  0
 12.869967  -70.739540   27.461893  0
 28.760546  -70.595459   26.751509  0
 28.599531  -71.036591   25.951250  0
 25.526735  -71.528595   25.803080  0
 16.056303  -71.591827   26.517862  0
 15.674275  -70.823830   25.762800  0
 11.312337  -70.593895   25.950579  0
  9.858413  -70.278297   26.104319  0
  8.166784  -70.457115   26.658792  0
  7.065328  -70.736229   26.646427  0
 28.132050  -71.032333   25.200272  0
 23.427723  -71.173851   25.129675  0
 27.332190  -70.846397   24.794249  0
 25.465197  -70.839485   24.643242  0
 23.170210  -70.710800   24.033916  0
  6.079688  -70.294060   25.158144  0
  4.800920  -70.332603   24.506517  0
  0.988546  -70.057114   23.230564  0
 12.749655  -70.670776   22.587816  0
 10.795988  -69.321739   22.321377  0
  1.265096  -71.079369   22.125578  0
  8.879062  -70.023621   20.344572  0
  5.223321  -70.151466   21.089878  0
  2.796139  -70.456703   21.315979  0
  1.685103  -70.482361   21.313671  0
  4.763356  -72.210228   18.763975  0
  5.644963  -68.944809   18.578367  0
  4.606352  -70.720665   18.085627  0
 27.805475  -70.118996   16.784494  0
 21.785067  -70.747192   18.144476  0
 20.250484  -70.901428   18.138832  0
 20.232895  -71.533440   17.421839  0
  7.817515  -71.602554   17.539299  0
  8.347484  -69.996696   17.473619  0
  3.575781  -70.979622   16.905369  0
 37.589241  -70.653442   15.750546  0
 20.256674  -71.079567   16.583338  0
  5.935212  -70.415993   14.787619  0
  2.826687  -70.985275   15.983094  0
  2.614483  -70.682411   15.051329  0
 33.229553  -70.515961   15.263136  0
 31.188606  -70.242279   14.933584  0
 24.737244  -70.530365   14.530473  0
 22.248659  -70.892281   15.416248  0
 13.429495  -71.027641   14.680882  0
  4.508258  -70.949341   14.500687  0
 37.975227  -70.492599   14.825627  0
 12.080365  -70.838448   14.126861  0
 11.160009  -71.064003   13.575107  0
 36.448063  -70.297531   13.966253  0
 34.235924  -70.080902   12.919353  0
 32.930557  -70.660217   12.335535  0
 15.559412  -70.429314   13.377187  0
  9.984949  -70.864319   12.005219  0
 17.809650  -70.872437   11.379334  0
 10.716413  -71.741280   11.430050  0
  9.934068  -71.397781   11.579730  0
 11.998594  -71.510178   10.639940  0
 10.311123  -71.582146   10.503064  0
  9.000427  -71.488152   10.351817  0
  8.581944  -71.105759   11.040777  0
  8.557922  -70.531204   10.975204  0
 21.513062  -71.007477    9.666240  0
 13.359318  -70.869133    9.229821  0
  7.929662  -71.018715   10.524040  0
 22.803007  -70.542946    8.648262  0
 15.330130  -70.754929    8.155836  0
 13.791630  -70.080818    7.981507  0
 35.429619  -70.772629    7.468754  0
 23.545588  -70.146057    7.561207  0
 16.454147  -70.151550    6.912937  0
 37.983192  -71.169922    6.988982  0
 34.006451  -70.264427    7.391049  0
 28.708700  -71.125343    7.429288  0
 23.640228  -70.629593    6.379937  0
 17.224932  -70.262878    6.155502  0
 39.218197  -70.952568    5.863096  0
 38.480701  -71.453537    6.479945  0
 38.398251  -71.744148    5.895761  0
 39.779026  -71.148582    5.067723  0
 38.723820  -70.750420    6.272992  0
 28.330694  -70.370934    5.236008  0
 23.124207  -70.365936    5.308519  0
 17.635305  -70.534271    5.213594  0
 40.144997  -69.941475    4.967152  0
 40.868313  -70.294762    3.995966  0
 37.882080  -71.523628    4.500326  0
 37.107037  -71.503006    4.940445  0
 36.157551  -71.192963    4.344913  0
 21.990065  -69.877823    3.629487  0
 -2.522274  -71.086418    5.587389  0
 17.280678  -70.071541    3.804635  0
 -0.141985  -71.036850    4.548240  0
  0.669189  -70.347420    4.074973  0
 -1.577523  -70.377861    5.047101  0
 34.246254  -70.479263    3.081305  0
 31.536795  -70.998611    2.904864  0
 26.801214  -70.796631    2.390669  0
 21.378092  -70.326790    2.579298  0
 13.992719  -70.879646    2.101551  0
 12.790436  -70.609970    1.369086  0
 11.206210  -70.912308    1.625329  0
  2.997023  -70.497749    3.258693  0
  2.684036  -70.990150    3.414498  0
 40.576797  -70.666061    1.733508  0
 37.974331  -71.402504    3.073782  0
 37.056808  -70.723549    1.783582  0
 26.476343  -70.990173    1.442277  0
  4.419388  -71.121552    1.890054  0
  4.062000  -70.455620    2.709486  0
  4.971509  -70.353859    1.970091  0
 28.143116  -71.223419   -0.178797  0
 29.086012  -70.738419    0.046566  0
 26.576559  -70.633606    0.367624  0
 21.737629  -70.001999    0.035607  0
 10.498908  -71.136925   -0.117405  0
  4.830854  -71.288956    0.355835  0
 -0.636811  -69.493866    1.235840  0
 39.890858  -69.850868    0.969814  0
 -0.358659  -70.423393   -0.388087  0
 38.287769  -70.432663   -0.910304  0
 34.497509  -70.165138   -1.126371  0
 11.174191  -70.197266   -1.856142  0
  6.294497  -70.184250   -0.905707  0
  6.280114  -70.775238   -1.417967  0
 -0.514055  -70.362450   -1.324922  0
  9.246460  -70.900101   -2.134289  0
  8.103826  -70.641006   -2.459413  0
  7.624150  -70.119324   -2.455227  0
 -1.271297  -69.935394   -2.053528  0
 -3.086573  -69.276787   -2.817871  0
 31.392260  -70.188728   -4.727204  0
 21.667179  -70.931488   -3.805463  0
 22.066250  -70.137360   -3.318552  0
 -3.735115  -70.012756   -3.547583  0
 -3.602175  -69.862411   -4.105483  0
 35.175922  -70.764343   -5.657557  0
  0.291542  -70.904900   -5.117139  0
  0.712309  -71.151085   -5.684644  0
 -1.263665  -71.013298   -5.002878  0
 -2.821512  -71.250229   -5.084085  0
 -2.681599  -69.987579   -4.524355  0
 34.557880  -71.130096   -7.224112  0
 18.030642  -70.953285   -6.800175  0
  2.145484  -70.815659   -6.105717  0
  0.985815  -71.305557   -7.728775  0
  2.339957  -70.837433   -7.291550  0
  1.936864  -70.889503   -8.058211  0
 40.802002  -70.057831   -8.334510  0
 40.310181  -70.623802   -7.495006  0
 39.548134  -70.657547   -6.971694  0
 36.260883  -70.824348   -7.773481  0
 28.667006  -69.704643   -8.256168  0
  2.281791  -71.186340   -8.727521  0
 40.061741  -70.170410  -10.038124  0
 19.791426  -70.089401   -8.521503  0
  9.964284  -70.836838   -9.020902  0
 10.588766  -71.160484   -9.989204  0
  9.343718  -71.853416   -9.656139  0
  8.431719  -71.485870   -8.690875  0
  8.441600  -70.586617   -8.213508  0
 10.042580  -69.730751   -8.954579  0
  6.767341  -70.591438   -7.808064  0
  4.831849  -71.175850   -8.140086  0
 21.724722  -69.312927   -9.541445  0
 11.195755  -69.888237   -9.620330  0
 11.677666  -70.123940  -10.337338  0
 40.234131  -70.219894  -11.530957  0
 37.967964  -70.078056  -14.017139  0
 30.750807  -69.586227  -12.125790  0
 -2.962090  -70.850876  -12.048400  0
 -1.095493  -70.518936  -12.001427  0
 -1.899295  -69.979431  -11.165725  0
 -2.933524  -69.860428  -11.461143  0
 -3.894405  -70.334045  -12.273158  0
 40.480171  -70.412529  -13.510021  0
  0.776863  -70.367950  -13.121566  0
 -0.985560  -71.452690  -13.728301  0
 -2.650525  -71.670715  -13.218071  0
 -3.874167  -71.396271  -13.177090  0
 -4.474781  -70.463242  -13.916671  0
 -4.083736  -69.700928  -13.017502  0
 -4.531306  -69.675705  -14.431805  0
  0.663280  -71.016823  -15.124553  0
 -0.837446  -71.683609  -15.111146  0
 -2.489121  -71.968094  -14.848479  0
 -3.505533  -71.910614  -14.405261  0
 -4.397995  -71.180176  -15.003778  0
 29.474289  -69.720970  -15.126237  0
  0.042906  -71.412621  -17.101303  0
 -1.458217  -71.613342  -17.047861  0
 -4.125560  -71.581474  -16.323252  0
 -5.119497  -69.792374  -16.061247  0
 -4.901978  -68.971970  -15.912658  0
 30.048969  -70.423653  -16.377041  0
 29.685879  -70.778351  -17.519794  0
  1.507550  -70.878357  -16.378456  0
  1.074092  -71.463593  -17.803049  0
 -3.291572  -71.794785  -16.670456  0
 -4.871062  -70.849899  -17.280264  0
 28.859133  -70.574265  -19.013634  0
  4.287393  -70.018158  -16.949072  0
  3.595644  -70.637901  -17.075218  0
  2.538393  -70.976013  -17.165707  0
 -3.827310  -71.738419  -17.742365  0
 -5.183099  -69.952965  -17.448116  0
 -4.801785  -70.465576  -19.156559  0
 27.979649  -70.474785  -20.424809  0
 25.248095  -70.342728  -20.941685  0
 24.095665  -70.249191  -21.312572  0
 22.593971  -71.102600  -20.819435  0
 -5.030501  -71.273323  -20.372324  0
 26.916142  -70.682060  -20.921131  0
 -4.375756  -71.010048  -21.424511  0
 -4.386247  -70.425575  -20.417875  0
 -3.736768  -70.188400  -21.316067  0
 -3.245296  -70.495323  -22.747622  0
 23.551386  -70.594505  -22.425476  0
 25.199965  -70.368126  -24.040564  0
 27.709826  -71.045197  -25.698532  0
  5.248394  -70.881363  -24.975880  0
  4.422719  -71.051605  -24.857895  0
  2.996280  -69.666222  -23.983404  0
  1.398630  -69.440948  -25.046877  0
  5.291742  -70.895645  -25.651220  0
 -3.584513  -69.814102  -24.790649  0
 -4.216181  -70.676987  -26.757734  0
 36.743095  -71.539894  -27.057791  0
 37.178223  -70.756981  -27.201796  0
 35.301189  -71.168884  -26.786522  0
  5.757124  -70.276550  -26.092682  0
  4.253722  -70.429497  -27.234810  0
  3.341846  -71.062187  -27.737082  0
 -1.116898  -69.294334  -27.226940  0
 -5.270638  -69.910774  -27.962158  0
 36.921356  -70.981079  -28.254021  0
 13.512126  -69.960655  -27.058817  0
 12.007537  -70.290382  -27.058558  0
 10.471434  -70.579788  -27.989351  0
  8.386297  -70.622162  -30.331299  0
  2.555342  -70.338989  -29.039625  0
  3.220948  -69.778908  -28.354712  0
 -5.228139  -70.487602  -29.186214  0
 -5.353613  -69.303139  -28.588682  0
 14.687260  -70.125679  -29.348475  0
  8.586887  -69.975601  -29.150993  0
 -2.721770  -69.351097  -28.752569  0
 -4.973643  -70.030785  -29.874161  0
 34.185303  -70.246544  -29.583433  0
 14.548684  -70.235672  -30.337084  0
  1.378440  -70.067856  -30.866022  0
 -4.578843  -70.821960  -30.900763  0
  7.046022  -70.745949  -32.215862  0
  0.995655  -70.377434  -32.193027  0
 27.693699  -71.212677  -31.754963  0
 22.963642  -71.888870  -33.421665  0
  6.930275  -71.213898  -34.454140  0
  1.156662  -70.160126  -33.468002  0
 26.163591  -71.117432  -33.102726  0
  4.533426  -70.480736  -33.966770  0
 30.522881  -70.231400  -34.020237  0
 23.098820  -71.678093  -35.128529  0
 31.054789  -70.293579  -35.343849  0
 25.886463  -70.872360  -34.418217  0
 25.520273  -71.170517  -35.774643  0
 24.475630  -71.352669  -36.302418  0
 25.769642  -70.292267  -36.242001  0
 22.455381  -71.367119  -36.617176  0
 13.806606  -70.359169  -34.807381  0
  4.863374  -71.232643  -35.241032  0
  2.644160  -70.350731  -34.259834  0
 25.062473  -70.644135  -36.992802  0
 23.824493  -70.717705  -37.333931  0
 22.408241  -70.716667  -37.381855  0
 21.376444  -71.401726  -37.358604  0
 17.010777  -71.601585  -36.903484  0
 16.537003  -70.554375  -35.827576  0
 17.874332  -70.563301  -35.668781  0
 18.703865  -70.951851  -36.754196  0
 15.167772  -70.018852  -35.998966  0
 32.965126  -70.498398  -36.657391  0
 23.633608  -70.148598  -37.512886  0
 21.625803  -70.203072  -37.317059  0
 20.687687  -71.034500  -37.634888  0
 16.312792  -70.936432   29.401636  0
 15.394941  -70.743683   29.943268  0
 16.991373  -69.957405   30.485903  0
 17.133463  -69.894386   29.034992  0
 14.201771  -69.884674   30.777599  0
 13.246726  -69.721283   30.000322  0
 26.761923  -69.960121   28.330055  0
 25.574999  -70.186501   28.137539  0
 16.712919  -70.181541   27.754280  0
 12.927783  -69.828857   28.974527  0
 28.208292  -70.018333   27.663815  0
 28.062202  -69.202065   27.787033  0
 23.624846  -70.567482   27.007612  0
 23.001526  -70.898697   26.446844  0
 16.099545  -69.353432   26.500795  0
 30.079527  -70.722084   25.568840  0
 30.046028  -69.455902   26.284843  0
 30.659239  -70.035393   25.822683  0
 22.424749  -70.890381   25.632698  0
 22.495287  -70.264900   26.064259  0
 11.385455  -69.410652   26.433434  0
 10.598613  -69.627678   26.081306  0
  7.384917  -69.843521   26.495565  0
  7.059931  -69.184418   25.388697  0
 32.386036  -69.795212   25.260033  0
 31.577080  -70.555099   25.346210  0
 32.905865  -70.254913   24.916121  0
 32.038853  -70.871887   24.824446  0
 30.167496  -70.912506   24.958679  0
 21.861980  -70.819351   24.587772  0
 21.103394  -70.089470   24.811108  0
 15.277278  -69.242920   24.956291  0
 33.070793  -70.606758   24.101315  0
 33.990017  -69.755348   24.082865  0
 33.534431  -69.034515   24.404751  0
 31.759502  -70.952942   24.000698  0
 29.249687  -70.533562   24.071646  0
 27.401598  -69.912544   23.905470  0
 21.386635  -70.614594   23.706932  0
 20.416182  -70.254814   23.691540  0
 20.112200  -69.545418   23.856628  0
 20.348076  -69.001984   22.567514  0
 14.296025  -69.258522   23.176096  0
  3.267770  -69.469437   23.752228  0
 33.360943  -70.170929   23.039333  0
 31.843855  -70.296295   22.957891  0
 30.226322  -70.044975   23.043354  0
 28.986748  -69.541252   23.228430  0
 25.538204  -70.106102   23.852093  0
 23.953835  -69.702972   23.009333  0
 21.359732  -69.869652   22.783493  0
 13.813354  -70.044235   22.911592  0
  1.263590  -68.909470   23.191557  0
  0.435757  -69.455696   22.711464  0
  0.406888  -69.918655   21.590540  0
 -0.092351  -68.867256   21.714348  0
 34.364620  -69.614014   23.258326  0
 31.209602  -68.603859   21.769663  0
 13.101827  -69.045692   22.456688  0
  9.738934  -69.018280   21.727455  0
  5.751901  -69.927376   20.448832  0
  4.134793  -69.602180   21.099979  0
  5.273878  -68.810486   17.972059  0
 25.864506  -69.665939   17.121813  0
 23.793327  -69.572464   17.334389  0
 22.876951  -68.943176   17.174290  0
 21.153894  -69.694870   17.916069  0
 19.312342  -70.872253   17.428850  0
 19.842390  -69.311363   18.499556  0
 18.665112  -70.423187   18.041058  0
 18.778385  -69.946815   18.678919  0
  8.276625  -68.841805   16.547102  0
  4.195480  -69.281639   17.037508  0
 38.491859  -69.657898   15.619380  0
 36.350929  -69.889259   15.920285  0
 18.775682  -69.664856   16.772902  0
 19.661539  -70.193230   16.354149  0
  7.246681  -69.040192   15.255370  0
  2.859170  -69.696800   15.813880  0
 39.356327  -69.270691   14.810926  0
 39.331215  -69.108871   14.262331  0
 33.843910  -68.915726   14.748559  0
 32.278694  -69.757294   14.698446  0
 29.788939  -69.441742   15.092614  0
 21.589937  -69.822220   14.989068  0
  4.905653  -70.082474   14.038915  0
  3.005644  -70.421669   14.188372  0
  2.030448  -69.865402   14.257147  0
 23.705685  -68.836472   13.965502  0
 24.952808  -67.456238   12.807717  0
  3.598707  -69.904015   13.491782  0
 27.311508  -69.704407   12.243937  0
 14.357426  -69.838470   13.197886  0
 12.764200  -69.853592   13.270803  0
 11.594794  -70.024429   12.912494  0
 10.254818  -70.182129   11.844574  0
 33.220615  -68.774834   11.482557  0
 31.781931  -71.497292   11.272546  0
 32.497215  -69.301201   10.833676  0
 28.089176  -70.494972   11.782821  0
 16.235941  -69.502213   11.827938  0
 31.958822  -70.103958    9.918211  0
 19.668968  -69.508995    9.074759  0
 18.099144  -69.272728    9.906340  0
  7.652325  -70.032074   10.109160  0
  9.447804  -69.525208   10.842852  0
 22.426115  -69.485565    8.115496  0
 11.752090  -70.439400    8.620023  0
  9.176608  -71.068420    9.189598  0
  7.104513  -70.650024    9.301115  0
 28.871275  -69.507477    8.079353  0
 28.793386  -72.718567   10.015272  0
  9.906165  -70.365913    8.348926  0
  7.906929  -70.374939    8.299624  0
 37.355530  -70.238831    6.440423  0
 35.329498  -69.487595    6.406961  0
 32.943668  -69.775955    7.833419  0
 28.672371  -69.095581    5.688460  0
 23.883604  -68.447815    5.931821  0
 14.950187  -69.407364    7.134785  0
 15.596323  -68.463654    6.158014  0
 38.728561  -69.874123    5.563615  0
 23.599667  -69.132599    5.128816  0
 17.038139  -69.058800    5.010275  0
 41.194458  -68.787766    3.520594  0
 41.332371  -69.334053    3.045964  0
 27.936625  -69.241135    3.089670  0
 -0.155811  -69.468140    3.897171  0
 -1.919330  -69.666756    4.626439  0
 -0.714597  -68.766281    3.150433  0
 -2.391789  -69.418243    4.003898  0
 41.049339  -69.557549    2.229308  0
 36.563675  -70.471695    2.629197  0
 35.335361  -70.031036    2.423804  0
 31.773079  -69.780937    1.871117  0
 16.547974  -69.868660    2.344941  0
  2.476007  -69.702805    3.082565  0
 -1.904941  -69.078987    2.988645  0
 32.460388  -69.063522    1.360911  0
 26.752132  -69.498398    1.575313  0
 14.841096  -70.204376    1.469513  0
  4.377060  -69.654289    2.251330  0
 -0.759240  -68.681625    2.127662  0
 35.389595  -69.768501    0.091934  0
 30.365870  -70.064499    0.963726  0
 29.848082  -69.070770   -0.247384  0
 26.169937  -69.014519    0.067288  0
 21.407576  -69.473373    1.200988  0
 13.562933  -69.610535    0.221365  0
 11.957354  -70.294716    0.093613  0
  6.107650  -69.848663    0.742149  0
  5.686044  -69.273598    1.620251  0
  0.245071  -69.323967    0.318361  0
 38.825119  -69.288162    0.170341  0
 28.399591  -69.994232   -0.757999  0
 27.700397  -70.134033   -0.872300  0
 26.728975  -69.539864   -0.848204  0
 13.653780  -68.733047   -1.169250  0
  0.635059  -69.238289   -0.741113  0
 38.193325  -69.568810   -0.717772  0
 37.649189  -69.633759   -1.788599  0
 21.957581  -69.424736   -2.019500  0
  0.199939  -69.167519   -1.702673  0
 32.863438  -69.557426   -2.672856  0
 10.971385  -69.794624   -2.874497  0
  7.156125  -69.721489   -1.933803  0
 37.004089  -69.489517   -3.041611  0
 10.171973  -69.376839   -3.387324  0
 36.382069  -69.659798   -4.247328  0
 20.687954  -70.368446   -5.190556  0
 21.447004  -69.639839   -5.150415  0
  9.230288  -69.167191   -3.283699  0
 35.967594  -69.992348   -6.133193  0
  3.037638  -69.338310   -5.104700  0
  4.129228  -69.960976   -6.126004  0
  1.930672  -70.182381   -5.078143  0
  0.863671  -69.541641   -4.664042  0
 41.174660  -69.835991   -6.097496  0
 40.162167  -69.902504   -5.959020  0
 29.914091  -69.693939   -7.010116  0
  4.419139  -69.392738   -5.890075  0
  3.762700  -70.639511   -7.123662  0
 42.094906  -69.329109   -6.119567  0
 37.748844  -69.659988   -6.103509  0
 20.578476  -69.342331   -7.783547  0
 20.611963  -69.674919   -6.576175  0
  5.174407  -70.315208   -7.128360  0
  5.668999  -69.531425   -6.917134  0
 42.089233  -69.159065   -7.155974  0
  7.682951  -69.521591   -8.018763  0
  3.080073  -70.958099   -8.193703  0
 41.702171  -69.209908   -8.186125  0
 41.396210  -69.039536   -9.608856  0
 26.670002  -69.361038   -9.486884  0
 24.434305  -69.305130  -10.167732  0
 22.915785  -69.283867  -10.106283  0
 12.338568  -68.748283  -10.600159  0
 41.237770  -69.128876  -10.904455  0
 40.804550  -69.756012  -12.095449  0
 12.317873  -69.360626  -11.252041  0
 41.103760  -69.234970  -12.707134  0
 33.224590  -69.219185  -11.502169  0
 35.240314  -69.599533  -11.951733  0
 31.758753  -69.009026  -11.544388  0
 12.129889  -69.508163  -12.263095  0
 10.969754  -71.097000  -11.919085  0
 40.445461  -69.774605  -13.679652  0
 36.916492  -69.279732  -12.960869  0
 29.725021  -69.544838  -12.937412  0
 38.865971  -69.175331  -13.796666  0
 29.176783  -69.390724  -13.829344  0
  1.566432  -68.940865  -11.788221  0
  2.241005  -69.795410  -14.591197  0
  2.697055  -68.099663  -12.866708  0
  3.432455  -67.781494  -14.309322  0
 -3.567308  -69.167641  -13.800271  0
  2.902509  -69.365471  -15.140981  0
 -4.017676  -68.916916  -14.994914  0
 30.246098  -69.461426  -15.873731  0
  2.965781  -70.084435  -16.119577  0
 31.881466  -70.081459  -17.067598  0
 31.975960  -69.502457  -16.808672  0
 31.141090  -70.444519  -17.674931  0
  6.078519  -69.075516  -16.769617  0
  7.793738  -70.346100  -16.913261  0
  7.008426  -69.014359  -16.253998  0
  3.559468  -69.079208  -15.975883  0
  4.645201  -68.980301  -16.650436  0
 -5.015009  -69.033417  -17.498306  0
 33.465305  -70.213997  -18.692860  0
 29.983761  -70.273735  -18.573290  0
 33.732903  -69.611717  -17.931351  0
 31.639818  -70.070969  -19.078453  0
 28.757452  -69.572678  -20.171581  0
 29.607344  -69.008896  -20.453337  0
 -4.679133  -68.918037  -19.038343  0
 33.977825  -70.219841  -20.364641  0
 -4.260972  -69.204636  -20.289394  0
 27.154667  -69.777596  -21.137939  0
 25.975767  -69.285973  -21.822809  0
 -3.616197  -69.327240  -21.625832  0
 36.689587  -70.585632  -22.898716  0
 34.473373  -70.119583  -22.286285  0
 37.292881  -69.924309  -21.726229  0
 35.348236  -70.125198  -20.400494  0
 37.607517  -70.560242  -22.869658  0
 24.598227  -69.775566  -22.914288  0
 26.091471  -68.840195  -22.822495  0
 38.190002  -70.385078  -23.316088  0
 38.975613  -69.029114  -22.149435  0
 38.646881  -70.035233  -24.072735  0
 39.509781  -69.120354  -23.141726  0
 35.725941  -70.273361  -24.082912  0
 -3.553965  -69.309662  -23.464607  0
 39.111702  -69.076614  -24.206247  0
 37.634151  -70.551247  -24.977573  0
 36.903183  -70.653313  -25.217434  0
 35.987091  -70.350197  -25.550833  0
 25.994984  -69.301506  -23.935770  0
  5.588993  -70.109871  -24.002151  0
  6.709190  -69.831932  -24.886497  0
  6.034025  -68.783638  -22.855572  0
  7.188651  -68.509583  -23.428314  0
  4.245786  -69.236046  -23.206196  0
 37.974083  -69.493477  -25.136007  0
 37.155243  -70.295235  -26.022038  0
 28.436604  -69.873611  -25.577528  0
  6.368737  -69.303421  -26.052702  0
  7.102062  -68.998268  -25.203344  0
 -4.826046  -68.826714  -26.110523  0
 36.399406  -70.874207  -26.310280  0
 34.031155  -69.845078  -26.123896  0
 32.849548  -70.171516  -26.590769  0
 30.753637  -70.003609  -26.350368  0
 12.917139  -68.792885  -26.539215  0
 11.892865  -68.402542  -26.588341  0
 10.184340  -69.008011  -27.290306  0
  5.220788  -69.749130  -26.855705  0
 -5.321036  -68.392952  -27.103867  0
 36.019108  -69.576271  -28.105686  0
 14.219454  -69.706657  -27.517870  0
 14.650262  -69.036018  -28.445858  0
  9.338802  -69.355881  -27.957853  0
  4.603676  -68.391891  -27.554941  0
 34.304592  -69.278320  -28.980991  0
 14.419124  -69.098091  -29.567829  0
  8.072572  -69.255890  -29.004339  0
  2.490492  -68.022583  -29.057587  0
 -4.012022  -69.861839  -30.131048  0
 -3.800587  -68.734001  -28.954350  0
 -4.728586  -68.908607  -29.110277  0
 26.919039  -70.357292  -30.489796  0
 26.034538  -70.218086  -31.036818  0
 25.564209  -69.833549  -29.882524  0
  6.762341  -69.439926  -30.169369  0
  1.031865  -68.457184  -30.574701  0
 29.421087  -69.887955  -31.042067  0
 27.984344  -70.312691  -30.544094  0
 28.273859  -69.034195  -28.962307  0
 25.552286  -69.940460  -32.022530  0
 24.670637  -69.496086  -30.576437  0
 13.932632  -70.238869  -32.099239  0
 13.593440  -69.167976  -31.566267  0
  5.358126  -70.285500  -32.343140  0
  5.480278  -69.920471  -31.508131  0
  4.990565  -69.268074  -31.351147  0
  0.428475  -69.339874  -31.737387  0
 30.358633  -69.169930  -31.389940  0
 31.158167  -68.815704  -32.783390  0
 25.646919  -70.076370  -33.164303  0
  3.206332  -69.593262  -33.115772  0
  3.331494  -68.490616  -32.337681  0
  0.513179  -69.875526  -32.659046  0
  0.251525  -68.715996  -31.916695  0
  0.579473  -69.029823  -32.727173  0
 25.681635  -69.912224  -34.527756  0
 13.414545  -69.704269  -33.198742  0
  1.780750  -68.855484  -33.085300  0
 31.916018  -68.879761  -34.497410  0
 25.811832  -69.863205  -35.793640  0
 13.288572  -69.277191  -34.378757  0
 32.175419  -69.837563  -35.946629  0
 19.761292  -69.895042  -34.989685  0
 20.182055  -70.502449  -36.793781  0
 15.979987  -69.738838  -35.630764  0
 16.928928  -69.392822  -34.704674  0
 13.587848  -69.242874  -35.273247  0
 14.004434  -68.726913  -35.780354  0
 33.003658  -69.653008  -36.284981  0
 25.107208  -69.405724  -36.618671  0
 21.902439  -69.603325  -36.271400  0
 22.261637  -69.739319  -37.169865  0
 34.794525  -69.660027  -36.285858  0
 23.575186  -69.628410  -37.229454  0
 16.809595  -69.016830   32.129406  0
 16.293875  -69.952477   31.117226  0
 15.903785  -69.069496   32.326332  0
 17.294676  -68.743668   31.214886  0
 14.266734  -68.826889   32.149826  0
 17.359987  -68.679619   30.138002  0
 13.390846  -68.624939   31.725012  0
  7.369581  -69.536705   29.072168  0
  6.715737  -70.051888   29.224674  0
  7.186059  -69.933548   28.275612  0
  7.031161  -69.062080   29.773346  0
  5.883910  -68.731575   30.379335  0
  5.888706  -69.632317   29.846952  0
  5.356729  -69.356369   29.266047  0
 26.363735  -69.186707   27.811295  0
 16.965963  -68.602448   28.587044  0
  6.330310  -69.862236   28.440701  0
  7.609106  -69.415977   27.782440  0
 29.048208  -68.010086   27.429792  0
 29.931793  -67.790810   26.725422  0
 27.714678  -68.353943   27.712580  0
 24.877005  -69.671600   27.305746  0
 12.328497  -68.445923   28.716354  0
  6.763360  -69.659103   27.709881  0
 30.552130  -67.924805   25.868422  0
 31.277906  -68.761719   25.201387  0
 26.167595  -68.186523   26.218414  0
 23.147715  -69.582542   26.186571  0
 24.627359  -68.777779   26.108955  0
 11.744449  -68.243904   27.410717  0
  9.791787  -68.147614   26.645611  0
  8.604702  -68.954765   26.901630  0
  7.194567  -69.295639   26.803370  0
  7.233458  -68.223953   25.602364  0
 22.226303  -69.066437   25.286873  0
  7.021646  -67.868729   24.204012  0
 35.269341  -68.533638   22.878874  0
 34.798367  -68.266396   23.494465  0
 20.789751  -68.741318   24.265415  0
 20.210333  -68.616356   23.399265  0
  5.720929  -68.897293   23.921595  0
 28.983326  -68.287575   22.525869  0
 26.818569  -68.631332   22.952028  0
  2.326224  -67.187538   23.007145  0
 34.709614  -68.876106   22.410019  0
 33.791512  -68.341438   21.621300  0
 24.264408  -68.230316   21.684113  0
 22.079241  -68.272003   21.394382  0
 20.988041  -68.483597   21.742363  0
 10.833208  -67.994003   22.088568  0
 -0.230867  -68.279808   20.829233  0
  9.456505  -67.627983   20.118153  0
  9.088579  -68.883705   19.105852  0
  4.978555  -68.512825   20.459591  0
  2.117578  -68.885704   20.347734  0
  0.747397  -68.724922   20.111193  0
  0.056917  -68.544647   20.165373  0
  5.870163  -67.055290   18.698011  0
  5.835758  -70.230614   19.617424  0
  9.296348  -67.478256   18.273228  0
 21.830355  -68.215012   17.444830  0
 18.983841  -68.801765   18.811312  0
 18.270004  -69.011284   18.253399  0
 18.219858  -69.022621   17.307537  0
 38.004482  -69.176025   15.768709  0
 26.652620  -68.280891   16.038841  0
 24.884428  -68.137970   16.263575  0
 40.093620  -68.441086   14.769587  0
 39.626244  -68.075760   15.150567  0
 37.569195  -67.553558   15.266589  0
 35.870495  -67.741165   14.965717  0
 27.890455  -68.688927   15.813186  0
 20.471640  -68.876282   15.109295  0
  5.707424  -69.049431   13.878057  0
  1.948228  -69.009888   14.831484  0
 38.658642  -68.853081   13.677720  0
 33.013935  -67.796608   14.053109  0
 31.445431  -68.127876   14.080770  0
 21.915556  -67.860443   13.994000  0
  3.718198  -69.043465   12.902249  0
  2.060808  -69.388603   13.005468  0
  1.131084  -68.833122   13.055281  0
  1.228782  -68.728012   13.823616  0
 36.195206  -68.277702   12.677629  0
 26.536587  -67.787163   11.868522  0
 27.283808  -68.026848   11.027793  0
 14.606001  -68.811478   11.816523  0
 12.421910  -69.007553   12.272991  0
 11.046142  -68.939743   11.556989  0
 17.136770  -67.925056   10.075027  0
 15.867546  -67.925110   10.765932  0
  9.231456  -68.503654    9.677237  0
 28.587326  -68.481392    9.129549  0
 18.641861  -67.912613    8.654236  0
  6.995529  -69.341812    9.258640  0
 32.754223  -68.320374    7.355505  0
 32.365269  -69.124001    8.643138  0
 20.364519  -68.021187    7.833901  0
 11.011398  -69.488609    7.691275  0
  8.233185  -69.589195    7.563072  0
  6.325744  -70.219437    8.393199  0
  5.445365  -69.993576    8.926186  0
  5.577155  -69.164299    8.935964  0
  4.669359  -69.277229    8.636728  0
  4.671247  -69.499153    7.918497  0
 33.673138  -68.421318    6.342705  0
 23.423050  -68.315079    6.922693  0
 22.543438  -67.699791    7.071619  0
 12.337499  -67.616707    6.562087  0
 11.167564  -68.392746    6.918812  0
 16.356592  -68.121513    5.132258  0
 39.762062  -68.725807    4.300434  0
 37.125599  -68.690208    4.739705  0
 23.793528  -67.041237    4.345073  0
 40.805534  -68.408905    3.738765  0
 28.568748  -67.878754    3.885963  0
 23.036219  -67.979996    3.632274  0
 16.844362  -68.337234    3.633167  0
 22.274437  -67.435135    2.365937  0
 21.657887  -68.603325    2.008830  0
  0.963211  -68.848717    2.857371  0
 34.784611  -69.166359    0.631576  0
 33.643177  -68.868462    1.023615  0
 21.432861  -68.206429    0.853546  0
  3.942842  -68.779785    1.830473  0
  1.253968  -68.401329    1.927336  0
 40.580536  -68.240570    1.364764  0
 38.867687  -68.527977   -0.113719  0
 26.437729  -67.950035    0.549309  0
 15.389991  -68.393219    0.343354  0
  6.732929  -68.494560    1.331154  0
  7.237162  -68.692513    0.924680  0
  6.520478  -67.961777    1.160966  0
  3.113202  -68.036484    0.911456  0
  0.446325  -68.547318    1.203966  0
  1.478185  -68.442505   -0.570412  0
 26.213379  -68.146362   -1.134151  0
 21.419052  -68.281250   -0.442661  0
  7.571313  -68.848587    0.026857  0
 37.980526  -68.705086   -2.159463  0
 33.416691  -68.726578   -1.522034  0
 28.514240  -68.631844   -1.611230  0
 27.236950  -68.095398   -2.373612  0
 26.601715  -67.544930   -2.477069  0
  7.562048  -69.048737   -1.564202  0
  9.033164  -67.495033   -1.797147  0
  1.073656  -68.806267   -1.214790  0
  0.883683  -68.447021   -1.990958  0
 21.683649  -68.393921   -2.577233  0
 13.668836  -67.944786   -3.744979  0
 -0.828548  -68.245514   -2.321538  0
 31.773199  -68.337212   -3.775761  0
 11.997931  -68.654007   -3.956341  0
  8.578253  -68.574295   -2.771338  0
 -2.130687  -67.834427   -2.463676  0
 31.051823  -68.851639   -5.058118  0
 21.513073  -67.903015   -4.718218  0
  9.901732  -68.209488   -3.795631  0
 11.430435  -67.625351   -4.665533  0
 -3.127218  -68.826790   -3.795210  0
 42.202888  -68.998108   -4.592496  0
 40.987240  -68.947189   -4.068816  0
 42.954548  -68.344833   -4.789172  0
 39.989952  -68.394501   -3.065583  0
 37.892139  -68.948608   -4.518026  0
 37.198387  -69.008499   -4.010245  0
 21.167219  -69.177238   -6.540635  0
 21.452087  -68.331497   -6.217184  0
 12.893865  -67.001312   -5.288603  0
  1.986187  -68.158821   -4.907431  0
  4.456642  -68.415123   -5.922761  0
 -1.679053  -68.342308   -4.461314  0
 29.726721  -68.780426   -7.051088  0
  6.284143  -68.594521   -7.392467  0
 28.849661  -68.822388   -8.083176  0
  7.250950  -68.031708   -8.395510  0
 41.799900  -68.675591   -7.915069  0
 41.547836  -68.366333   -9.306134  0
 27.652985  -68.693047   -8.988776  0
 21.494442  -68.679176   -8.795358  0
  8.473584  -67.953285   -9.087279  0
 42.104576  -67.948769  -11.304693  0
 25.894712  -68.347191   -9.863656  0
 11.082367  -68.023186   -9.865802  0
 12.178453  -67.932182  -10.354261  0
 41.751293  -68.738632  -11.818139  0
 42.038788  -67.367126  -12.070881  0
 33.807720  -67.695999  -11.784107  0
 30.312078  -67.923920  -11.827881  0
 28.992863  -67.561295  -12.794546  0
 41.003460  -68.647949  -12.951344  0
 36.692200  -68.162521  -12.758868  0
 38.042805  -68.669907  -13.250019  0
 35.676487  -68.557663  -12.299347  0
 28.781008  -68.019722  -14.042914  0
 12.853268  -68.360146  -12.536670  0
 12.494586  -69.493645  -13.052888  0
 39.961693  -69.200371  -13.703785  0
 -1.976425  -68.652184  -13.133097  0
 -2.085658  -68.854263  -14.919196  0
 29.379930  -67.925148  -15.541421  0
  3.938592  -67.987366  -15.378353  0
 -0.269445  -68.415382  -15.097156  0
 -1.404730  -68.554253  -15.915739  0
 -0.754257  -68.389297  -13.681283  0
 30.986265  -68.593002  -16.388329  0
 33.671150  -68.743805  -17.733171  0
  7.453359  -68.772400  -15.602280  0
  5.830413  -67.681908  -15.399026  0
  4.959323  -67.892525  -15.792110  0
 -3.888547  -68.476654  -16.536459  0
 -4.402374  -68.022453  -18.208029  0
 34.963455  -68.831322  -18.534906  0
 35.658398  -69.352859  -19.443340  0
 -4.708002  -67.658485  -19.712204  0
 35.909752  -68.724907  -19.308121  0
 32.641792  -69.800217  -20.499149  0
 30.834787  -68.919357  -20.708990  0
 38.633053  -68.343513  -21.476803  0
 37.273651  -68.458900  -20.520487  0
 37.781055  -68.998131  -21.205578  0
 32.005680  -68.930969  -21.934607  0
 27.875732  -69.057350  -21.283422  0
 28.132536  -68.570450  -21.868250  0
  1.512847  -68.540108  -19.670050  0
  2.694719  -68.376160  -20.513538  0
  2.235924  -68.960548  -20.800604  0
  2.785856  -68.796783  -21.562599  0
  1.517010  -69.153374  -21.575047  0
  0.994896  -69.069046  -20.301022  0
  0.088097  -68.889465  -21.223345  0
 -0.070735  -68.642868  -20.062660  0
 -4.207454  -68.591347  -21.233936  0
  2.211403  -68.882919  -22.476900  0
  0.821019  -68.749832  -22.366955  0
 39.873169  -67.913918  -22.049845  0
 40.850399  -67.393204  -22.971153  0
 32.978203  -69.048386  -23.590162  0
 26.336109  -68.750862  -23.461058  0
  3.803484  -68.735779  -22.332153  0
  5.073795  -68.192696  -21.771276  0
  2.767663  -68.938286  -23.179214  0
 -3.911022  -68.707214  -22.322113  0
 40.365170  -67.765244  -23.724794  0
  7.820551  -67.795044  -24.046043  0
  2.090700  -68.948563  -24.048931  0
  1.235621  -68.357147  -23.645298  0
  1.028472  -68.237358  -24.962391  0
 -4.628604  -68.084518  -24.255074  0
 39.550819  -67.494576  -24.641453  0
 38.307255  -67.987221  -25.050676  0
 33.368309  -69.153633  -24.993767  0
 29.419786  -69.109459  -25.425694  0
 27.851543  -68.817825  -24.463114  0
 36.634193  -68.409248  -26.063887  0
 36.530697  -69.329102  -26.908762  0
 31.966438  -69.125381  -25.715084  0
 29.800680  -68.565216  -24.712549  0
 -0.449811  -68.263100  -26.480331  0
 14.537937  -68.114937  -26.921989  0
 14.627018  -68.718567  -27.518122  0
  9.053379  -68.579506  -28.096373  0
 -2.425654  -67.892006  -27.583635  0
 -4.960371  -67.668365  -27.561850  0
 26.468443  -68.973976  -28.212774  0
 24.824940  -68.907814  -28.023447  0
 25.207569  -67.766991  -26.885624  0
 -4.096750  -67.266190  -27.650932  0
 30.258383  -67.466057  -29.760715  0
 29.090017  -68.563942  -29.092155  0
 29.229048  -67.237381  -28.431353  0
 24.056669  -69.071091  -28.584507  0
 23.355099  -68.977264  -29.025387  0
 22.379278  -68.682205  -29.933895  0
 22.868420  -68.213043  -28.258696  0
 21.282984  -68.038506  -29.397955  0
 14.812238  -67.959366  -29.365442  0
  7.437639  -68.724953  -29.351431  0
 33.612392  -69.025673  -29.842035  0
 30.992758  -67.928467  -31.169636  0
 13.891307  -68.036369  -31.198212  0
  5.868208  -68.486023  -30.531729  0
  8.075695  -67.834694  -29.209593  0
 24.768623  -69.153664  -32.913212  0
 23.391079  -68.835365  -32.140896  0
 21.598845  -68.598686  -31.458483  0
  0.674295  -67.634308  -31.242683  0
  0.786422  -67.596291  -32.059589  0
 22.632961  -68.856712  -33.524860  0
 21.053762  -68.898872  -32.961510  0
 13.321640  -68.237946  -33.129093  0
  1.211601  -67.911949  -32.551765  0
 25.310158  -69.191208  -34.891399  0
 24.541868  -68.820999  -35.088512  0
 21.412762  -69.310844  -34.529831  0
 20.081636  -68.828735  -32.613625  0
  2.613581  -67.819901  -32.399052  0
 23.882143  -69.009865  -36.270550  0
 18.787836  -68.851616  -33.000626  0
 18.253441  -68.245430  -32.929352  0
 16.566807  -68.803093  -35.060909  0
 13.445285  -68.208473  -34.702789  0
 22.954206  -69.343292  -36.624947  0
 15.839601  -67.890030  -36.047607  0
 14.804988  -67.960007  -36.052990  0
 16.907516  -67.365181   32.713646  0
 16.020882  -67.597237   33.753475  0
 14.762680  -67.828453   33.789623  0
 13.643171  -68.035309   33.167625  0
 12.750220  -68.307884   30.908176  0
  4.975195  -68.772591   29.964493  0
  4.024870  -67.322380   30.082300  0
  3.748178  -67.836761   29.312042  0
  7.558152  -67.868507   29.371010  0
  6.265510  -67.643120   30.392073  0
  2.794107  -66.878113   28.506363  0
  8.269461  -68.203575   28.153595  0
  3.820345  -67.505951   27.955250  0
 28.870527  -66.524498   27.800453  0
 27.783508  -66.896805   27.414108  0
 27.149664  -67.950272   27.126423  0
 15.834427  -67.192139   27.213835  0
 15.652529  -67.903763   25.733625  0
  8.974430  -67.205269   27.486012  0
  5.733049  -68.751633   27.542446  0
 11.105099  -67.294395   27.075697  0
 10.373063  -67.441948   26.755993  0
  5.828248  -67.588516   26.771461  0
  6.867377  -67.549042   25.979330  0
 25.609621  -67.379341   25.062752  0
 23.412766  -67.618515   24.688812  0
 15.375216  -67.735893   24.547863  0
  7.468312  -66.317505   24.473083  0
 35.849045  -67.865936   22.666307  0
 36.027412  -67.332214   22.931187  0
 34.503319  -67.119659   23.358660  0
 32.409435  -68.104088   24.256077  0
 21.595579  -67.680634   24.186184  0
 15.184680  -66.862099   23.384188  0
 36.378201  -67.564163   22.331594  0
 37.136181  -66.564537   22.392021  0
 20.696291  -67.183914   23.178082  0
 20.443769  -67.241852   22.305069  0
 14.111607  -67.566216   22.263988  0
 14.629531  -67.578781   22.801331  0
  6.563350  -66.471931   23.239416  0
  5.004351  -67.447289   23.247240  0
  0.886669  -66.998825   22.570223  0
 36.009632  -67.722389   21.987211  0
 28.505470  -67.291336   22.023323  0
 27.351854  -67.405647   22.018730  0
 20.996412  -66.691788   21.006126  0
 13.177693  -67.276939   21.927710  0
  0.033522  -67.542061   21.798277  0
 32.303761  -67.364029   20.808241  0
 21.723528  -67.051132   20.594997  0
  9.988160  -66.054878   20.545862  0
  3.868204  -67.959976   20.290781  0
 -0.296882  -66.904091   19.966215  0
  5.550820  -67.082207   19.512451  0
  1.274081  -66.289803   19.179022  0
  0.102253  -67.184906   19.432304  0
 20.733009  -67.544289   18.089840  0
 19.592255  -67.780235   18.517309  0
 18.745222  -67.639755   18.088245  0
 18.388424  -67.784691   17.566597  0
  9.181789  -66.549156   16.964869  0
  8.075185  -67.389236   15.233357  0
  5.053886  -67.278465   17.166018  0
 24.203129  -67.177055   16.145458  0
 22.572634  -67.270370   16.951721  0
 18.863005  -67.595184   16.428648  0
  3.473542  -67.616669   15.908466  0
 38.857010  -67.547813   15.256164  0
 28.558210  -66.858864   14.579391  0
 27.217403  -66.978745   15.218189  0
 25.869642  -67.009842   15.633080  0
 24.999136  -66.251869   15.853553  0
 19.854141  -67.842247   15.266908  0
  6.963179  -67.656395   13.985023  0
 41.170086  -67.509087   13.220426  0
 41.003452  -67.263733   13.986786  0
 34.232510  -67.011276   14.094971  0
 30.056229  -66.940788   13.926493  0
 20.744879  -66.820068   14.300738  0
  1.914830  -67.229561   14.018721  0
 40.417534  -67.861244   13.159052  0
 39.020607  -67.612099   12.718306  0
 22.993456  -66.276741   12.856620  0
  5.374053  -67.786194   12.956278  0
  3.624152  -67.812813   12.281943  0
 33.669304  -67.371208   10.976851  0
 34.813988  -66.330902   10.913626  0
 25.902428  -66.762123   11.977626  0
  1.691987  -67.915665   12.215528  0
 32.340763  -68.358459    9.505966  0
 32.701626  -66.958344    9.541486  0
 28.108854  -68.332291   10.128505  0
 13.841677  -67.977898   10.844887  0
 11.996043  -67.850700   10.743690  0
 10.559933  -67.866615   10.029553  0
 32.400768  -67.411331    7.960116  0
 17.140863  -66.361824    9.361188  0
 16.133617  -66.953796    9.970702  0
  8.311873  -67.796867    8.853838  0
 28.604937  -67.526230    7.548619  0
  6.465744  -67.863708    8.600696  0
  5.006372  -68.264999    8.597733  0
  3.242075  -69.024261    8.380355  0
  3.693109  -68.321686    8.651309  0
  2.125397  -68.922508    7.639902  0
  1.767779  -68.918289    8.252369  0
  1.840383  -67.873352    9.029281  0
  0.853033  -68.610909    8.086521  0
  1.195571  -68.006241    6.999444  0
 33.001499  -66.433083    5.513341  0
 28.619789  -67.560089    5.238991  0
 19.419849  -66.559937    7.356978  0
 14.193755  -67.497162    6.172093  0
  8.089821  -68.497795    6.784028  0
  5.235044  -68.714729    7.100879  0
  3.004804  -68.473930    6.936095  0
 35.022144  -67.937912    4.995674  0
 34.346581  -66.440079    4.197350  0
 23.610973  -66.502373    5.951807  0
 23.999458  -66.133064    4.800854  0
  9.140059  -67.548729    6.373520  0
  6.211617  -67.605011    6.514382  0
  3.929979  -67.567429    6.330159  0
  2.519649  -67.292084    6.217151  0
 38.573463  -66.888756    2.857888  0
 41.158772  -67.237801    2.655326  0
 41.357975  -67.825798    2.161999  0
 28.536289  -65.572578    2.000890  0
 27.752373  -67.010147    1.404307  0
 16.596159  -68.478500    1.948719  0
 16.560307  -67.073410    2.465993  0
 16.532005  -66.594292    1.439833  0
  1.631966  -68.133781    0.883905  0
 40.032970  -67.684357    0.291997  0
 32.962650  -68.171364   -0.494160  0
 32.015789  -68.064682   -0.187217  0
 31.239883  -68.370255    0.087612  0
 26.137365  -67.629868   -0.292328  0
 16.304369  -67.253799    0.536385  0
  5.463070  -67.535591    0.732261  0
 39.457878  -67.759377   -0.952074  0
 26.077543  -67.110718   -1.077586  0
 15.653141  -67.035973   -0.711629  0
  8.516026  -67.761993   -0.238670  0
  8.267413  -67.068604   -0.134192  0
  3.871146  -67.480850   -0.062378  0
  2.807220  -67.693047   -0.478595  0
 30.554663  -67.784843   -1.252107  0
 29.433647  -67.888588   -1.774903  0
 26.238159  -66.845978   -2.121844  0
  2.143653  -67.792259   -1.735747  0
 38.723110  -68.382866   -2.793185  0
 39.731689  -67.839386   -1.855767  0
 31.695398  -67.732170   -2.786986  0
 28.180891  -67.683510   -2.776589  0
 21.401302  -66.987274   -1.545121  0
 14.076894  -67.923935   -2.599906  0
  8.682447  -67.988297   -2.141121  0
  1.212796  -67.275719   -2.565981  0
 43.180283  -67.713081   -2.697718  0
 42.718891  -67.963135   -2.365861  0
 41.742161  -68.381065   -2.816649  0
 41.704678  -67.566116   -1.408571  0
  0.055503  -66.495644   -2.585464  0
 -1.888826  -66.193497   -2.338175  0
 -2.744337  -66.876465   -2.819587  0
 -2.913591  -67.622215   -3.473392  0
 42.913284  -67.439102   -3.445630  0
  9.511387  -67.287529   -3.059088  0
 10.148758  -66.840462   -3.837734  0
 -2.534488  -67.634361   -4.057008  0
 30.102997  -67.809090   -5.038611  0
 29.853537  -68.162949   -6.183534  0
 14.085532  -66.843880   -5.136671  0
