#!ascii file
  0.925281  -49.990250   81.770844  0
  1.748602  -49.013241   82.161102  0
 -2.117193  -50.384285   82.288986  0
 -1.257693  -48.193115   83.491982  0
 -2.174371  -49.527958   83.360306  0
-14.210455  -49.603260   81.615616  0
  2.311345  -49.584320   81.229584  0
  0.040063  -50.648540   80.476517  0
 -6.663243  -50.610474   80.633659  0
-19.111568  -50.517570   81.717552  0
-19.590727  -49.059059   82.846077  0
-18.142570  -50.643227   80.865005  0
-21.261679  -49.358017   82.213623  0
-22.925787  -48.750862   81.552841  0
  1.739124  -50.030041   78.750969  0
  2.947034  -49.815735   80.596169  0
-18.152784  -51.087975   79.018867  0
-16.641682  -49.770489   79.394150  0
-25.096624  -48.420784   81.163963  0
-25.176815  -49.369686   80.636238  0
-13.499828  -48.609802   79.398666  0
-19.343714  -51.422123   76.814758  0
-18.192055  -51.066837   75.338310  0
-17.066587  -50.144421   76.040787  0
-23.061869  -51.016556   78.086777  0
-25.190506  -50.044479   79.271454  0
-13.388082  -48.109161   77.369415  0
-20.966236  -51.307468   76.474861  0
-13.451514  -48.513737   75.980980  0
-19.284250  -51.382725   73.848747  0
-21.692167  -50.866039   76.008904  0
 -5.387606  -49.414886   74.387695  0
-20.923811  -51.093678   74.317513  0
-12.755090  -48.841545   73.138512  0
 -6.723344  -48.157845   69.500443  0
-36.437729  -47.367077   74.898659  0
-37.651550  -47.279278   75.381691  0
-39.194107  -47.788555   74.961334  0
 -7.900950  -47.840839   67.444382  0
-15.547276  -49.579704   71.243286  0
-32.305256  -45.938595   70.293205  0
-39.944405  -49.863255   70.932976  0
 -8.558389  -45.995461   65.768257  0
-31.296818  -46.841576   69.758980  0
-37.186508  -50.365280   68.926247  0
  1.215074  -46.680645   66.651482  0
-29.668842  -45.460640   68.190697  0
-28.425718  -45.668171   67.110840  0
-35.975670  -50.489426   65.336922  0
-39.066032  -50.105820   67.295929  0
-28.109909  -47.201035   65.815147  0
 -3.211672  -45.789955   65.424950  0
-34.443623  -50.450459   62.609505  0
-27.070986  -46.321751   65.189270  0
  1.778905  -46.048985   62.647655  0
  2.085023  -46.474026   61.157871  0
-20.171686  -47.814270   63.301327  0
-26.228271  -46.624702   63.817856  0
-33.088020  -50.396137   60.282017  0
-25.626287  -46.878681   62.554604  0
-45.808681  -47.713154   65.310371  0
  1.991566  -46.219391   59.755630  0
  1.775110  -46.289082   58.322147  0
  0.767664  -47.139065   57.384010  0
-21.949787  -48.084175   60.305882  0
-44.457645  -47.469318   64.221916  0
-45.736980  -47.294567   63.857498  0
 -2.114900  -49.001640   56.642235  0
 -3.947557  -49.457104   55.837585  0
-41.397301  -47.850323   59.924698  0
-39.513023  -48.036816   57.925072  0
-27.781742  -49.469551   54.417900  0
-44.518028  -48.885860   56.314316  0
-52.883362  -49.719822   58.307095  0
-53.839619  -49.448200   56.487560  0
-53.940372  -49.944904   54.456337  0
 -7.993451  -47.103573   52.710705  0
-35.200001  -48.018879   55.007473  0
-46.605991  -49.014984   56.322155  0
-48.211891  -49.353619   57.963280  0
-50.288536  -49.817371   58.885342  0
-10.223000  -47.405537   51.652489  0
-26.403559  -49.935638   52.584572  0
-47.705063  -49.756359   50.630745  0
-45.293949  -49.111286   50.624023  0
-51.798264  -49.391010   51.230679  0
  1.552088  -46.070194   52.182709  0
-42.217461  -47.772095   49.957897  0
  2.375999  -45.970524   50.900681  0
  0.960353  -45.022655   51.021080  0
 -1.023501  -44.698650   50.807583  0
 -4.160225  -44.558693   49.870350  0
  1.927394  -45.310322   49.759102  0
  0.939298  -44.961117   48.702171  0
 -4.214866  -44.987064   48.552448  0
 -5.335989  -45.839638   47.805340  0
 -3.416798  -44.512474   49.092026  0
 -9.304336  -46.131767   49.063503  0
-38.524849  -48.094219   47.959549  0
  0.370498  -46.074299   47.005844  0
 -0.975119  -44.700935   48.486298  0
 -2.219125  -45.733742   46.918087  0
 -6.783154  -46.437214   47.152443  0
 -4.689468  -46.632698   45.901161  0
-36.690201  -47.952271   47.200378  0
 -3.058072  -46.626331   45.982239  0
 -5.377595  -46.777020   45.383762  0
-35.255806  -48.003780   46.111580  0
-35.454609  -48.010674   44.696144  0
 -6.985564  -47.027370   44.743961  0
 -7.234055  -47.737030   43.520359  0
 -8.237007  -48.694786   43.152409  0
-36.437145  -47.674870   43.871288  0
 -9.909057  -49.409660   42.736683  0
-37.281639  -46.998180   43.535599  0
-10.041569  -49.635361   41.747437  0
-38.734749  -46.998074   42.188194  0
  0.943388  -51.014687   41.351288  0
  1.212574  -51.205338   39.938614  0
 -2.118501  -51.117516   42.190273  0
 -6.358906  -51.557491   41.047882  0
 -7.454621  -50.411301   41.045822  0
 -7.613704  -49.189579   41.535568  0
  0.734295  -49.134384   37.812870  0
  1.242519  -50.020031   40.240616  0
-38.771526  -47.710186   39.745022  0
-38.645763  -48.165146   37.982590  0
-37.760372  -49.033691   36.174702  0
  1.047730  -49.047993   32.578072  0
  0.719858  -48.958351   33.782913  0
-56.563862  -46.822693   36.012535  0
  0.989382  -48.179214   30.971252  0
  1.108483  -47.400826   33.283203  0
  0.987485  -47.423504   32.300488  0
  0.505496  -47.049988   33.349201  0
  0.354865  -47.341984   32.568516  0
-44.309620  -48.190784   33.086376  0
-53.541061  -46.203983   34.520012  0
-57.345360  -47.111912   33.977364  0
-58.298172  -48.055996   30.936600  0
  0.686583  -49.057510   29.548876  0
-39.310097  -47.886467   32.574970  0
-52.023998  -46.412598   33.025024  0
-55.640247  -46.008331   33.815609  0
  0.431162  -49.724689   28.593307  0
-58.719048  -49.323708   27.961573  0
  1.307929  -49.312569   27.396889  0
  1.307341  -48.024368   28.847033  0
-54.672119  -50.322094   27.321918  0
-56.872868  -50.775406   27.369329  0
  1.732850  -48.547588   26.663086  0
-44.632584  -50.554432   26.652418  0
-46.210690  -50.589119   26.464550  0
-48.337727  -49.982399   26.676067  0
-50.618473  -49.788231   27.228390  0
-55.489826  -49.291985   26.441296  0
  1.446574  -49.208786   25.668341  0
  1.048000  -48.768929   24.799854  0
-44.369728  -49.185108   26.637571  0
-40.679260  -48.786381   25.813141  0
 -0.265293  -48.031296   24.084801  0
 -2.104268  -46.833118   23.493938  0
 -1.681178  -47.262356   23.942459  0
 -1.566219  -48.349533   22.692320  0
-41.152920  -47.099583   23.433283  0
-41.626358  -46.409706   22.097265  0
-10.320320  -51.809875   14.032033  0
-12.088405  -52.184288   15.635038  0
 -5.081265  -49.009289   14.715675  0
 -7.004244  -50.963840   13.317640  0
 -8.388815  -50.624660   13.174894  0
 -7.032876  -49.837421   13.263164  0
-11.285540  -50.719261   14.979202  0
-12.151775  -50.518688   16.179440  0
-13.448351  -50.780643   17.168184  0
-44.833179  -47.297565   22.031506  0
-58.875854  -46.381973   22.173506  0
-56.447582  -46.342655   21.979950  0
-59.729919  -45.871517   21.808084  0
-59.959122  -45.868710   20.948889  0
-43.452694  -46.131828   21.578623  0
-49.586517  -47.029358   22.180969  0
-52.007095  -46.980682   22.075809  0
-59.526485  -45.201469   19.899439  0
-57.887920  -46.320332   18.009823  0
-15.699208  -49.563877   15.197636  0
-46.338623  -49.357216   15.699450  0
-54.606247  -46.113407   17.467327  0
-16.356682  -49.905285   14.266274  0
-45.396702  -48.698776   15.327520  0
-22.879316  -48.077812   11.149998  0
-21.910355  -48.273293    9.938834  0
-44.530041  -48.660542   13.878091  0
-24.340727  -47.310314   12.416879  0
-37.204857  -47.650318   10.277245  0
-45.940205  -48.413589   12.426915  0
-47.155563  -48.070026   11.560170  0
-51.187984  -48.896545    8.365469  0
-46.076630  -50.582458    5.778312  0
-24.951540  -48.278900    9.241961  0
-47.179134  -52.941422    4.989242  0
-19.818018  -48.823154    6.757417  0
-19.957674  -47.552010    7.871336  0
-21.475182  -48.550812    8.051295  0
-39.086250  -46.804108    7.528613  0
-39.674053  -46.495972    6.514443  0
-41.210007  -47.124218    4.818014  0
-19.457830  -48.504250    5.503336  0
-42.496841  -47.541225    1.895034  0
-49.595001  -53.135899    2.816711  0
-48.634617  -51.033333    1.350074  0
-47.899506  -51.760319    1.865570  0
-26.184582  -47.890530    4.043483  0
-22.791798  -47.440674    4.194398  0
-21.124893  -47.770981    4.397423  0
-28.121943  -47.916134    3.812197  0
-30.239260  -47.004990    4.525734  0
-31.749617  -46.867584    3.844249  0
-34.659630  -47.727741    1.150793  0
-35.663376  -46.889580    0.264696  0
-42.282757  -48.563618    0.564249  0
-52.424252  -52.322441    3.413285  0
-51.307178  -50.623749    2.793229  0
-49.962734  -51.606907    2.275210  0
-42.209240  -46.856758   -0.324100  0
-40.728504  -47.436039   -0.393744  0
-38.271885  -46.162205   -0.459654  0
-36.762302  -46.526493   -0.147386  0
-41.781689  -46.001144   -0.670768  0
-40.138523  -45.734966   -0.799302  0
 -3.092789  -48.089127   84.574242  0
 -4.930913  -47.594788   85.226257  0
 -4.531464  -49.061558   84.678764  0
 -7.067529  -48.212624   85.919144  0
 -5.537038  -50.269070   84.573311  0
 -2.879884  -46.805801   84.591850  0
 -4.189591  -50.418045   83.563995  0
-14.194988  -48.618198   84.958885  0
-14.035810  -47.828987   83.679840  0
  0.002165  -47.947723   83.010582  0
  0.655938  -47.151443   82.498795  0
 -4.338876  -50.694149   82.374344  0
 -6.257509  -51.001122   82.572067  0
-17.959993  -49.251595   82.431015  0
-18.196636  -47.734474   83.435875  0
  3.474961  -49.109249   80.711533  0
 -1.814740  -50.909607   80.040771  0
 -4.627002  -50.621620   80.879044  0
-16.453997  -48.998123   81.211449  0
-20.474596  -47.549313   83.038452  0
-21.646938  -48.065067   82.076645  0
 -2.312250  -50.637558   77.950195  0
 -4.380022  -50.268963   79.346184  0
-24.524561  -47.066498   81.377289  0
  3.392578  -49.087646   79.476707  0
 -0.309633  -50.773590   78.290375  0
 -4.444376  -49.756088   78.129288  0
-15.237139  -47.910290   77.684578  0
  1.865933  -49.386314   77.316765  0
  0.826200  -49.958515   76.498581  0
 -0.686951  -50.345818   76.045868  0
 -2.292033  -49.977112   75.154472  0
 -5.743033  -49.210285   76.593033  0
-12.955190  -47.395599   78.993858  0
-15.797991  -48.649971   74.543556  0
-24.355076  -50.249287   77.187256  0
-25.949327  -50.001484   77.397575  0
-22.540073  -50.078716   75.837944  0
-17.132328  -50.348190   73.893776  0
-21.761183  -50.222263   74.350838  0
-13.346753  -47.841816   74.369698  0
-17.409454  -51.092690   71.837883  0
-19.988995  -51.333286   72.587929  0
 -5.290248  -48.709721   72.849907  0
-18.892393  -51.372013   71.679466  0
-20.435301  -50.966190   72.100281  0
-13.273065  -47.975113   71.866615  0
-37.862259  -46.571857   75.231781  0
-36.561607  -46.588253   74.190750  0
-40.791080  -47.158878   73.941750  0
-40.581589  -48.451420   73.717186  0
-39.006027  -46.305901   74.965431  0
-40.592064  -46.158512   73.865036  0
 -7.343933  -46.876404   67.762161  0
-14.253663  -48.315781   71.570190  0
-34.768341  -46.077415   72.494904  0
-41.185951  -49.337288   72.098259  0
-42.105293  -48.160522   72.366058  0
-41.791744  -46.531284   72.882225  0
-42.928497  -47.200195   71.106491  0
-42.117271  -49.027508   70.447075  0
-42.537163  -48.471451   69.586388  0
 -7.965134  -45.792637   64.374268  0
-40.829021  -49.365368   67.652908  0
  0.065940  -45.546093   66.173744  0
-27.893276  -45.928455   66.378120  0
-37.445248  -49.944893   63.939182  0
-39.110188  -49.560307   64.903290  0
-41.850433  -48.219357   67.798355  0
-40.536041  -48.741196   65.807213  0
  0.855597  -45.337265   64.591156  0
 -0.765776  -45.117641   65.388710  0
 -7.872751  -44.549564   63.084743  0
-27.357807  -44.698463   66.054062  0
-28.308933  -44.680130   66.776199  0
 -3.477888  -44.823723   63.477783  0
 -5.995160  -45.073463   63.249958  0
 -7.067511  -44.719994   62.631275  0
-26.177084  -45.197552   64.708580  0
-26.888906  -44.565086   65.288704  0
-26.270082  -43.723446   64.032265  0
-34.607121  -49.752216   61.221642  0
-36.072689  -48.920086   60.434601  0
-19.197012  -47.933601   64.679153  0
-25.263847  -45.661316   63.161579  0
-25.646568  -44.845451   63.820595  0
 -6.518092  -44.254574   61.169895  0
 -8.127202  -43.920765   61.339653  0
 -8.016994  -44.322353   59.843689  0
-25.084839  -45.208492   62.401428  0
-20.761187  -47.686932   61.108692  0
-25.087673  -46.953968   61.147621  0
-32.000217  -49.293224   58.022709  0
-33.383110  -48.954868   58.963585  0
  1.262904  -45.785492   56.885147  0
 -0.735294  -48.123966   57.021832  0
  0.268607  -46.529297   56.186092  0
-23.929808  -47.130802   60.240963  0
-24.720146  -46.070133   61.174728  0
 -2.364536  -48.096638   55.119640  0
-22.708096  -46.871906   60.342323  0
 -0.876500  -46.425587   55.235058  0
 -3.615919  -47.809628   54.107044  0
 -2.079499  -46.255569   54.461922  0
 -5.138377  -48.540733   54.238785  0
 -6.481074  -48.387714   54.072994  0
 -5.475872  -46.840603   53.231632  0
-37.241436  -47.718723   56.215832  0
-28.779789  -48.910984   53.465282  0
-45.922073  -45.757542   55.989849  0
-46.612110  -46.833099   55.880299  0
-47.545849  -47.598434   56.902740  0
-49.339161  -47.953461   58.239937  0
-51.349529  -48.579933   58.821346  0
-54.176956  -49.077705   54.826881  0
 -9.110961  -46.594440   51.354118  0
-32.299492  -47.918087   53.942310  0
-53.151615  -49.102406   52.648338  0
-45.770172  -47.210976   50.751534  0
-49.492256  -48.988640   50.625282  0
 -0.374140  -44.419052   49.696972  0
-39.229530  -47.039036   49.046688  0
 -9.912979  -45.666523   48.918278  0
-36.902309  -46.968445   47.950779  0
 -7.682037  -46.352100   46.909756  0
-34.908180  -47.240761   46.935730  0
 -8.573338  -45.889313   47.755806  0
-33.946274  -47.020855   45.760258  0
-34.353970  -46.723373   44.645672  0
-35.549030  -46.227619   44.091434  0
  1.603437  -49.689003   41.513142  0
  1.065905  -49.738197   42.430058  0
 -0.271886  -49.959705   42.802315  0
 -1.496478  -49.308620   42.925747  0
 -7.824575  -48.603512   42.056187  0
  1.478939  -47.749920   40.507477  0
  0.860239  -48.065807   39.063503  0
 -5.390961  -49.233772   41.891396  0
  0.700310  -48.355579   35.375278  0
  0.770803  -47.367878   35.747238  0
  0.909625  -46.080032   34.679626  0
  0.674567  -46.227135   33.909081  0
-37.542912  -48.442249   35.648178  0
 -0.392350  -45.551338   34.261356  0
 -0.397554  -46.508663   33.516891  0
-37.305943  -48.264000   33.978149  0
-47.420979  -47.353577   32.216106  0
-50.552452  -46.720768   32.484875  0
-54.071400  -45.696693   32.904896  0
-57.801762  -47.102955   30.960850  0
-42.658459  -46.913841   31.751701  0
-46.671242  -46.766361   31.615807  0
-58.457455  -48.112480   28.642757  0
  1.424523  -47.492226   27.201591  0
-57.270367  -48.416275   26.951609  0
  0.754806  -47.207367   25.979065  0
-43.185444  -48.315426   26.198198  0
-45.462101  -47.687191   26.156334  0
-46.143017  -48.732624   26.430618  0
-48.005161  -47.477276   26.210373  0
-50.015999  -48.272789   26.539181  0
 -1.096620  -47.100704   24.838009  0
-41.520409  -48.175934   24.767925  0
 -2.478256  -47.124943   22.028646  0
-40.706955  -46.336140   23.321451  0
 -2.586174  -45.976650   22.312107  0
 -3.041523  -45.934258   20.734638  0
-40.180531  -45.346867   22.294088  0
 -3.639322  -46.266747   18.649616  0
 -4.667722  -47.174927   15.957520  0
-10.261515  -50.333721   13.657776  0
 -9.004339  -49.234756   13.080059  0
 -7.520278  -48.633205   13.222786  0
-10.781662  -49.056751   14.533070  0
-12.772562  -49.285488   16.105036  0
-58.725998  -45.146130   21.770828  0
 -5.829268  -47.716953   14.225490  0
-11.888994  -49.174141   15.650985  0
-14.269313  -49.546986   16.199492  0
-48.331409  -46.124973   21.555243  0
-53.062172  -45.956913   21.252621  0
-56.220646  -45.380493   21.158482  0
-59.731422  -45.028973   20.954620  0
-56.391357  -45.611923   18.253059  0
-58.178780  -45.214184   18.928307  0
-47.844704  -48.468552   15.621090  0
-50.303093  -47.353420   16.350269  0
-52.828541  -46.653164   17.049210  0
-44.410969  -48.625179   14.824885  0
-22.538843  -47.066998   11.632143  0
-21.293217  -47.588295    9.262495  0
-27.522312  -46.655621   12.029737  0
-19.927048  -48.812069    7.712217  0
-19.824482  -47.781040    8.102118  0
-27.978764  -48.023357   10.833758  0
-38.039646  -47.910980   10.824801  0
-39.906742  -46.304813   10.061629  0
-41.925297  -46.111584    8.769140  0
-49.640202  -47.903496   10.071040  0
-20.842672  -47.095802    8.236551  0
-23.098734  -47.135708    8.799924  0
-37.857998  -45.574310    7.240189  0
-45.244083  -47.992363    5.980278  0
-47.605457  -52.208302    3.284835  0
-46.282715  -49.769474    4.371966  0
-39.924641  -45.583759    3.964824  0
-46.973965  -50.584202    2.215182  0
-55.031738  -51.222923    3.939137  0
-55.228729  -50.684048    5.120602  0
-55.196804  -49.332291    3.915622  0
-19.166193  -46.951103    6.778090  0
-25.866796  -47.185760    4.283508  0
-28.533661  -47.017300    4.943545  0
-27.558405  -46.692364    4.779126  0
-31.650948  -46.031483    4.494826  0
-41.469296  -46.112854    2.526163  0
-47.518127  -48.732006    0.262598  0
-54.357014  -49.791676    3.132134  0
-53.833649  -52.586216    3.615267  0
-19.445042  -46.585033    5.901117  0
-20.632473  -47.018974    4.865229  0
-33.480198  -46.456707    2.456503  0
-34.302521  -45.626362    0.828292  0
-42.213543  -45.271229    1.170136  0
-50.057823  -49.257839    1.003102  0
-52.297691  -50.974663    3.204864  0
-53.119503  -50.401691    2.986234  0
-36.225159  -45.329132   -1.004226  0
-35.506630  -44.822498   -0.888960  0
-42.715538  -45.051495   -0.056787  0
-42.295029  -45.066689   -0.831562  0
-38.739044  -44.735294   -1.905976  0
-40.762623  -45.245327   -1.171031  0
 -4.998213  -45.193413   85.330910  0
 -6.872644  -46.170246   85.875816  0
-12.353019  -47.220337   85.954849  0
-13.524998  -47.208939   85.189209  0
 -1.818681  -46.136543   83.636505  0
 -0.483354  -46.777912   83.040535  0
  1.993546  -47.197716   82.070061  0
-13.593725  -46.813011   82.129311  0
-16.450752  -46.992687   83.140457  0
-19.324425  -47.071682   83.572968  0
  3.148832  -47.460346   81.289673  0
-12.353242  -46.181637   80.194260  0
-15.245646  -47.617321   80.605515  0
-21.177353  -46.692204   82.251602  0
  3.832824  -47.846184   80.227249  0
 -5.803108  -49.675491   78.835785  0
-21.908815  -46.630646   81.399132  0
-23.081644  -46.103428   81.152725  0
-26.909721  -45.914993   81.291222  0
-26.806679  -47.796890   80.571915  0
  3.779661  -47.681885   79.329590  0
-27.091764  -49.169498   77.742943  0
-27.931438  -47.664028   78.359756  0
  2.318333  -48.006931   77.447906  0
  1.336886  -48.732197   75.407478  0
 -3.877207  -49.594612   75.565163  0
-12.640508  -46.186459   77.731018  0
-12.041490  -45.730030   79.281189  0
-14.597884  -47.362221   75.860474  0
 -5.001070  -49.241734   74.898857  0
-13.183077  -46.299950   76.393669  0
-25.229656  -49.947239   75.466339  0
-28.344275  -48.325466   76.377769  0
  0.225182  -49.165497   74.289635  0
 -1.803499  -49.056236   73.110954  0
  1.185598  -47.659035   72.942284  0
 -4.284511  -49.132233   73.860207  0
-13.637148  -46.861610   75.369652  0
-23.065123  -49.414059   74.446739  0
-26.764101  -50.049686   74.683739  0
-28.060957  -49.433876   75.075096  0
 -0.092837  -47.777077   71.881744  0
-15.426625  -48.628487   72.660866  0
-23.691782  -49.269062   73.739456  0
-25.549965  -50.024254   73.380951  0
-28.648865  -49.101345   73.243080  0
-29.108355  -48.457581   75.019806  0
-16.057295  -49.975517   72.498985  0
-22.020000  -49.295414   71.491943  0
-26.934086  -49.817020   72.514839  0
 -5.693050  -47.720512   71.141037  0
-13.165664  -47.343773   72.528206  0
-15.704236  -49.713623   71.702316  0
-19.800982  -50.869595   69.905670  0
-21.077600  -49.145500   69.273117  0
-24.000805  -49.488907   71.623024  0
-25.410774  -49.622715   70.624252  0
-27.296371  -49.016212   70.686676  0
-17.958612  -51.169090   70.224884  0
-16.824667  -50.657745   70.962990  0
-24.287132  -49.439350   70.213905  0
 -6.272802  -47.007122   68.944679  0
-18.979843  -51.153610   68.773193  0
-38.637241  -45.716774   74.420700  0
-39.762539  -45.467415   73.486946  0
-19.891376  -50.319500   68.700729  0
-36.932644  -46.086990   73.734924  0
-40.994255  -45.493710   73.065765  0
 -8.359977  -45.998650   66.580566  0
-33.447014  -45.273010   70.416046  0
-42.046421  -45.231346   71.670929  0
-19.557184  -50.225563   67.869576  0
-43.225189  -46.139942   70.590645  0
-43.017296  -47.165043   69.535713  0
-42.910919  -45.810078   69.214737  0
-18.996941  -48.580227   66.179382  0
-30.464794  -44.375626   67.848892  0
-42.298302  -46.989426   67.595032  0
-27.895897  -43.763393   65.342651  0
-38.569359  -48.610268   62.592220  0
-41.046089  -46.608936   64.482002  0
  1.319357  -44.658752   62.346294  0
 -0.118695  -44.139042   62.460079  0
  1.962257  -45.236042   61.006577  0
  0.691983  -44.101650   61.431332  0
 -2.984971  -44.278023   61.649837  0
 -1.753740  -44.168755   60.874825  0
 -3.380184  -44.024040   60.043110  0
 -9.185102  -43.871075   60.757893  0
-10.422073  -44.334034   59.669216  0
-36.630497  -47.427917   58.407185  0
  1.360120  -44.931313   59.077103  0
 -9.609127  -44.588280   58.900887  0
 -5.202662  -44.227535   58.161839  0
 -7.589442  -44.396446   57.626060  0
-21.369936  -47.091034   61.092632  0
  0.439027  -45.204689   56.169365  0
 -0.660354  -45.171627   55.415714  0
-33.953178  -47.519341   57.169056  0
-30.714235  -48.130013   55.410507  0
 -3.494620  -45.467037   53.629974  0
 -4.438900  -45.634926   53.095951  0
 -2.741846  -44.484852   54.374008  0
-41.461510  -47.066097   59.390205  0
-39.582802  -47.064175   57.989773  0
 -5.106403  -45.394203   52.399353  0
 -6.026772  -45.759350   52.072598  0
-45.391781  -46.320427   56.729481  0
-48.565113  -46.216675   57.495792  0
-50.519005  -46.631554   58.324993  0
-52.241535  -47.105572   58.516109  0
-53.477745  -46.516216   57.675564  0
-53.953568  -46.858643   55.888123  0
-54.272060  -48.237984   54.213367  0
 -7.481218  -46.273064   51.887913  0
 -9.600667  -46.451344   50.303429  0
-51.282009  -48.853382   50.889778  0
-41.608711  -46.361191   49.853329  0
-39.894810  -45.984879   49.053612  0
-37.937515  -46.377087   48.167263  0
-34.591995  -46.099499   46.828918  0
-33.812679  -46.345043   46.270596  0
-33.398502  -45.171238   44.380970  0
-34.092926  -45.178383   43.893547  0
 -7.453266  -48.159676   42.902786  0
-37.250137  -45.806301   43.380737  0
-35.497028  -44.845074   43.553288  0
-37.685249  -45.284721   42.079414  0
  1.706123  -47.864910   42.196701  0
  0.707966  -48.461418   43.185619  0
 -2.469932  -47.445560   43.546604  0
 -5.656991  -47.433151   42.763107  0
 -6.560937  -47.148533   43.041668  0
  0.802273  -46.586685   37.601589  0
  1.044806  -45.748466   35.983173  0
  0.767389  -44.782917   35.544521  0
-38.697826  -47.785343   36.870995  0
 -0.976553  -45.521194   34.408463  0
-52.683224  -45.751362   31.915560  0
-54.536873  -45.683952   30.607475  0
-56.669704  -46.382797   30.491232  0
-40.792194  -46.920074   32.148460  0
-39.272770  -47.309887   33.454754  0
-50.753056  -45.794498   31.411049  0
-53.020172  -45.465645   30.882578  0
-56.418728  -46.295605   28.786821  0
-57.700390  -47.136520   28.667797  0
-56.958134  -47.326214   27.936644  0
-53.640152  -48.565048   26.117426  0
-55.633659  -48.386028   26.043797  0
-44.296726  -47.609512   25.615141  0
-51.044880  -47.279873   25.838989  0
-54.019859  -48.077396   25.439363  0
-43.682228  -47.634090   24.793777  0
-41.294197  -47.213387   23.603985  0
 -3.015714  -44.533466   21.724356  0
 -3.206309  -43.632370   21.174749  0
-39.780529  -44.887932   22.948893  0
 -2.885947  -44.423702   20.477966  0
-18.886637  -44.936657   23.049044  0
-18.060678  -45.421795   22.045788  0
-18.569160  -46.395927   21.555027  0
-18.216702  -45.454071   21.200872  0
-19.637894  -46.106411   21.570629  0
-19.367735  -46.103565   21.130322  0
 -3.173229  -44.124607   19.355690  0
-19.547407  -42.657055   20.141924  0
-20.048376  -46.208820   20.202234  0
 -4.988568  -45.715954   15.546353  0
-19.933903  -45.880909   19.293985  0
-20.962873  -45.371719   20.674284  0
-40.568462  -45.051697   21.787579  0
-59.193943  -44.715992   21.219135  0
 -6.491562  -46.309162   13.841596  0
 -8.002676  -47.144939   13.488743  0
 -9.501451  -47.814404   13.694571  0
-11.550619  -47.912659   15.068685  0
-10.311202  -47.230583   14.540464  0
-20.159756  -45.944649   18.605215  0
-20.460823  -46.160358   18.587856  0
-20.562346  -42.668102   18.908337  0
-21.273493  -46.021641   18.917662  0
-42.483612  -44.478340   21.132730  0
-44.809052  -44.779385   20.714716  0
-48.019005  -45.292061   20.866680  0
-51.571297  -45.412342   20.388330  0
-54.402695  -45.342056   20.239752  0
-56.221947  -45.074200   20.304146  0
-57.707253  -44.739700   20.752966  0
-58.791454  -45.173141   20.377443  0
-14.145946  -48.089329   15.030915  0
-12.726010  -47.338428   15.046682  0
-21.327890  -45.310535   17.824219  0
-57.099800  -44.967846   19.562880  0
-55.436085  -45.549339   19.313366  0
-54.708328  -45.939377   18.290121  0
-51.434536  -46.129459   16.581329  0
-53.160881  -45.563866   17.849848  0
-14.998146  -48.885704   13.138846  0
-47.855621  -47.092457   15.038700  0
-46.494728  -47.152191   13.741368  0
-13.812681  -49.756214   12.043793  0
-25.809811  -46.404457   12.469297  0
-25.504679  -46.478382    9.672200  0
-26.861534  -46.227253   10.702022  0
-43.986839  -47.116554    7.278271  0
-53.566494  -48.234081    8.044395  0
-53.611366  -47.548771    9.016310  0
-36.892529  -45.042004    8.047788  0
-45.708927  -47.408005    4.835380  0
-53.572388  -49.203960    7.501483  0
-55.072639  -49.377182    6.812697  0
-56.107430  -47.198677    7.518492  0
-55.455486  -48.246574    7.127958  0
-38.385059  -44.674500    5.003204  0
-46.318493  -48.890957    2.940618  0
-46.866817  -49.255501    1.545107  0
-55.824516  -48.424763    6.082668  0
-24.245195  -47.145714    3.537194  0
-30.646566  -45.525833    4.693656  0
-39.158985  -44.096447    2.916096  0
-21.344507  -46.463074    4.271785  0
-32.653740  -45.083622    3.695797  0
-33.425549  -45.235191    1.975967  0
-40.989212  -44.663658    2.056841  0
-52.744377  -48.332436    1.961811  0
-34.181187  -44.224110    1.356141  0
-35.148464  -43.803070   -0.233444  0
-41.583561  -43.489414    0.539600  0
-36.413269  -43.923271   -1.551173  0
-42.403294  -43.939701   -0.734660  0
-37.781219  -44.179047   -2.135571  0
-41.608608  -44.283978   -1.431126  0
-40.502945  -44.461487   -2.073471  0
 -7.745842  -43.544529   86.093414  0
 -9.691525  -46.025784   86.123741  0
 -4.225628  -43.973114   84.767326  0
 -1.116030  -45.538998   82.450554  0
 -3.036677  -44.373913   83.804871  0
-13.434725  -45.458313   84.255836  0
-18.496601  -45.792801   84.257446  0
-19.724443  -45.733711   84.201103  0
-17.440767  -46.159298   84.025528  0
-15.335861  -46.691444   82.401772  0
-20.120279  -44.805946   83.593445  0
  0.591494  -45.597542   82.085251  0
-12.480537  -44.990166   80.743217  0
-21.066109  -45.404327   81.447624  0
  3.556970  -45.393917   81.048302  0
  1.077037  -44.913395   81.716957  0
-21.285900  -44.798981   80.215691  0
-23.735468  -43.448311   80.617973  0
-24.420683  -44.522102   81.244720  0
-22.121792  -44.435997   80.217247  0
-25.756483  -44.264114   81.382011  0
-20.583548  -44.537430   80.640594  0
-28.105686  -45.996071   80.396095  0
-28.424444  -46.421799   77.938232  0
-29.509382  -46.999229   76.033401  0
  1.412687  -47.416225   74.082588  0
  1.419543  -47.482052   75.477570  0
-14.066517  -47.177910   74.413681  0
 -4.703532  -48.086632   72.255760  0
-30.295919  -47.702045   74.510017  0
  1.330907  -46.588894   71.343758  0
 -3.189997  -47.440495   71.291168  0
-30.160233  -47.555511   72.994995  0
-28.008036  -48.039177   70.481705  0
-30.097042  -46.400837   71.936287  0
-22.373594  -48.746597   69.723183  0
-28.056780  -46.717602   69.887863  0
 -4.747231  -46.159874   69.179352  0
-23.832272  -48.896297   68.403023  0
-25.045061  -48.657158   67.995522  0
-26.607538  -47.617989   68.428871  0
 -5.983951  -45.489914   68.025375  0
-20.549183  -48.412167   67.885841  0
-21.964876  -48.377079   68.295464  0
-25.132597  -47.679493   66.454216  0
-37.203938  -45.600090   72.911522  0
-38.294125  -45.175354   72.286728  0
-23.397480  -48.310856   66.538025  0
-26.501875  -46.152229   67.015457  0
-35.322964  -45.065197   70.950127  0
-39.965572  -44.533073   71.136276  0
-19.526514  -48.140720   66.903847  0
-36.437202  -44.715446   69.965561  0
-37.416458  -44.370865   69.332779  0
-41.211166  -43.771385   70.418274  0
-42.593597  -44.713520   70.315872  0
-33.203384  -44.435928   68.547760  0
-34.597542  -44.468220   67.085503  0
-37.847626  -43.796947   68.918495  0
-38.908566  -42.795395   69.197433  0
 -8.166902  -44.219635   63.869370  0
-19.315390  -47.133789   65.469826  0
-31.560658  -43.993515   66.405411  0
-35.891964  -43.698414   66.453148  0
-42.543732  -45.940907   67.225410  0
-29.731291  -43.735123   65.626183  0
-32.521294  -44.450733   64.484383  0
-33.856419  -44.536274   64.940689  0
-34.749657  -44.080654   65.164284  0
 -8.406589  -43.730358   62.115509  0
-19.948540  -47.096642   63.994682  0
-28.300247  -43.100853   63.778229  0
-29.325813  -43.529648   64.117905  0
-31.009699  -44.219547   63.857693  0
-27.057566  -42.804611   62.798717  0
-25.908262  -43.350777   62.999378  0
-30.280159  -44.129486   62.624599  0
-28.777496  -43.185757   62.756603  0
-33.135757  -44.370914   63.218075  0
-31.446537  -44.387951   62.246872  0
-38.741482  -46.913120   60.120922  0
 -0.575534  -43.993137   59.275078  0
-20.921370  -47.353420   62.799633  0
-25.243589  -43.997322   62.490021  0
 -0.076418  -44.375134   57.090111  0
 -2.358665  -43.970482   57.210697  0
-11.026314  -44.325096   58.396744  0
-22.755257  -46.616562   61.496220  0
-24.477789  -45.763435   61.885025  0
 -2.238240  -43.933102   55.559769  0
 -4.126010  -43.445457   56.045540  0
 -6.153327  -43.859997   56.921127  0
-10.161561  -43.660801   56.746738  0
-48.282333  -45.781727   59.766579  0
-47.806675  -47.329315   59.726997  0
-48.355560  -47.348911   61.341545  0
 -8.256577  -43.778957   56.594589  0
-33.427120  -47.021389   55.738853  0
-37.352089  -47.098202   57.344547  0
-34.426491  -47.096149   55.208874  0
-43.219284  -46.084202   61.070053  0
-41.923714  -45.894474   60.012154  0
-46.766968  -45.743790   58.399860  0
 -3.772207  -42.890915   54.305656  0
 -7.196192  -42.509163   55.601624  0
-45.226471  -47.732574   57.126854  0
-46.501610  -44.344479   57.898682  0
-46.313862  -44.361485   56.868279  0
 -4.143617  -43.833462   53.178295  0
-31.846378  -47.307701   54.504696  0
 -5.277366  -44.006317   51.985485  0
-47.070702  -44.401157   56.377419  0
-48.204414  -44.718765   56.880512  0
-49.955509  -44.812965   58.024300  0
-51.600651  -45.303299   58.429737  0
-52.892193  -44.769958   58.279716  0
-54.513309  -46.470665   53.748409  0
 -6.244493  -45.158451   51.173382  0
 -7.235298  -46.165070   51.063969  0
-54.316528  -48.238049   52.984154  0
-54.618515  -47.514736   52.204292  0
 -6.962097  -45.357380   50.352615  0
 -8.531673  -46.160915   50.079285  0
-49.600719  -47.732914   50.299236  0
-53.320877  -48.631821   51.670273  0
 -9.202809  -45.969723   49.464634  0
-10.244333  -44.920673   48.496632  0
 -9.514611  -45.162205   48.038391  0
-33.376263  -44.695023   45.100819  0
 -6.885872  -46.301365   46.981846  0
 -6.565932  -46.620289   44.319191  0
-32.922375  -44.024940   42.793530  0
-32.766106  -43.790771   41.519936  0
-34.605831  -43.748287   42.165154  0
  1.453819  -46.995590   43.476891  0
  0.271043  -47.156544   43.947361  0
  1.832869  -46.050976   42.724091  0
 -0.449298  -46.028370   44.713631  0
 -3.075946  -46.192085   43.879467  0
-35.590076  -43.536121   42.088520  0
-34.839455  -43.262733   41.124180  0
  1.739608  -46.151787   40.981373  0
 -5.365788  -45.400875   43.493546  0
-32.139214  -44.281796   40.142494  0
-33.319382  -43.841621   40.583923  0
  1.304713  -45.216961   39.207817  0
-30.923882  -45.193375   38.118347  0
-32.250206  -45.273373   38.270905  0
-33.903046  -43.903717   39.741020  0
-31.252584  -45.579533   36.914768  0
  1.316363  -44.741798   37.320530  0
-30.450144  -44.437210   37.741661  0
-30.078728  -44.775364   35.473057  0
-29.851313  -43.863937   35.516563  0
-32.267231  -45.501873   36.675461  0
-33.762398  -44.660671   37.808453  0
-29.281530  -43.091026   34.101864  0
-30.956554  -45.043209   34.926647  0
-33.709011  -44.706154   35.874031  0
-32.623314  -44.787117   34.633106  0
  0.274440  -47.002060   32.974525  0
 -0.102331  -46.276306   33.165504  0
  1.035383  -47.304203   31.700182  0
  0.972073  -46.864311   32.043781  0
  1.416866  -47.347157   30.691593  0
-43.996925  -46.024532   31.731936  0
-49.001144  -45.409264   31.103415  0
-47.512672  -45.401680   31.526524  0
-52.599239  -45.150330   30.456953  0
-54.868240  -45.416035   29.102427  0
-42.591419  -46.015717   32.412842  0
-56.236477  -47.211395   27.284557  0
  0.974291  -46.887718   27.428022  0
-55.647659  -48.068359   25.761024  0
-47.105194  -46.332436   25.514196  0
 -1.556030  -46.595783   24.995636  0
-43.045017  -47.423737   23.983250  0
-42.021416  -47.257538   23.699800  0
-45.014439  -46.211082   24.794292  0
-43.900818  -45.925545   24.137060  0
-42.408096  -45.313412   23.642580  0
 -2.434046  -44.865559   22.038206  0
 -2.084798  -45.513668   24.036421  0
-40.454929  -45.130630   23.358839  0
 -5.326652  -42.402557   21.428839  0
-17.816467  -44.483337   22.840424  0
-16.923191  -41.622139   21.212084  0
-17.669291  -41.881630   20.822548  0
 -3.594339  -42.928162   20.185171  0
-18.523184  -42.517933   20.630264  0
 -4.576173  -43.145115   17.632002  0
 -5.885790  -44.827991   14.422777  0
 -6.727270  -44.717339   14.024839  0
 -9.006181  -46.713684   14.178712  0
-40.641434  -43.108974   22.069759  0
-47.954830  -44.312775   20.748428  0
-50.420887  -44.645092   20.341127  0
-52.487049  -45.083042   19.616816  0
-53.516041  -45.332153   19.176996  0
 -8.160422  -45.218769   14.260929  0
-11.242415  -46.046867   14.722590  0
 -9.513469  -45.240646   14.665051  0
-22.229782  -44.842102   17.150959  0
-22.403149  -44.842407   18.813347  0
-44.798283  -43.684776   20.850731  0
-13.459116  -46.799213   14.378143  0
-12.542624  -45.390900   14.144111  0
-21.384354  -41.829887   18.110361  0
-52.818508  -45.755764   16.937199  0
-13.818556  -46.955879   13.021794  0
-13.467818  -46.151688   13.670951  0
-49.562012  -46.027283   15.276603  0
-49.384281  -46.152889   14.559869  0
-14.336879  -48.169765   12.656935  0
-13.386238  -48.521706   12.246991  0
-13.442423  -50.650082    9.703981  0
-12.851647  -50.183708   11.352763  0
-23.375849  -45.941452   12.187595  0
-21.194305  -45.770142   10.652639  0
-20.364777  -46.314133    8.902430  0
-17.537766  -48.788982    6.534484  0
-18.932457  -46.706123    7.121087  0
-17.380470  -46.261440    6.042941  0
-26.470274  -45.097115   10.938853  0
-38.337574  -46.054348   10.194685  0
-48.401978  -47.429646   11.745685  0
-50.736122  -47.738239   10.173165  0
-52.941368  -47.071220    9.436586  0
-26.021530  -45.428761    9.851546  0
-44.320591  -45.727104    6.645808  0
-54.316818  -46.771286    8.947021  0
-55.266346  -46.261826    9.002767  0
-56.010525  -46.557491    8.392527  0
-20.296537  -46.229469    7.845042  0
-23.646688  -45.203964    8.396981  0
-19.779928  -45.418148    6.830660  0
-37.096603  -43.428028    4.658852  0
-46.052929  -46.874546    3.316466  0
-46.620777  -47.950344    2.249525  0
-46.607635  -47.762016    0.853637  0
-56.039696  -46.861259    5.348977  0
-20.146200  -45.629196    5.181550  0
-26.332180  -47.151810    3.988593  0
-27.683491  -46.675968    4.106531  0
-29.070059  -45.818520    4.610209  0
-48.765312  -47.446629   -0.620634  0
-54.141293  -47.165264    1.804139  0
-54.366215  -48.039307    2.630905  0
-54.887989  -46.465698    2.947996  0
-53.618649  -45.954559    0.737117  0
-33.453842  -44.415279    2.274271  0
-38.047520  -43.152786    2.319251  0
-51.104309  -46.883503    0.150801  0
-35.542397  -43.091862    1.239301  0
-37.115685  -43.143509   -0.577725  0
-40.280636  -43.050884    0.472051  0
-37.679893  -43.759220   -1.893350  0
-41.559563  -43.600479   -0.528412  0
-39.423416  -43.936676   -1.940287  0
 -9.823142  -43.474174   86.360992  0
-12.325074  -44.920803   85.881897  0
 -3.084670  -44.010326   82.722694  0
-17.461998  -43.934483   84.583618  0
-18.761833  -44.110867   84.321739  0
 -3.597238  -43.624493   81.396172  0
-13.405086  -45.059402   83.004616  0
-15.022605  -45.285919   83.163246  0
-14.262130  -45.267750   81.990677  0
 -2.069296  -44.297085   81.273933  0
-14.039536  -45.284950   78.769379  0
-19.899860  -43.479015   82.514175  0
-19.604458  -43.421772   80.511879  0
-19.919018  -44.318966   79.354813  0
-18.669891  -43.993736   77.945419  0
-28.502590  -44.961208   80.746857  0
  3.881644  -45.541264   79.394211  0
-14.107649  -46.164265   76.354424  0
-21.314501  -43.999504   78.955826  0
-29.247358  -44.720955   79.115028  0
-12.568554  -45.070515   78.266708  0
-19.855486  -44.201359   77.738724  0
-29.264931  -44.990318   77.575737  0
  1.535748  -46.076694   76.156723  0
-17.877584  -43.488850   75.569695  0
-19.027853  -43.712608   75.477058  0
-29.843260  -45.554314   76.739700  0
  0.989365  -45.424442   74.817329  0
  1.577847  -46.144241   73.064476  0
-14.237026  -47.496132   72.075577  0
-31.152037  -45.675362   76.610550  0
-31.532267  -46.689213   74.734482  0
-31.757578  -46.220776   73.741020  0
-32.910694  -45.701199   75.706154  0
  1.839468  -46.475399   72.106209  0
  0.287337  -45.814682   70.031158  0
 -2.435437  -46.172382   69.989967  0
-31.361404  -45.113976   72.465843  0
-28.418060  -44.315083   69.974640  0
-27.194605  -45.443542   68.286186  0
-21.423573  -47.646217   66.940742  0
 -7.909580  -44.200043   65.958969  0
-26.229021  -45.863071   65.493340  0
-20.122843  -47.230255   66.501221  0
-22.249620  -47.731983   65.266800  0
-23.621916  -47.803303   65.003868  0
-25.449406  -46.317863   64.560776  0
-20.845152  -47.004974   64.873062  0
-23.736156  -46.976028   63.511757  0
-25.139536  -45.847843   63.801022  0
-40.262592  -42.238708   69.504669  0
-42.892082  -43.898907   69.878128  0
-22.179527  -47.539280   64.119087  0
-36.050957  -42.382206   66.383049  0
-43.521038  -44.892876   68.479431  0
-22.148352  -47.293327   63.219795  0
-43.108078  -45.472008   66.646072  0
-34.894135  -42.879181   64.680855  0
-43.000763  -45.528233   64.842659  0
-41.501213  -45.530350   62.437206  0
 -9.270525  -43.208916   61.308723  0
-11.110177  -43.830727   59.742886  0
-33.746887  -43.248142   63.181969  0
-26.230080  -42.935272   62.288254  0
-28.330742  -42.838821   60.870762  0
-29.353781  -43.512966   60.467499  0
-30.404497  -43.910599   61.261475  0
-32.136841  -43.872623   61.568089  0
-30.750101  -43.512665   60.226025  0
-11.917774  -43.487049   57.459751  0
-12.010825  -43.108887   58.654873  0
-39.983364  -46.339722   59.076698  0
-41.318283  -45.583366   60.565559  0
-45.363441  -46.881546   63.326862  0
-47.323090  -47.674236   64.229126  0
-47.897240  -47.710125   62.934120  0
-49.280449  -46.549580   63.397648  0
-49.234951  -44.908577   61.010712  0
-42.551014  -45.323231   61.449406  0
-44.231544  -45.970055   62.868008  0
-47.886059  -43.803158   59.268276  0
 -5.809794  -41.837585   54.124920  0
 -9.924547  -42.000599   55.299950  0
 -4.628899  -42.823761   52.729828  0
 -7.556560  -41.658230   54.564739  0
-49.477962  -43.229763   57.858711  0
-51.337093  -42.843849   58.727871  0
-53.695183  -44.321278   57.954945  0
-54.057877  -44.359322   57.276421  0
-54.253384  -44.343082   55.054070  0
 -5.413556  -42.468029   52.073639  0
 -6.054237  -43.110172   51.319790  0
 -6.579670  -43.961151   50.530079  0
 -7.297282  -45.154587   49.852070  0
-47.286873  -45.669556   50.180168  0
-52.246841  -48.356934   50.150578  0
 -8.233977  -45.365376   49.165470  0
-44.455742  -45.454548   50.074959  0
-53.870808  -48.453785   50.821514  0
-54.702438  -47.359772   50.778816  0
-38.960445  -46.119106   47.908318  0
-35.268909  -45.132057   46.349594  0
-32.565155  -43.283394   43.596630  0
-31.804588  -43.397030   42.298752  0
-31.357162  -43.738533   40.845730  0
  1.478253  -45.846359   44.461609  0
 -2.394888  -45.506767   44.685329  0
 -6.380677  -45.515213   43.691998  0
  1.779467  -44.426441   41.663933  0
-40.575047  -46.397243   42.062508  0
-39.386860  -46.315029   41.641464  0
-40.100929  -45.282528   42.507755  0
-38.785793  -45.145641   42.605389  0
-38.275078  -43.683323   42.569195  0
-40.537605  -43.404449   42.330105  0
-42.062149  -46.088966   41.970757  0
  1.258387  -43.974041   38.058781  0
-41.880211  -47.029175   40.933151  0
-40.387558  -47.314041   40.289272  0
-42.225895  -44.598873   42.111221  0
-44.381607  -45.414532   41.369572  0
-44.223415  -46.617039   40.961246  0
-44.666222  -44.326679   41.121086  0
-46.311676  -45.854908   40.214958  0
-46.282417  -44.469723   40.010796  0
  1.099934  -43.902332   36.899853  0
 -0.980128  -44.001614   35.898510  0
 -0.436380  -43.218204   36.697174  0
 -1.411168  -43.077267   36.766380  0
 -1.630144  -44.342724   35.953835  0
-30.503479  -43.576710   36.122463  0
-41.344265  -47.297863   38.103085  0
-43.178280  -47.333969   39.755325  0
-45.393654  -47.200249   39.751228  0
-46.566433  -46.715115   39.696342  0
-43.167568  -47.436279   37.890739  0
-45.132690  -47.529083   38.095371  0
-48.366158  -45.680424   39.386299  0
-29.379391  -42.226044   34.612389  0
-35.328270  -43.669697   36.015835  0
-35.462421  -43.223057   39.860779  0
-36.644753  -43.059196   37.213657  0
-39.894779  -47.406605   35.698322  0
-42.243328  -47.327602   35.637360  0
-30.418116  -43.816505   33.657471  0
-41.195389  -47.030518   34.178020  0
-32.038883  -43.679970   33.217274  0
-34.488274  -43.115425   32.995369  0
-35.664078  -43.219166   33.944489  0
-41.327839  -46.526611   33.321529  0
-52.553642  -44.567276   30.112375  0
  1.197080  -47.193954   28.917103  0
-45.766071  -45.457680   32.164642  0
-50.099335  -44.290894   31.071756  0
-56.919384  -47.075439   27.563679  0
  0.939847  -46.388515   28.046724  0
 -0.954074  -46.134163   25.890600  0
-59.244610  -46.900185   26.913954  0
-58.416599  -47.329483   27.248318  0
-59.201771  -46.700809   27.637300  0
-59.558868  -46.986122   26.819092  0
-58.558590  -47.427612   26.039574  0
-48.508282  -45.947540   24.938673  0
-52.836376  -46.989849   24.568079  0
-50.759552  -46.131947   24.242760  0
-54.499573  -47.715565   24.751717  0
-58.875736  -46.514633   25.618980  0
 -3.016504  -43.680748   21.661665  0
-17.774086  -43.736198   23.388605  0
-16.254740  -41.139996   21.745903  0
-39.461483  -43.022141   22.921820  0
 -5.912085  -41.644352   20.812019  0
 -8.470488  -41.267693   21.721155  0
-20.611160  -43.808311   21.901531  0
 -4.834548  -41.758118   19.025255  0
 -4.750521  -41.847477   20.204865  0
-22.504923  -43.625423   20.095385  0
-17.963261  -41.485634   20.128368  0
 -5.995788  -43.557396   14.906390  0
 -6.196446  -42.545200   16.053751  0
-19.492367  -41.082478   19.031952  0
-41.799221  -42.698830   21.733109  0
 -7.362271  -43.964317   14.243938  0
 -6.837535  -43.315742   14.890483  0
-44.126957  -42.547913   21.375704  0
-47.378750  -42.909966   21.486403  0
-49.891994  -43.153259   21.051229  0
-52.105999  -43.536381   20.152773  0
-54.189178  -44.980778   19.774269  0
-53.495152  -45.076473   18.945280  0
-54.217049  -45.350853   18.139669  0
 -8.076229  -43.426537   14.843811  0
-27.402376  -44.846016   16.758940  0
-27.684998  -43.827965   16.883299  0
-26.025974  -43.631828   17.061680  0
-26.205423  -44.003788   16.314470  0
-28.341822  -43.619942   16.207397  0
-21.470667  -40.486897   17.418650  0
-22.409712  -41.780491   16.792423  0
-22.519129  -44.290329   16.461092  0
-22.865847  -43.983505   16.444736  0
-27.434782  -43.579723   15.635960  0
-52.065979  -45.562630   15.821589  0
-12.673657  -45.123878   13.212554  0
-47.731346  -46.744392   13.431206  0
-12.409805  -46.780842   12.514727  0
-49.426388  -47.198742   13.035127  0
-12.292114  -48.770294   12.120845  0
-12.019292  -49.799839   11.363506  0
-52.883575  -48.857586   12.067632  0
-51.119072  -47.935001   10.936028  0
-52.537304  -48.440434   13.233846  0
-54.289635  -48.963497   10.690938  0
-54.967659  -49.183266   12.835875  0
-55.582462  -49.232426   11.847574  0
-55.818142  -48.813114   10.860405  0
-12.420452  -49.829899   10.088861  0
-19.665869  -44.924629    9.654234  0
-21.990761  -45.594658   11.510554  0
-53.085735  -47.809502    9.794522  0
-54.957291  -48.191311    9.802544  0
-18.264015  -45.625221    6.896626  0
-19.241829  -45.421959    8.156131  0
-37.149544  -44.289398    8.802831  0
-54.321152  -47.414814    9.552704  0
-53.484558  -47.105392    9.429034  0
-52.973625  -46.119316    9.516033  0
-12.572131  -49.168198    6.643124  0
-11.499842  -49.086029    7.662104  0
-12.567863  -49.650898    7.376756  0
-12.699659  -48.298943    6.495728  0
-39.867558  -44.631943    9.249098  0
-42.265358  -44.675453    7.746998  0
-53.495029  -45.130074    9.193444  0
-14.167103  -48.788242    6.284936  0
-13.646548  -47.316036    5.789629  0
-15.017819  -47.557503    5.688755  0
-15.434213  -46.487358    5.193927  0
-16.024097  -47.315098    5.947813  0
-25.589783  -44.602852    8.822826  0
-26.309786  -44.099232    9.355157  0
-26.474911  -43.666336   10.122890  0
-54.493961  -45.932743    9.287127  0
-21.157547  -44.877460    7.511500  0
-45.106777  -45.686111    5.152028  0
-43.524624  -44.622871    6.102588  0
-20.644096  -43.980785    6.468877  0
-22.252029  -43.665783    7.057533  0
-36.741455  -43.134392    6.769895  0
-44.771084  -45.163250    3.646165  0
-56.243816  -45.845585    6.648539  0
-19.822775  -44.599346    5.358892  0
-20.245623  -45.997318    3.824710  0
-26.245926  -47.967590    2.748868  0
-30.166132  -45.638702    3.809239  0
-31.803940  -45.102970    3.338307  0
-36.474152  -43.088051    3.608962  0
-45.631977  -45.644135    0.903608  0
-46.564213  -46.838661   -0.177840  0
-47.121769  -45.688770   -1.115261  0
-54.639008  -44.642056    1.977209  0
-55.561523  -44.653427    4.626921  0
-22.243376  -46.967880    3.042717  0
-23.918325  -47.525738    2.418225  0
-35.123817  -43.472221    2.260694  0
-37.066135  -42.843342    1.809938  0
-48.415466  -45.305046   -1.753051  0
-50.384632  -44.814087   -1.410874  0
-51.819965  -45.144558   -0.615274  0
-52.870014  -44.498718   -0.616620  0
-54.364750  -44.306629    0.574878  0
-53.726456  -43.902267   -0.104667  0
-38.556713  -42.908966    0.436761  0
-49.266335  -43.706673   -2.074011  0
-38.609032  -43.109035   -0.548055  0
-39.984406  -43.501373   -0.641217  0
-51.483704  -43.934490   -0.832186  0
-49.942253  -42.180248   -1.807692  0
-40.754726  -44.205360   -1.543404  0
 -7.739228  -42.314098   85.886543  0
 -4.834438  -42.593353   83.849602  0
-11.992052  -42.497990   86.344116  0
-13.180082  -43.937992   85.453392  0
-13.817924  -44.261600   83.887062  0
-16.103922  -44.147507   84.380119  0
 -5.378158  -42.200962   82.064865  0
 -4.967943  -42.846451   81.060669  0
-19.024050  -42.301746   81.549576  0
  3.083234  -44.016315   81.259895  0
 -4.509398  -43.628994   79.778725  0
 -6.784801  -42.653248   80.128448  0
-17.986698  -42.357956   79.631081  0
-17.605606  -42.819206   77.791885  0
-27.929693  -43.753384   81.144432  0
  3.790017  -42.290657   80.065430  0
  0.469286  -43.419872   81.599937  0
 -1.003027  -43.650280   81.531410  0
 -2.901137  -43.840958   80.586060  0
-12.911762  -44.580074   79.002266  0
-22.382421  -43.300270   79.462112  0
-29.586374  -43.023354   79.511665  0
  3.935306  -44.192562   79.021736  0
 -4.102261  -43.308537   79.211700  0
-13.426320  -45.449337   76.852959  0
  2.972257  -44.066696   77.542885  0
-20.977404  -42.903656   76.580627  0
