#!ascii file
6290  5972  6289  0
5975  6291  6289  0
5972  6290  5666  0
5666  6290  5369  0
5664  6288  5973  0
6292  5974  5976  0
6292  5976  5669  0
6293  5974  6292  0
6292  5669  6294  0
5974  6293  5975  0
6291  5975  6293  0
6295  5973  6288  0
5674  6296  5669  0
6294  5669  6296  0
5674  6297  6296  0
5980  5979  6298  0
5980  6298  6299  0
6300  5980  6299  0
5979  5670  6301  0
5979  6301  6298  0
5670  5671  6301  0
5671  5379  6302  0
5379  5977  5984  0
5379  5984  6303  0
5379  6303  6302  0
6304  6302  6303  0
5973  6295  5678  0
5981  5678  6295  0
5674  5395  6297  0
5982  6297  5395  0
5683  5677  6305  0
6300  6305  5677  0
5677  5980  6300  0
6306  5987  6307  0
6308  5987  5988  0
5981  6309  5681  0
6310  5681  6309  0
5681  6310  5682  0
6305  5982  5683  0
6303  5984  5983  0
6311  6303  5983  0
6312  6313  6306  0
5985  6306  6313  0
6306  5985  5987  0
6314  6308  5988  0
5988  5989  6314  0
6315  6314  5989  0
5989  5686  5990  0
5989  5990  6315  0
6310  6315  5990  0
5990  5682  6310  0
5992  6311  5983  0
6316  5994  6313  0
5995  6313  5994  0
6316  6313  6317  0
6313  5995  5985  0
5991  5985  5995  0
6318  5992  5696  0
5696  5993  6318  0
6319  6318  5993  0
6316  5993  5994  0
6320  6321  5997  0
5997  6321  6322  0
5997  6322  6001  0
6320  5997  6323  0
5996  6323  5997  0
6001  6324  6002  0
6002  6325  6003  0
6323  5996  6326  0
6327  6326  5996  0
5996  6004  6327  0
6328  6327  6004  0
6003  6325  6006  0
6004  6008  6328  0
6008  6011  6328  0
6329  6328  6011  0
6007  6009  5709  0
6007  6330  6009  0
6011  6012  6329  0
6009  6330  6331  0
6009  6331  6332  0
5714  6013  6016  0
6013  6333  6334  0
6013  6334  6016  0
6013  6015  6335  0
6013  6335  6333  0
6016  6336  6021  0
6016  6021  6014  0
6016  6334  6336  0
6337  6338  6025  0
6337  6025  6024  0
6337  6024  6339  0
6338  6340  6026  0
6338  6026  6025  0
6340  6341  6026  0
6342  6015  6020  0
6342  6343  6335  0
6342  6335  6015  0
6017  6021  6344  0
6017  6344  6022  0
5718  6022  6345  0
5718  6345  6018  0
6030  6024  5720  0
6030  6346  6024  0
6339  6024  6346  0
6030  6347  6346  0
6026  6341  6027  0
6032  6027  6341  0
6342  6020  6348  0
6020  6019  6348  0
6349  6021  6336  0
6021  6349  6344  0
6350  6344  6349  0
6351  6344  6350  0
6344  6351  6022  0
6022  6351  6345  0
6352  5435  5724  0
6030  6031  6353  0
6030  6353  6347  0
6032  6354  6033  0
6032  6355  6354  0
6019  5723  6356  0
6019  6356  6357  0
6019  6357  6348  0
5435  6352  5446  0
6031  6358  6359  0
6031  6359  6353  0
6360  6033  6354  0
6033  6360  6037  0
6033  6037  5729  0
5723  5731  6361  0
5723  6361  6356  0
5446  6047  5740  0
6362  6363  6048  0
6362  6048  6047  0
6363  6364  6048  0
6363  6365  6364  0
6031  6040  6358  0
6358  6366  6359  0
6361  5731  6367  0
5731  5730  6368  0
5731  6368  6367  0
5730  6038  6368  0
6364  6049  6048  0
6364  6369  6049  0
6370  6049  6369  0
6371  6049  6370  0
6372  6366  6358  0
6373  5745  6037  0
6374  6361  6367  0
6367  6368  6374  0
6375  6368  6038  0
6038  6043  6375  0
6043  6039  6376  0
6046  6376  6039  0
6049  6371  6050  0
6377  6050  6371  0
6040  6053  6358  0
6378  6358  6053  0
6358  6378  6372  0
6379  6372  6378  0
6059  5745  6373  0
6376  6375  6043  0
5762  6376  6046  0
6046  5744  5762  0
6050  6377  6380  0
6050  6380  5747  0
6051  6056  6053  0
6381  6053  6056  0
6053  6381  6379  0
6053  6379  6378  0
6382  6376  5762  0
6383  6061  5753  0
5753  5747  6383  0
6380  6383  5747  0
6056  6058  6384  0
6056  6384  6385  0
6056  6385  6381  0
5464  6382  5762  0
6061  6060  5460  0
6057  5764  6058  0
5764  6063  6058  0
6386  6058  6063  0
6058  6386  6387  0
6388  6387  6386  0
5752  6064  5751  0
5752  5746  6389  0
5752  6389  6064  0
6390  6386  6063  0
6386  6390  6388  0
6064  6391  5463  0
6068  5463  6391  0
5480  6065  6392  0
6063  6071  6393  0
6063  6393  6390  0
6390  6393  6388  0
6068  6391  6394  0
6068  6394  5779  0
6069  5774  6082  0
6392  6084  5480  0
6393  6395  6388  0
6073  6074  6396  0
6073  6396  6079  0
6074  6075  6397  0
6074  6397  6396  0
6075  6398  6397  0
6075  6076  6398  0
6076  6077  6398  0
6077  6080  6398  0
5779  6394  6399  0
6086  6085  6400  0
6401  6089  6088  0
6071  6402  6393  0
6395  6393  6402  0
6071  6090  6402  0
6079  6403  6091  0
6079  6396  6403  0
6396  6397  6403  0
6404  6403  6397  0
6081  5779  6399  0
6400  6085  6083  0
6089  6401  6095  0
6096  6097  6090  0
6090  6405  6402  0
6091  6403  6406  0
6403  6404  6406  0
5780  6081  6407  0
5782  6098  6094  0
6401  6408  6099  0
6401  6099  6095  0
6401  6409  6408  0
6097  6405  6090  0
6097  6410  6405  0
6091  6406  6411  0
6091  6411  6101  0
5780  6407  6105  0
5490  6412  5797  0
5490  6102  6412  0
6408  6103  6099  0
5503  6413  5801  0
6414  6413  5503  0
6100  6410  6097  0
6415  6101  6411  0
6412  5804  5797  0
6412  6102  6416  0
6102  5798  6416  0
6107  6416  5798  0
5503  5507  6414  0
6110  6414  5507  0
6110  5806  6417  0
6418  6417  5806  0
5806  6111  6418  0
6419  6418  6111  0
6420  6112  6101  0
6101  6415  6420  0
6107  5805  6421  0
6113  6421  5805  0
6108  6422  6109  0
6114  6109  6422  0
6111  6112  6419  0
6423  6419  6112  0
6424  6423  6112  0
6112  6420  6424  0
5808  5807  6425  0
6118  6421  6113  0
6422  6426  6114  0
6427  6114  6426  0
6114  6427  6115  0
5252  5241  5812  0
5812  6120  5252  0
6117  6120  5809  0
5813  5804  5815  0
6421  6118  6428  0
6426  6429  6427  0
6427  6430  6115  0
6119  6115  6430  0
6122  6425  5807  0
6120  6117  5819  0
5815  5820  5816  0
5815  6431  5820  0
6118  6121  6428  0
6427  6429  6432  0
6427  6432  6430  0
6124  6119  6430  0
6430  6432  6433  0
5818  6119  6124  0
5820  6431  6434  0
5820  6434  5828  0
6123  6435  6121  0
6121  6435  6436  0
6121  6436  6428  0
6430  6437  6127  0
6430  6127  6124  0
6430  6433  6438  0
6430  6438  6437  0
5819  6117  5834  0
6117  5823  5834  0
5828  6434  5849  0
6435  6123  6126  0
6435  6126  6130  0
6435  6130  6436  0
6127  6437  6439  0
6127  6439  6128  0
6130  6129  6440  0
6130  6440  6436  0
6128  6439  6441  0
6128  6441  6131  0
6132  6133  6442  0
6132  6442  6443  0
6132  6443  6134  0
5842  6134  6444  0
5842  6444  6135  0
6135  6444  6445  0
6135  6445  6136  0
5846  6138  6446  0
5846  6446  6139  0
6129  6141  6440  0
6131  6155  5855  0
6131  6441  6155  0
6447  6155  6441  0
5852  6146  6133  0
6133  6146  6448  0
6133  6448  6442  0
6449  6136  6445  0
6136  6449  6142  0
6446  6138  6143  0
6450  6139  6446  0
6139  6450  6140  0
6451  6140  6450  0
6144  6452  6141  0
6144  6453  6452  0
6454  6155  6447  0
6146  6147  6455  0
6146  6455  6448  0
6448  6455  6456  0
6448  6456  6457  0
6448  6457  6442  0
6144  6158  6453  0
6144  5861  6158  0
6458  6158  5863  0
6458  5863  6459  0
5863  6153  6459  0
6154  6155  6454  0
6154  6454  6153  0
6159  6455  6147  0
6160  6455  6159  0
6455  6160  6456  0
6460  6456  6160  0
6149  5858  6164  0
5858  6150  6164  0
6165  6164  6150  0
6150  5859  6165  0
6461  6165  5859  0
6462  6151  6152  0
6463  6464  6460  0
6165  6461  5878  0
6175  5878  6461  0
5859  5882  6461  0
5565  6156  6465  0
6151  6462  6162  0
6163  6172  6160  0
6160  6172  6460  0
6463  6460  6172  0
5878  6175  6173  0
6465  5883  5565  0
6466  6465  6156  0
6166  6466  6156  0
6162  6467  6168  0
6175  5569  6174  0
5889  6174  5569  0
6468  6466  6166  0
6168  6467  6469  0
6172  6171  6470  0
6172  6470  6463  0
5889  6178  6174  0
5295  5569  5881  0
5883  6471  6181  0
6166  6176  6468  0
6176  6472  6468  0
6176  6168  6472  0
6168  6469  6472  0
5886  6179  6182  0
6179  6180  6473  0
6180  6474  6473  0
6180  6178  6474  0
5889  6475  6178  0
6181  6471  6476  0
5893  6181  6476  0
5893  6476  6477  0
5891  6186  6478  0
6187  5901  5892  0
5893  6477  5910  0
5899  6189  6190  0
5900  6191  6192  0
6192  6479  6480  0
6192  6480  5898  0
5898  6480  6478  0
5898  6478  6186  0
5901  6481  5908  0
6188  6193  6198  0
6188  6198  6482  0
6194  6483  6197  0
6194  6196  6484  0
6194  6484  6483  0
6197  6483  6189  0
6485  6189  6483  0
6486  6189  6485  0
6189  6486  6190  0
6487  6190  6486  0
6190  6487  6191  0
6192  6191  6487  0
6488  5908  6481  0
6198  5912  6489  0
6198  6489  6482  0
6200  6201  6490  0
6200  6490  6196  0
6203  5908  6206  0
5908  6488  6206  0
6491  6490  6201  0
6204  6205  6492  0
6493  6492  6205  0
6205  6202  6493  0
6494  6493  6202  0
6206  6494  6202  0
6199  6495  6207  0
5914  6208  6201  0
6496  6201  6208  0
6201  6496  6491  0
6204  6492  5913  0
6497  5913  6492  0
6217  6214  6498  0
6499  6498  6500  0
6498  6214  6500  0
6501  6500  6214  0
6498  6502  6217  0
6220  6217  6502  0
6498  6499  6502  0
6503  6502  6499  0
6502  6503  6220  0
6221  6220  6503  0
5912  5919  6504  0
6223  6207  6495  0
6505  6496  6208  0
6497  5915  5913  0
6210  6501  6214  0
6506  6501  6210  0
6221  6507  6222  0
6231  6222  6507  0
6508  6507  6509  0
6507  6508  6231  0
6510  6504  5919  0
6505  6208  6223  0
5915  6511  5920  0
5923  5922  6512  0
6513  6512  5922  0
6514  5923  6512  0
5923  6514  6209  0
6224  6209  6514  0
6506  6210  6515  0
6516  6232  6231  0
6231  6508  6517  0
6231  6517  6516  0
6516  6517  6518  0
6516  6518  6519  0
5919  5608  6510  0
6520  6510  5608  0
5920  6511  6233  0
5921  6521  5922  0
5922  6521  6513  0
6224  6522  5918  0
5918  6522  6523  0
5918  6523  6225  0
6225  6523  6234  0
6237  6524  6238  0
6237  6228  6525  0
6237  6525  6524  0
6228  6232  6526  0
6228  6526  6525  0
6232  6516  6527  0
6232  6527  6528  0
6516  6519  6527  0
5608  6240  6520  0
6515  6239  6529  0
6515  6529  6506  0
6239  6238  6530  0
6239  6530  6529  0
6238  6524  6531  0
6238  6531  6532  0
6238  6532  6530  0
6524  6525  6533  0
6524  6533  6531  0
6525  6526  6533  0
6526  6232  6528  0
5928  6241  6246  0
6242  6534  6241  0
5609  6535  6240  0
6536  5933  6537  0
5933  6244  6537  0
6244  6245  6538  0
6246  6539  6245  0
6246  6241  6540  0
6246  6540  6539  0
6241  6534  6540  0
5609  5339  6260  0
6252  5623  6541  0
5623  6536  6542  0
6536  6537  6542  0
6244  6538  6537  0
6543  6544  6545  0
6544  6546  6547  0
6544  6543  6546  0
6548  6546  6543  0
6546  6548  6547  0
6549  5609  6260  0
6544  6547  6550  0
6551  6550  6547  0
6552  6551  6547  0
6551  6552  6553  0
6554  6553  6552  0
5939  6256  6555  0
6556  6555  6256  0
6555  6247  5939  0
6555  6557  6247  0
6558  6247  6557  0
6559  6247  6558  0
6247  6559  6248  0
6560  6248  6559  0
6248  6561  6249  0
6258  6249  6561  0
6248  6560  6561  0
6561  6562  6258  0
6563  6258  6562  0
6268  6549  6260  0
6544  6550  6564  0
6565  6550  6551  0
6551  6553  6565  0
6264  6565  6553  0
6553  6566  6264  0
6265  6264  6566  0
6553  6554  6566  0
6566  6254  6265  0
5944  6265  6254  0
6566  6554  6254  0
6567  6254  6554  0
6254  6567  6255  0
6556  6255  6567  0
6255  6556  6256  0
6568  6259  6258  0
6258  6563  6568  0
6550  6565  6569  0
6570  6569  6565  0
6565  6264  6570  0
6571  6570  6264  0
6264  6266  6571  0
6572  6571  6266  0
6279  6573  6277  0
6574  6277  6573  0
6573  6279  6575  0
6576  6573  6575  0
6575  6279  6577  0
6280  6577  6279  0
6575  6577  6576  0
6267  6577  6280  0
6578  6576  6577  0
6577  6267  6578  0
6579  6267  6259  0
6259  6568  6579  0
6251  6250  6580  0
6270  6252  6269  0
6270  6581  6262  0
6262  6582  6271  0
6262  6581  6582  0
6271  6582  6583  0
6271  6583  5941  0
5941  6583  6584  0
5941  6584  6272  0
6272  6584  5943  0
6266  6273  6572  0
6275  6572  6273  0
6275  6277  6574  0
5954  6280  6279  0
6251  6580  6269  0
6270  6269  6585  0
6270  6585  6581  0
6581  6585  6582  0
5943  6584  6586  0
5943  6586  6587  0
5943  6587  5647  0
5960  5961  5965  0
5961  5647  6587  0
5961  6587  6588  0
5961  6588  5965  0
5964  6282  6281  0
6282  5965  6589  0
5965  6588  6589  0
6285  6286  6590  0
6286  6287  6590  0
6287  6281  6591  0
6281  6282  6591  0
5969  6284  6592  0
6284  6283  6593  0
6284  6593  6592  0
6283  6594  6593  0
6283  6285  6595  0
6283  6595  6594  0
6590  6596  6597  0
6590  6597  6285  0
6590  6287  6596  0
5971  5970  6598  0
6595  6285  6597  0
6289  6599  6600  0
6289  6600  6290  0
6290  6601  5369  0
5369  6601  5970  0
6292  6602  6293  0
6603  6293  6602  0
6292  6294  6602  0
6293  6603  6291  0
6289  6291  6603  0
6604  6294  6296  0
6602  6294  6604  0
6299  6605  6300  0
6298  6301  6299  0
5671  6606  6301  0
5671  6302  6606  0
6295  6607  5981  0
6608  5981  6607  0
5981  6608  6309  0
6297  5982  6296  0
6305  6300  6609  0
6304  6303  6311  0
6304  6610  6302  0
6611  6312  6306  0
6306  6307  6611  0
6307  5987  6612  0
5987  6308  6612  0
6613  6612  6308  0
6614  6309  6608  0
6309  6614  6310  0
6615  6310  6614  0
5982  6305  6616  0
6313  6312  6317  0
6317  6312  6617  0
6611  6617  6312  0
6308  6314  6613  0
6315  6613  6314  0
6315  6310  6615  0
6618  6311  5992  0
6619  6316  6317  0
6318  6618  5992  0
6318  6319  6620  0
6319  5993  6620  0
6619  6620  5993  0
5993  6316  6619  0
6322  6621  6001  0
6324  6001  6621  0
6323  6622  6320  0
6623  6320  6622  0
6324  6624  6002  0
6325  6002  6624  0
6324  6625  6624  0
6326  6327  6626  0
6627  6325  6624  0
6325  6628  6006  0
6007  6006  6628  0
6325  6627  6628  0
6626  6327  6629  0
6630  6629  6327  0
6327  6328  6630  0
6631  6630  6328  0
6329  6631  6328  0
6628  6330  6007  0
6628  6627  6331  0
6628  6331  6330  0
6329  6012  6632  0
6633  6632  6012  0
6633  6012  6634  0
6333  6635  6636  0
6636  6637  6333  0
6638  6639  6640  0
6640  6641  6638  0
6638  6641  6642  0
6635  6333  6343  0
6335  6343  6333  0
6333  6637  6334  0
6639  6638  6643  0
6638  6642  6644  0
6337  6645  6338  0
6337  6339  6645  0
6646  6645  6339  0
6338  6645  6340  0
6340  6647  6341  0
6648  6635  6343  0
6343  6342  6649  0
6343  6649  6648  0
6336  6334  6650  0
6336  6650  6651  0
6638  6652  6643  0
6638  6644  6652  0
6346  6653  6646  0
6346  6646  6339  0
6346  6347  6653  0
6341  6355  6032  0
6342  6348  6654  0
6342  6654  6649  0
6336  6651  6349  0
6655  6652  6644  0
6655  6644  6656  0
6656  6644  6657  0
6347  6353  6658  0
6347  6658  6659  0
6355  6660  6354  0
6348  6357  6661  0
6352  6662  6047  0
6352  6047  5446  0
6662  6655  6362  0
6662  6362  6047  0
6662  6663  6655  0
6655  6656  6363  0
6655  6363  6362  0
6656  6657  6365  0
6656  6365  6363  0
6664  6365  6657  0
6353  6359  6658  0
6354  6665  6360  0
6365  6664  6369  0
6365  6369  6364  0
6359  6366  6666  0
6359  6666  6658  0
6658  6666  6667  0
6658  6667  6668  0
6669  6360  6665  0
6360  6669  6037  0
6356  6361  6670  0
6356  6670  6357  0
6664  6671  6369  0
6369  6671  6370  0
6377  6371  6370  0
6366  6372  6672  0
6366  6672  6666  0
6669  6373  6037  0
6361  6374  6673  0
6361  6673  6670  0
6372  6379  6674  0
6372  6674  6672  0
6672  6674  6675  0
6672  6675  6676  0
6672  6676  6677  0
6672  6677  6666  0
6374  6368  6678  0
6374  6678  6673  0
6368  6375  6678  0
6381  6385  6379  0
6674  6379  6385  0
6674  6679  6675  0
6680  6676  6675  0
6382  6375  6376  0
6061  6383  6681  0
6383  6380  6681  0
6058  6387  6384  0
6682  6384  6387  0
6384  6682  6385  0
6683  6385  6682  0
6385  6683  6674  0
6679  6674  6683  0
6680  6675  6679  0
6684  6059  6373  0
6678  6375  6685  0
6686  6685  6375  0
6375  6382  6686  0
6060  6061  6687  0
6682  6688  6683  0
6683  6688  6679  0
6689  6679  6688  0
6679  6689  6680  0
6690  6680  6689  0
6059  6684  5746  0
6691  6686  6382  0
6382  5464  6069  0
6692  6062  6060  0
6693  6062  6692  0
6387  6388  6682  0
6694  6682  6388  0
6682  6694  6688  0
6689  6688  6695  0
5746  6684  6389  0
6382  6069  6691  0
6693  6066  6062  0
6694  6696  6695  0
6694  6695  6688  0
6069  6082  6691  0
6066  6693  6065  0
6064  6389  6697  0
6064  6697  6698  0
6064  6698  6391  0
6388  6395  6694  0
6699  6694  6395  0
6694  6699  6696  0
6700  6696  6699  0
6397  6398  6701  0
6065  6693  6392  0
6392  6693  6702  0
6392  6702  6084  0
6084  6702  6083  0
6086  6703  6704  0
6086  6704  6087  0
6086  6400  6703  0
6087  6704  6705  0
6087  6705  6088  0
6088  6705  6706  0
6088  6706  6401  0
6402  6707  6395  0
6395  6707  6699  0
6397  6701  6404  0
6701  6398  6708  0
6398  6080  6708  0
6082  6093  6709  0
6082  6709  6710  0
6083  6702  6711  0
6083  6711  6400  0
6401  6706  6712  0
6402  6405  6707  0
6701  6708  6713  0
6708  6080  6092  0
6409  6401  6712  0
6409  6712  6714  0
6409  6714  6408  0
6405  6410  6715  0
6405  6715  6707  0
6404  6716  6406  0
6404  6701  6716  0
6092  5808  6708  0
6408  6714  6717  0
6408  6717  6103  0
6413  6718  5801  0
5801  6718  6104  0
6104  6719  6100  0
6100  6719  6720  0
6100  6720  6410  0
6410  6720  6715  0
6406  6716  6411  0
5808  6721  6708  0
6722  6105  6407  0
6106  6723  5500  0
5500  6724  6098  0
6094  6098  6724  0
5500  6723  6724  0
6725  6103  6717  0
6418  6726  6417  0
6418  6419  6726  0
6411  6716  6727  0
6411  6727  6415  0
5808  6425  6721  0
6105  6722  6106  0
6723  6106  6722  0
6412  6416  6728  0
6412  6728  5804  0
6729  5804  6728  0
6416  6107  6421  0
6103  6730  6108  0
6422  6108  6730  0
6103  6725  6730  0
6731  6730  6725  0
6732  6423  6424  0
6424  6420  6732  0
6733  6732  6420  0
6420  6415  6733  0
6415  6727  6734  0
6415  6734  6733  0
5812  6105  6106  0
6106  5809  5812  0
6120  5812  5809  0
6416  6421  6728  0
6426  6422  6730  0
6735  6730  6731  0
5804  6729  5815  0
6431  5815  6729  0
6730  6429  6426  0
6730  6735  6429  0
6736  6429  6735  0
6429  6737  6432  0
6433  6432  6737  0
6436  6738  6428  0
6429  6736  6737  0
6438  6433  6737  0
6739  5849  6434  0
6737  6740  6438  0
6438  6740  6741  0
6438  6741  6437  0
6122  5827  6742  0
6440  6743  6436  0
6436  6743  6744  0
6437  6745  6439  0
6441  6439  6745  0
6437  6741  6746  0
6437  6746  6745  0
6747  6134  6443  0
6134  6747  6444  0
6444  6748  6445  0
6140  6451  6742  0
6140  6742  5827  0
6749  6743  6452  0
6743  6440  6452  0
6141  6452  6440  0
6441  6745  6750  0
6441  6750  6447  0
6442  6457  6443  0
6443  6457  6751  0
6443  6751  6747  0
6747  6752  6444  0
6445  6748  6449  0
6449  6748  6753  0
6449  6753  6142  0
6142  6753  6754  0
6142  6754  6143  0
6143  6754  6755  0
6143  6755  6446  0
6446  6755  6450  0
6756  6452  6453  0
6756  6453  6462  0
6756  6749  6452  0
6757  6458  6459  0
6757  6758  6458  0
6757  6459  6759  0
6447  6760  6454  0
6447  6750  6760  0
6457  6456  6761  0
6457  6761  6751  0
6751  6761  6762  0
6751  6762  6747  0
5847  5849  6763  0
6462  6453  6764  0
6453  6158  6758  0
6453  6758  6765  0
6453  6765  6764  0
6158  6458  6758  0
6459  6153  6759  0
6153  6766  6759  0
6153  6454  6767  0
6153  6767  6766  0
6454  6760  6768  0
6454  6768  6767  0
6456  6460  6464  0
6456  6464  6761  0
6761  6464  6769  0
6761  6769  6762  0
6764  6770  6462  0
6764  6765  6771  0
6769  6772  6762  0
6769  6773  6772  0
6462  6467  6162  0
6764  6771  6770  0
6463  6470  6774  0
6463  6774  6464  0
6464  6774  6769  0
6769  6774  6773  0
6461  5882  5881  0
6461  5881  6175  0
6465  6466  5883  0
6467  6462  6775  0
6770  6775  6462  0
6776  6775  6770  0
6777  6775  6776  0
6175  5881  5569  0
5883  6778  6471  0
5883  6466  6778  0
6466  6468  6778  0
6467  6775  6777  0
6467  6777  6469  0
6470  6171  6779  0
6780  6774  6470  0
6471  6778  6476  0
6781  6476  6778  0
6778  6468  6781  0
6782  6781  6468  0
6783  6782  6468  0
6468  6472  6783  0
6784  6783  6472  0
6785  6784  6472  0
6472  6469  6785  0
6777  6785  6469  0
6786  6470  6779  0
6787  6470  6786  0
6788  6179  6473  0
6473  6474  6788  0
6475  6788  6474  0
6474  6178  6475  0
6789  6790  6183  0
6183  6182  6789  0
6791  6789  6182  0
6182  6179  6791  0
6179  6788  6791  0
6477  6476  6792  0
6793  6794  6790  0
6187  5891  6478  0
6479  6487  6795  0
6487  6479  6192  0
6479  6796  6480  0
6797  6480  6796  0
6480  6797  6478  0
6478  6798  6187  0
6799  6187  6798  0
6478  6797  6798  0
6187  6799  5901  0
6481  5901  6799  0
6188  6482  6800  0
6801  6199  5910  0
6802  6483  6484  0
6483  6802  6485  0
6803  6486  6485  0
6804  6486  6803  0
6486  6804  6805  0
6486  6805  6487  0
6798  6806  6799  0
6798  6797  6807  0
6798  6807  6806  0
6799  6806  6481  0
6488  6481  6806  0
6196  6490  6484  0
6808  6484  6490  0
6484  6808  6809  0
6484  6809  6802  0
6806  6807  6488  0
6489  5912  6810  0
6199  6801  6495  0
6490  6811  6808  0
6490  6491  6811  0
6494  6206  6812  0
6813  6812  6206  0
6813  6206  6488  0
6813  6488  6814  0
6815  6816  6499  0
6815  6499  6500  0
6815  6817  6818  0
6815  6818  6816  0
6815  6500  6819  0
6815  6819  6817  0
6816  6820  6503  0
6816  6503  6499  0
6816  6818  6821  0
6816  6821  6820  0
5912  6504  6810  0
6496  6822  6491  0
6491  6823  6811  0
6492  6493  6824  0
6493  6494  6825  0
6493  6825  6824  0
6494  6812  6825  0
6500  6501  6826  0
6500  6826  6819  0
6503  6827  6507  0
6503  6507  6221  0
6503  6820  6828  0
6503  6828  6827  0
6827  6509  6507  0
6827  6828  6829  0
6827  6829  6509  0
6495  6830  6223  0
6496  6505  6822  0
6822  6823  6491  0
6822  6505  6831  0
6822  6831  6823  0
5915  6497  6511  0
6501  6506  6832  0
6501  6832  6826  0
6509  6833  6508  0
6508  6833  6834  0
6834  6517  6508  0
6834  6833  6835  0
6834  6518  6517  0
6834  6835  6836  0
6834  6504  6510  0
6834  6510  6518  0
6834  6836  6504  0
6505  6837  6831  0
6505  6223  6837  0
6506  6838  6832  0
6518  6510  6519  0
6510  6520  6519  0
6839  6223  6830  0
6840  6223  6839  0
6841  6223  6840  0
6837  6223  6841  0
6842  6233  6511  0
6233  6521  5921  0
6521  6843  6513  0
6844  6513  6843  0
6513  6844  6512  0
6845  6512  6844  0
6512  6845  6514  0
6846  6514  6845  0
6514  6846  6224  0
6522  6224  6846  0
6506  6529  6838  0
6532  6838  6529  0
6527  6847  6528  0
6527  6519  6848  0
6527  6848  6847  0
6520  6848  6519  0
6240  6849  6520  0
6521  6233  6842  0
6234  6523  6850  0
6529  6530  6532  0
6851  6852  6531  0
6531  6852  6532  0
6853  6533  6526  0
6526  6528  6853  0
6854  6853  6528  0
6528  6847  6854  0
6242  6243  6534  0
6855  6534  6243  0
6243  6856  6855  0
6240  6535  6857  0
6538  6245  6858  0
6859  6858  6245  0
6538  6858  6860  0
6245  6539  6859  0
6861  6539  6540  0
6540  6534  6861  0
6862  6861  6534  0
6534  6855  6862  0
6863  6862  6855  0
6542  6541  5623  0
6864  6542  6537  0
6865  6537  6538  0
6860  6865  6538  0
6544  6866  6545  0
6866  6867  6545  0
6545  6867  6868  0
6545  6868  6543  0
6543  6868  6869  0
6543  6869  6548  0
6548  6870  6547  0
6552  6547  6870  0
6548  6869  6871  0
6548  6871  6870  0
6872  6558  6557  0
6872  6557  6873  0
6559  6874  6560  0
6559  6558  6875  0
6559  6875  6874  0
6561  6560  6874  0
6535  5609  6549  0
6535  6549  6876  0
6250  6877  6878  0
6866  6544  6564  0
6866  6564  6879  0
6552  6880  6554  0
6552  6870  6881  0
6552  6881  6880  0
6880  6882  6567  0
6880  6567  6554  0
6880  6881  6883  0
6880  6883  6882  0
6882  6556  6567  0
6882  6555  6556  0
6882  6884  6555  0
6555  6884  6557  0
6561  6874  6885  0
6561  6885  6562  0
6562  6549  6563  0
6562  6885  6549  0
6549  6885  6876  0
6549  6268  6563  0
6564  6550  6569  0
6886  6887  6573  0
6886  6573  6576  0
6886  6576  6888  0
6888  6576  6578  0
6888  6578  6889  0
6888  6889  6890  0
6563  6891  6568  0
6563  6268  6891  0
6569  6570  6892  0
6570  6571  6893  0
6570  6893  6892  0
6571  6572  6894  0
6571  6894  6893  0
6573  6887  6895  0
6573  6895  6574  0
6578  6267  6579  0
6578  6579  6896  0
6578  6896  6889  0
6891  6897  6568  0
6891  6268  5966  0
6891  5966  6897  0
6582  6898  6583  0
6583  6898  6586  0
6583  6586  6584  0
6572  6275  6899  0
6572  6899  6894  0
6275  6574  6900  0
6275  6900  6899  0
6269  6901  6585  0
6585  6902  6582  0
6903  6582  6902  0
6582  6903  6898  0
6904  6898  6903  0
6898  6904  6586  0
6587  6586  6904  0
6905  6269  6580  0
6269  6905  6901  0
6906  6901  6905  0
6907  6585  6901  0
6585  6907  6902  0
6901  6906  6907  0
6908  6589  6588  0
6909  6287  6591  0
6591  6282  6909  0
6910  6909  6282  0
6282  6589  6908  0
6282  6908  6910  0
5966  5658  6911  0
6912  6913  5969  0
6592  6912  5969  0
6914  6597  6596  0
6596  6287  6914  0
6915  6914  6287  0
6287  6909  6915  0
6916  6915  6909  0
6909  6910  6916  0
6911  5971  6598  0
5971  6911  5658  0
5969  6913  6288  0
6917  6288  6913  0
6918  6592  6593  0
6594  6918  6593  0
6594  6595  6919  0
6920  6919  6595  0
6595  6597  6920  0
6921  6920  6597  0
6597  6914  6921  0
6922  6921  6914  0
6914  6915  6922  0
6923  6922  6915  0
6915  6916  6924  0
6925  6924  6916  0
6915  6924  6923  0
6289  6603  6599  0
6603  6926  6599  0
6927  6290  6600  0
6290  6927  6601  0
6598  6601  6927  0
6601  6598  5970  0
6594  6919  6928  0
6929  6928  6919  0
6919  6920  6929  0
6930  6929  6920  0
6920  6921  6930  0
6931  6921  6922  0
6922  6923  6931  0
6602  6932  6603  0
6926  6603  6932  0
6933  6932  6602  0
6288  6917  6295  0
6934  6295  6917  0
6295  6934  6607  0
6930  6921  6935  0
6931  6935  6921  0
6936  6604  6296  0
6604  6936  6933  0
6604  6933  6602  0
6605  6299  6937  0
6938  6937  6299  0
6299  6301  6938  0
6939  6938  6301  0
6301  6606  6939  0
6606  6302  6610  0
6606  6610  6940  0
6941  6611  6942  0
6941  6942  6943  0
6608  6607  6614  0
6296  5982  6616  0
6296  6616  6936  0
6936  6616  6305  0
6936  6305  6609  0
6609  6944  6936  0
6609  6300  6605  0
6609  6605  6944  0
6941  6945  6946  0
6941  6946  6617  0
6941  6617  6611  0
6307  6612  6947  0
6307  6947  6611  0
6612  6613  6947  0
6311  6948  6304  0
6304  6948  6610  0
6315  6615  6613  0
6949  6311  6618  0
6949  6948  6311  0
6619  6317  6617  0
6619  6617  6946  0
6949  6618  6950  0
6618  6318  6951  0
6618  6951  6950  0
6318  6620  6951  0
6952  6321  6320  0
6952  6320  6953  0
6321  6954  6322  0
6321  6952  6955  0
6321  6955  6954  0
6954  6621  6322  0
6954  6956  6621  0
6623  6953  6320  0
6621  6957  6625  0
6621  6625  6324  0
6621  6956  6957  0
6323  6326  6958  0
6323  6958  6959  0
6323  6959  6960  0
6323  6960  6622  0
6622  6961  6623  0
6958  6326  6626  0
6624  6625  6627  0
6631  6329  6962  0
6627  6963  6331  0
6329  6632  6964  0
6329  6964  6962  0
6331  6963  6965  0
6331  6965  6332  0
6633  6966  6632  0
6967  6332  6965  0
6968  6969  6970  0
6971  6969  6968  0
6970  6640  6968  0
6970  6972  6640  0
6972  6641  6640  0
6968  6640  6639  0
6973  6971  6968  0
6968  6639  6973  0
6643  6973  6639  0
6641  6974  6642  0
6975  6636  6635  0
6637  6976  6334  0
6977  6334  6976  0
6978  6979  6023  0
6971  6973  6979  0
6642  6974  6644  0
6980  6644  6974  0
6981  6645  6646  0
6645  6981  6340  0
6647  6340  6981  0
6635  6648  6975  0
6982  6975  6648  0
6334  6977  6650  0
6023  6979  5724  0
6662  5724  6979  0
6979  6973  6662  0
6663  6662  6973  0
6973  6643  6663  0
6652  6663  6643  0
6648  6649  6982  0
6983  6982  6649  0
6984  6651  6650  0
5724  6662  6352  0
6655  6663  6652  0
6644  6980  6985  0
6986  6985  6980  0
6644  6985  6657  0
6987  6657  6985  0
6649  6654  6983  0
6661  6654  6348  0
6988  6350  6349  0
6350  6988  6351  0
6989  6351  6988  0
6657  6987  6664  0
6654  6661  6990  0
6991  6349  6651  0
6349  6991  6988  0
6987  6992  6664  0
6664  6992  6671  0
6668  6667  6993  0
6665  6994  6995  0
6665  6995  6669  0
6665  6996  6994  0
6357  6670  6661  0
6671  6992  6997  0
6671  6997  6998  0
6671  6998  6370  0
6370  6998  6999  0
6370  6999  6377  0
6667  6666  6677  0
6667  6677  6993  0
6993  6677  7000  0
6993  7000  7001  0
6995  6994  7002  0
6995  7002  6669  0
6677  6676  7003  0
6677  7003  7000  0
6669  7004  6373  0
6669  7002  7004  0
6673  6678  7005  0
6673  7005  6670  0
6676  6680  7006  0
6676  7006  7007  0
6676  7007  7003  0
6678  6685  7005  0
6687  7008  7009  0
6061  6681  6687  0
6373  7004  6684  0
6685  6686  7010  0
6692  6060  7009  0
6692  7009  7011  0
6692  7011  7012  0
6060  6687  7009  0
6680  6690  7013  0
6680  7013  7006  0
7012  6693  6692  0
6695  7014  6689  0
6684  7015  6389  0
7014  7016  6689  0
6689  7016  6690  0
6389  7015  6697  0
6691  6082  7017  0
6696  6700  7014  0
6696  7014  6695  0
6710  7017  6082  0
6391  7018  6394  0
6391  6698  7018  0
7019  6693  7012  0
6693  7019  6702  0
6711  6702  7019  0
6400  6711  6703  0
6705  7020  6706  0
7021  6700  7022  0
6700  6699  7022  0
7023  6399  6394  0
6394  7018  7023  0
7024  6712  6706  0
7025  6699  6707  0
6699  7025  7022  0
7026  7022  7025  0
6701  6713  6716  0
7027  6081  6399  0
6399  7023  7027  0
7028  6714  6712  0
6712  7024  7028  0
6715  7029  6707  0
7025  6707  7029  0
6081  7027  6407  0
6722  6407  7027  0
6093  6094  6709  0
7023  6709  6094  0
6714  7028  6717  0
7030  6717  7028  0
6414  7031  6413  0
7031  7032  6413  0
6718  6413  7032  0
6718  7033  6104  0
6719  6104  7033  0
6720  7034  6715  0
6715  7034  7029  0
7035  7029  7034  0
6713  6708  6721  0
6724  6722  7027  0
6722  6724  6723  0
6717  7030  6725  0
7036  6725  7030  0
7031  6414  7037  0
7038  7037  6414  0
6414  6110  7038  0
7039  7038  6110  0
6110  6417  7039  0
6726  7040  6417  0
6417  7040  7039  0
6726  6419  7041  0
6716  6713  6727  0
7042  6727  6713  0
7042  6713  6721  0
6725  7036  6731  0
7043  6731  7036  0
6419  6423  7044  0
6419  7044  7041  0
6423  7045  7044  0
6423  6732  7045  0
6732  7046  7045  0
6727  7042  6734  0
6728  6421  6729  0
6731  7043  7047  0
6731  7047  6735  0
6732  6733  7046  0
6733  7048  7046  0
6733  6734  7048  0
6734  7042  7049  0
6734  7049  7048  0
6425  6122  7050  0
6425  7050  7051  0
6729  6421  6428  0
6735  7047  7052  0
6729  6428  6738  0
6729  6738  7053  0
6735  7052  6736  0
6122  6742  7050  0
6434  6431  7054  0
6738  7055  7053  0
6738  6436  7055  0
6736  7056  6740  0
6736  6740  6737  0
6434  7054  6739  0
7055  6744  7057  0
7055  7057  7053  0
7055  6436  6744  0
6740  7058  6741  0
6740  7056  7058  0
6741  7058  7059  0
6741  7059  6746  0
6444  6752  6748  0
6744  6743  6749  0
6763  6744  6749  0
6746  7059  6745  0
6745  7059  7060  0
6745  7060  6750  0
7061  6752  6747  0
6748  6752  7062  0
6748  7062  6753  0
6754  6753  7063  0
6754  7063  6755  0
6755  7063  7064  0
6755  7064  7065  0
6755  7065  6450  0
6450  7065  7066  0
6450  7066  7067  0
6450  7067  6451  0
5849  6739  6763  0
6763  6749  6756  0
6757  7068  6758  0
7069  6758  7068  0
6750  7060  6760  0
7070  6760  7060  0
6760  7070  6768  0
6747  6762  7061  0
7071  7061  6762  0
6756  5847  6763  0
6765  6758  7069  0
7072  6765  7069  0
6759  6766  7073  0
7074  7073  6766  0
7075  6766  6767  0
7075  7074  6766  0
6767  6768  7075  0
7076  7075  6768  0
6768  7070  7076  0
6762  6772  7071  0
7077  7071  6772  0
5847  6756  6152  0
6462  6152  6756  0
7072  6771  6765  0
7075  7076  7078  0
6772  6773  7079  0
6772  7079  7077  0
6770  6771  6776  0
7080  6776  6771  0
6771  7072  7080  0
7081  6773  6774  0
6773  7081  7079  0
6776  7080  6777  0
7082  6777  7080  0
7080  7072  7083  0
7080  7083  7082  0
7084  7082  7083  0
7081  6774  6780  0
6782  6783  7085  0
6782  7085  7086  0
7087  7086  7085  0
6784  7085  6783  0
7085  6784  7088  0
6785  7088  6784  0
7085  7088  7087  0
7089  7090  6777  0
6785  6777  7090  0
6777  7082  7089  0
7084  7089  7082  0
6470  6787  6780  0
6780  7091  7081  0
6780  6787  7091  0
6476  7092  6792  0
6476  6781  7092  0
7093  7092  6781  0
6781  6782  7093  0
7086  7093  6782  0
6779  7094  6786  0
6788  6475  6791  0
6475  5889  6184  0
6790  6789  6793  0
6791  7095  6789  0
6791  7096  7095  0
6791  7097  7096  0
6791  6475  7097  0
6792  7098  6477  0
6793  6789  7099  0
6793  7099  6794  0
6789  7095  7099  0
6477  7098  5910  0
7100  6795  7101  0
7100  7102  6479  0
7100  6479  6795  0
7102  6796  6479  0
6805  7103  7101  0
6805  6804  6803  0
6805  6803  7103  0
7101  6795  6487  0
7101  6487  6805  0
6796  7104  7105  0
6796  7105  6797  0
6796  7102  7106  0
6796  7106  7104  0
6800  6482  6489  0
6485  7107  7108  0
6485  7108  6803  0
6485  6802  6809  0
6485  6809  7107  0
7104  7109  7110  0
7104  7106  7109  0
7104  7110  7111  0
7104  7111  7105  0
7105  7111  6807  0
7105  6807  6797  0
6808  7112  6809  0
6808  7113  7112  0
7114  7109  7115  0
7110  7116  7111  0
7111  7116  7117  0
7111  7117  6807  0
6807  7117  6814  0
6807  6814  6488  0
6817  7118  6818  0
6817  7119  7120  0
6817  7120  7118  0
6817  7121  7119  0
7118  7122  6821  0
7118  6821  6818  0
7118  7120  7123  0
7118  7123  7122  0
6811  7113  6808  0
7117  7124  6814  0
6814  7124  6813  0
6817  6819  7121  0
7125  7121  6819  0
6821  6828  6820  0
6821  7122  6828  0
6828  7122  7126  0
6828  7126  6829  0
6819  6826  7125  0
7127  7125  6826  0
7125  7127  7128  0
7129  7128  7127  0
6829  7130  6509  0
6833  6509  7130  0
7130  7131  6833  0
6504  6836  6810  0
6823  6831  7132  0
6826  6832  7127  0
7133  7127  6832  0
7127  7133  7129  0
7134  7129  7133  0
6833  7131  6835  0
7135  6835  7131  0
6835  7135  6836  0
7136  6837  6841  0
6837  7136  6831  0
6832  6838  7133  0
7137  7133  6838  0
7133  7137  7134  0
6852  7134  7137  0
6521  7138  6843  0
6846  7139  6522  0
6522  7139  6523  0
6850  6523  7139  0
6838  6532  7137  0
6852  7137  6532  0
6848  6520  6849  0
7140  6842  7141  0
6842  7140  6521  0
7138  6521  7140  0
7142  6843  7138  0
6843  7142  6844  0
7143  6844  7142  0
6844  7143  6845  0
7144  6845  7143  0
6845  7144  6846  0
7145  6846  7144  0
6846  7145  7139  0
6851  6531  7146  0
6854  7147  6853  0
6847  6848  7148  0
6847  7148  6854  0
6531  6533  7146  0
6533  6853  7146  0
6859  6539  7149  0
6539  6861  7150  0
6539  7150  7149  0
6861  7151  7150  0
6861  6862  7151  0
6857  6535  7152  0
6537  6865  6864  0
6865  6860  7153  0
6865  7153  7154  0
6860  6858  7155  0
6860  7155  7153  0
6858  6859  7156  0
6858  7156  7155  0
6859  7149  7157  0
6859  7157  7156  0
7150  7151  7158  0
7150  7158  7149  0
7151  6862  7159  0
7151  7159  7158  0
6862  6863  7160  0
6862  7160  7159  0
6866  7161  6867  0
6867  7161  7162  0
6867  7162  6868  0
6868  7163  6869  0
6868  7162  7163  0
6869  7164  6871  0
6871  7165  6881  0
6871  6881  6870  0
6871  7164  7166  0
6871  7166  7165  0
7165  6883  6881  0
7165  7166  7146  0
7165  7167  6882  0
7165  6882  6883  0
7165  7146  7167  0
7167  6873  6884  0
7167  6884  6882  0
7167  7146  7168  0
7167  7168  6873  0
6873  6557  6884  0
6873  7168  7169  0
6873  7169  6872  0
6872  7169  7170  0
6872  7170  6558  0
6558  7170  6875  0
6874  6875  7152  0
6874  6535  6876  0
6874  6876  6885  0
6874  7152  6535  0
6541  6542  7171  0
7172  7171  6542  0
6542  6864  7172  0
7173  7172  6864  0
6864  6865  7173  0
7154  7173  6865  0
6866  7174  7161  0
7162  7161  7174  0
6866  6879  7174  0
7175  7174  6879  0
6580  6250  6878  0
6879  6564  7175  0
7176  7175  6564  0
6887  7177  6895  0
7178  6895  7177  0
6887  6886  7177  0
7179  7177  6886  0
7180  7179  6886  0
6886  6888  7180  0
6888  6890  7180  0
6564  6569  7176  0
6892  7176  6569  0
6892  6893  7181  0
7182  7181  6893  0
6893  6894  7182  0
7183  7182  6894  0
7184  6900  6895  0
6574  6895  6900  0
7178  7184  6895  0
7185  6900  7184  0
6897  6579  6568  0
6894  6899  7183  0
7186  7183  6899  0
6899  6900  7186  0
7185  7186  6900  0
7187  6896  6579  0
6579  6897  7187  0
6911  6897  5966  0
6905  6580  7188  0
6903  6902  6907  0
6904  6588  6587  0
6905  7189  6906  0
6906  7190  6907  0
7191  6907  7190  0
6907  7191  6903  0
6903  7191  6904  0
6908  6904  7191  0
6904  6908  6588  0
6908  7192  6910  0
7193  6910  7192  0
6916  6910  7193  0
6916  7193  6925  0
7194  6925  7193  0
6927  7195  6598  0
6927  7196  7195  0
6927  7197  7196  0
7195  7198  6598  0
6598  7198  7199  0
6598  7199  6911  0
6913  7200  6917  0
6918  6594  6928  0
6918  6928  7201  0
6924  6925  7194  0
6924  7194  7202  0
6924  7202  6923  0
6599  6926  7203  0
6599  7203  6600  0
6600  7203  7197  0
6600  7197  6927  0
7201  6928  7204  0
6928  6929  7205  0
6928  7205  7204  0
6929  6930  6935  0
6929  6935  7205  0
6923  7202  7206  0
6923  7206  6931  0
6932  7207  6926  0
6934  6917  7208  0
6935  7209  7205  0
6935  6931  7209  0
6931  7206  7209  0
6944  6605  6937  0
6937  6938  7210  0
6937  7210  6944  0
6938  6939  7210  0
6939  6606  7211  0
6606  6940  7211  0
7212  6945  6941  0
7212  6941  6943  0
6934  7208  6607  0
6607  7208  7213  0
6607  7213  6614  0
6936  6944  7214  0
6936  7214  6933  0
6610  7215  6940  0
6611  6947  6942  0
6614  7213  7216  0
6614  7216  6615  0
7217  6610  6948  0
7217  7215  6610  0
6946  6945  7218  0
6947  6613  7219  0
6947  7219  7220  0
6613  6615  7216  0
6613  7216  7219  0
6948  7221  7217  0
6948  6949  7222  0
6948  7222  7221  0
6949  6950  7223  0
6949  7223  7222  0
6951  6620  7224  0
6951  7224  7225  0
6951  7225  6950  0
7226  7224  6620  0
6620  6619  7226  0
6946  7226  6619  0
6956  6954  6955  0
7227  6952  6953  0
6952  7227  6955  0
6623  6961  6953  0
7228  6953  6961  0
6953  7228  7229  0
6956  7230  6957  0
7231  6957  7230  0
6960  7232  6622  0
7233  6622  7232  0
6622  7233  6961  0
7234  6961  7233  0
6961  7234  7228  0
6957  7231  6625  0
6625  7231  6627  0
6963  6627  7231  0
7235  6959  6958  0
6958  6626  7236  0
6958  7236  7235  0
6626  6629  7236  0
7237  7236  6629  0
6629  6630  7237  0
6962  7237  6630  0
6630  6631  6962  0
7236  7237  7238  0
7239  7237  6962  0
7240  7239  6962  0
6962  6964  7240  0
7241  6632  6966  0
7242  7243  7244  0
7243  6969  7244  0
7245  7244  6969  0
7243  6970  6969  0
7243  7242  6970  0
7246  6970  7242  0
6970  7246  6972  0
6971  6967  6969  0
6967  7245  6969  0
6972  7247  6641  0
7248  6974  6641  0
7249  6974  7248  0
6636  7250  6637  0
6976  6637  7250  0
6636  6975  7250  0
6974  7249  7251  0
6974  7251  6980  0
7252  6975  6982  0
7252  7253  7250  0
7252  7250  6975  0
6345  7254  7255  0
6980  7251  6986  0
6650  6977  7256  0
6650  7256  6984  0
6351  7254  6345  0
6351  6989  7254  0
6985  6986  7257  0
6985  7257  6987  0
6983  6654  6990  0
6987  7257  7258  0
6987  7258  6992  0
6651  6984  6991  0
6989  6988  7259  0
6990  6661  7260  0
6991  7261  6988  0
6988  7261  7259  0
6992  7258  7262  0
6992  7262  6997  0
6997  7262  6998  0
7001  7000  7263  0
7001  7263  7264  0
6996  7265  7266  0
6996  7266  6994  0
6994  7266  7267  0
6994  7267  7002  0
6661  6670  7268  0
6661  7268  7260  0
6999  7269  6377  0
7000  7003  7270  0
7000  7270  7271  0
7000  7271  7263  0
7268  6670  7005  0
6377  7269  7272  0
6377  7272  6380  0
7003  7007  7273  0
7003  7273  7270  0
7005  7274  7268  0
6681  7275  6687  0
6681  6380  7272  0
6681  7272  7275  0
7007  7006  7276  0
7007  7276  7273  0
7005  7010  7274  0
7005  6685  7010  0
7010  6686  6691  0
7012  7011  7277  0
7278  7013  6690  0
7013  7278  7006  0
7279  7276  7006  0
6684  7280  7015  0
6690  7281  7278  0
7279  7006  7278  0
6700  7021  7014  0
7282  7014  7021  0
7014  7282  7016  0
7283  7016  7282  0
7016  7283  6690  0
7281  6690  7283  0
7284  7012  7277  0
7285  7283  7282  0
7012  7284  7019  0
7286  7019  7284  0
7019  6703  6711  0
7019  7286  6703  0
6703  7286  6704  0
7287  6704  7286  0
6704  7287  6705  0
7020  6705  7287  0
7021  7288  7282  0
7285  7282  7288  0
7289  6710  6709  0
6706  7020  7024  0
7290  7024  7020  0
7022  7026  7021  0
7291  7021  7026  0
7021  7291  7288  0
7292  7024  7290  0
7029  7035  7025  0
7025  7035  7026  0
6724  7027  7023  0
7028  7024  7030  0
7032  7293  6718  0
6719  7294  6720  0
6720  7294  7295  0
6720  7295  7034  0
7034  7296  7035  0
7035  7296  7297  0
7035  7297  7026  0
6724  7023  6094  0
7030  7024  7292  0
7030  7292  7298  0
7030  7298  7299  0
7030  7299  7036  0
6726  7041  7040  0
7036  7300  7043  0
7036  7299  7300  0
7300  7301  7043  0
7037  7038  7031  0
7038  7039  7302  0
7039  7303  7302  0
7039  7040  7304  0
7039  7304  7303  0
7040  7041  7305  0
7040  7305  7304  0
7044  7045  7306  0
7044  7306  7041  0
7042  7307  7049  0
7042  6721  7051  0
7042  7051  7307  0
6721  6425  7051  0
7043  7308  7047  0
7043  7301  7308  0
7048  7309  7046  0
7048  7049  7309  0
7049  7307  7309  0
7307  7310  7309  0
7051  7050  7307  0
7307  7050  7311  0
7307  7311  7310  0
6431  6729  7053  0
7052  7047  7308  0
7050  6742  7311  0
6431  7053  7054  0
6736  7052  7312  0
6736  7312  7056  0
7054  7053  7057  0
7313  7311  6742  0
7057  6739  7054  0
7056  7314  7058  0
7059  7058  7314  0
6742  6451  7313  0
6763  6739  7057  0
7057  6744  6763  0
7314  7315  7059  0
7060  7059  7316  0
7059  7315  7316  0
6752  7061  7062  0
7317  7062  7061  0
7062  7318  6753  0
7062  7317  7318  0
7319  7318  7317  0
6753  7318  7063  0
7313  6451  7067  0
7320  7321  7068  0
7068  7321  7069  0
7068  6757  7320  0
6757  6759  7320  0
7322  7320  6759  0
6759  7073  7322  0
7074  7322  7073  0
7323  7060  7316  0
7060  7323  7070  0
7324  7070  7323  0
7061  7071  7317  0
7325  7317  7071  0
7317  7325  7319  0
7326  7327  7328  0
7328  7329  7326  0
7330  7326  7329  0
7072  7069  7083  0
7083  7069  7331  0
7321  7331  7069  0
7074  7075  7332  0
7333  7332  7075  0
7070  7324  7076  0
7334  7076  7324  0
7071  7077  7325  0
7335  7328  7336  0
7328  7335  7329  0
7337  7338  7329  0
7329  7338  7330  0
7339  7338  7337  0
7075  7078  7333  0
7334  7078  7076  0
7335  7086  7329  0
7087  7329  7086  0
7329  7087  7337  0
7340  7337  7087  0
7341  7339  7337  0
7337  7340  7341  0
7089  7341  7340  0
7079  7081  7077  0
7342  7077  7081  0
7077  7342  7343  0
7344  7345  7336  0
7336  7345  7335  0
7086  7335  7345  0
7340  7087  7088  0
7340  7088  7090  0
7340  7090  7089  0
7081  7346  7342  0
7347  7092  7344  0
7344  7092  7093  0
7344  7093  7345  0
7345  7093  7086  0
7088  6785  7090  0
7091  7346  7081  0
7347  7098  6792  0
7347  6792  7092  0
6786  7348  6787  0
6787  7348  7349  0
6787  7349  7091  0
6475  6184  7097  0
7350  7351  7352  0
7350  7352  7094  0
7350  7353  7354  0
7350  7354  7351  0
6184  6185  7097  0
7353  7355  7356  0
7353  7356  7354  0
7355  6794  7357  0
7355  7357  7356  0
6794  7099  7357  0
7099  7095  7358  0
6185  6188  7097  0
7098  7359  5910  0
7360  7100  7101  0
7360  7101  7103  0
7360  7361  7100  0
7360  7103  7362  0
7360  7362  7361  0
7100  7361  7363  0
7100  7363  7102  0
6188  6800  7097  0
5910  7359  7364  0
7362  7103  6803  0
7362  6803  7108  0
7362  7108  7365  0
7366  7106  7102  0
7366  7367  7106  0
5910  7364  6801  0
7112  7107  6809  0
7112  7368  7369  0
7112  7369  7107  0
7107  7369  7108  0
7367  7115  7109  0
7367  7109  7106  0
7119  7370  7120  0
7119  7371  7370  0
7372  6800  6489  0
7368  7112  7113  0
7368  7113  7373  0
7374  7373  7113  0
7375  7115  7376  0
7119  7121  7371  0
7377  7371  7121  0
7120  7378  7123  0
7122  7123  7379  0
7122  7379  7380  0
7122  7380  7126  0
6489  6810  7372  0
6801  7381  6495  0
7382  6495  7381  0
6823  7383  7384  0
7374  7384  7383  0
7384  7113  6823  0
6811  6823  7113  0
7384  7374  7113  0
7385  7386  7387  0
7387  7386  7388  0
7389  7388  7386  0
7390  7387  7388  0
7386  7385  7375  0
7386  7375  7389  0
7121  7125  7377  0
7128  7377  7125  0
7377  7128  7391  0
7392  7391  7128  0
7130  6829  7126  0
7126  7393  7130  0
7131  7130  7393  0
7126  7380  7393  0
7135  7131  7393  0
6495  7382  6830  0
7383  6823  7132  0
7383  7132  7394  0
7395  7394  7132  0
7387  7396  7385  0
7387  7390  7396  0
7397  7396  7390  0
7128  7129  7398  0
7128  7398  7392  0
7399  7392  7398  0
7135  6810  6836  0
7135  7372  6810  0
7400  6830  7401  0
7402  7132  7136  0
6831  7136  7132  0
7395  7132  7402  0
7403  7402  7136  0
7129  7134  7398  0
7404  7398  7134  0
7398  7404  7399  0
7405  7399  7404  0
6839  6830  7400  0
7134  6852  6851  0
7134  6851  7404  0
7406  6839  7400  0
6839  7406  6840  0
6851  7407  7404  0
7408  7409  7410  0
7138  7411  7142  0
7143  7412  7413  0
7143  7413  7144  0
7143  7142  7414  0
7143  7414  7412  0
7145  7415  7139  0
6851  7146  7407  0
6848  6849  7148  0
6849  7416  7148  0
6849  6240  7416  0
7412  7414  7413  0
7146  6853  7168  0
6853  7147  7169  0
6853  7169  7168  0
7416  6240  6857  0
7147  7170  7169  0
7147  6854  7170  0
7416  6857  7152  0
7153  7155  7417  0
7418  7155  7156  0
7156  7157  7418  0
7419  7418  7157  0
7157  7149  7419  0
7420  7419  7149  0
7149  7158  7420  0
7421  7420  7158  0
7422  6869  7163  0
6869  7422  7164  0
7164  7422  7166  0
7166  7407  7146  0
7416  6875  7170  0
6875  7416  7152  0
7423  6877  6541  0
7171  7423  6541  0
7424  7171  7172  0
7173  7424  7172  0
7425  7173  7154  0
7154  7153  7425  0
7417  7425  7153  0
7158  7159  7421  0
7174  7426  7162  0
7427  7162  7426  0
7162  7427  7163  0
7428  7163  7427  0
7163  7428  7422  0
7424  7423  7171  0
7429  7424  7173  0
7174  7175  7430  0
7431  7430  7175  0
7177  7432  7178  0
7433  7432  7177  0
7177  7179  7433  0
7434  7433  7179  0
7180  6890  7435  0
6890  6889  7435  0
7436  6580  6878  0
7175  7176  7431  0
7176  6892  7431  0
7437  7431  6892  0
6892  7181  7437  0
7438  7437  7181  0
7181  7182  7438  0
7439  7438  7182  0
7182  7183  7439  0
7440  7439  7183  0
7184  7178  7441  0
7184  7441  7185  0
7442  7185  7441  0
6889  6896  7435  0
7188  6580  7436  0
7183  7186  7440  0
7443  7440  7186  0
7186  7185  7443  0
7442  7443  7185  0
6896  7187  7444  0
7199  7444  7187  0
7187  6897  6911  0
7445  6905  7188  0
6905  7445  7189  0
7445  7446  7189  0
7189  7447  7448  0
7189  7448  6906  0
7189  7446  7447  0
6906  7448  7449  0
6906  7449  7190  0
7190  7449  7450  0
7190  7450  7451  0
7190  7451  7191  0
7191  7451  7452  0
7191  7452  7192  0
7191  7192  6908  0
7449  7453  7450  0
7450  7453  7454  0
7450  7454  7451  0
7451  7454  7193  0
7451  7193  7452  0
7452  7193  7192  0
7448  7455  7449  0
7448  7447  7456  0
7448  7456  7455  0
7449  7455  7457  0
7449  7457  7453  0
7453  7457  7194  0
7453  7194  7454  0
7454  7194  7193  0
7458  7203  6926  0
7458  6926  7459  0
7458  7459  7460  0
7203  7196  7197  0
7203  7458  7196  0
6913  6912  7461  0
6913  7461  7200  0
6912  6592  7461  0
6592  6918  7461  0
6918  7201  7462  0
7455  7456  7463  0
7455  7463  7457  0
7457  7202  7194  0
7457  7463  7464  0
7457  7464  7202  0
7207  7459  6926  0
7207  7465  7459  0
7201  7204  7466  0
7201  7466  7462  0
7204  7205  7467  0
7202  7464  7468  0
7202  7468  7206  0
6932  6933  7214  0
6932  7214  7207  0
7207  7214  7465  0
7469  7210  6939  0
7469  6939  7470  0
7469  7470  7471  0
7469  7471  7210  0
6939  7211  7472  0
6939  7472  7470  0
7200  7473  7208  0
7200  7208  6917  0
7200  7474  7473  0
7467  7475  7204  0
7205  7209  7476  0
7205  7476  7467  0
7209  7206  7476  0
7214  6944  7465  0
6944  7210  7477  0
6944  7477  7465  0
6940  7215  7211  0
6943  7478  7212  0
6943  6942  7479  0
7208  7473  7213  0
7467  7476  7475  0
7480  7476  7206  0
6945  7212  7481  0
7212  7478  7481  0
6942  6947  7482  0
7220  7482  6947  0
7213  7483  7216  0
7217  7484  7215  0
7219  7482  7220  0
7219  7216  7483  0
7221  7485  7484  0
7486  7485  7221  0
7221  7484  7217  0
6946  7218  7226  0
7218  7487  7226  0
7221  7222  7486  0
7488  7486  7222  0
7489  7225  7224  0
7490  6950  7225  0
7224  7226  7489  0
7487  7489  7226  0
7222  7223  7488  0
7223  6950  7491  0
7490  7491  6950  0
7492  6955  7227  0
7493  6955  7492  0
6955  7493  6956  0
7494  6956  7493  0
6953  7229  7227  0
7227  7229  7495  0
7496  7495  7229  0
6956  7494  7230  0
7229  7228  7496  0
7497  7496  7228  0
7498  7230  7494  0
7230  7498  7231  0
7499  7500  7501  0
7502  7501  7500  0
7500  7503  7502  0
7504  7503  7505  0
7506  7232  6960  0
7232  7506  7233  0
7234  7233  7506  0
7234  7507  7228  0
7497  7228  7507  0
