#!ascii file
24482  24912  24484  0
24687  24688  24911  0
24484  24913  24689  0
24483  24914  24688  0
24483  24485  24915  0
24483  24915  24914  0
24692  24916  24690  0
24690  24916  24696  0
24485  24693  24915  0
24692  24695  24917  0
24918  24696  24916  0
24693  24697  24919  0
24695  24698  24920  0
24695  24920  24917  0
24696  24918  24699  0
24921  24699  24918  0
24497  24491  24694  0
24698  24492  24922  0
24698  24922  24921  0
24698  24921  24920  0
24922  24492  24923  0
24922  24923  24699  0
24922  24699  24921  0
24699  24923  24701  0
24699  24701  24700  0
24697  24496  24703  0
24697  24703  24924  0
24697  24924  24919  0
24924  24703  24925  0
24492  24705  24923  0
24923  24705  24702  0
24923  24702  24701  0
24705  24704  24702  0
24703  24926  24925  0
24500  24927  24706  0
24500  24707  24928  0
24500  24928  24927  0
24929  24279  24502  0
24703  24504  24926  0
24930  24926  24504  0
24926  24930  24931  0
24707  24709  24932  0
24933  24932  24709  0
24279  24929  24506  0
24934  24931  24930  0
24706  24927  24713  0
24935  24713  24927  0
24711  24933  24709  0
24936  24715  24282  0
24282  24275  24936  0
24276  24936  24275  0
24276  24512  24936  0
24512  24506  24937  0
24929  24937  24506  0
24504  24712  24930  0
24930  24712  24934  0
24938  24934  24712  0
24934  24938  24939  0
24940  24939  24938  0
24934  24939  24941  0
24939  24940  24714  0
24518  24714  24940  0
24942  24939  24714  0
24714  24713  24942  0
24935  24942  24713  0
24711  24511  24943  0
24511  24715  24943  0
24715  24936  24944  0
24517  24718  24716  0
24938  24712  24716  0
24938  24945  24940  0
24719  24940  24945  0
24940  24719  24518  0
24723  24718  24522  0
24718  24723  24716  0
24946  24716  24723  0
24716  24946  24938  0
24938  24946  24945  0
24725  24945  24946  0
24945  24725  24719  0
24723  24724  24946  0
24728  24946  24724  0
24947  24946  24728  0
24946  24947  24725  0
24729  24725  24947  0
24726  24948  24949  0
24726  24949  24720  0
24726  24727  24948  0
24950  24948  24727  0
24720  24949  24951  0
24720  24951  24721  0
24721  24951  24952  0
24721  24952  24525  0
24525  24952  24722  0
24953  24729  24947  0
24729  24953  24730  0
24727  24731  24950  0
24954  24950  24731  0
24728  24733  24947  0
24955  24947  24733  0
24947  24955  24953  0
24731  24734  24954  0
24956  24954  24734  0
24957  24730  24953  0
24730  24957  24735  0
24734  24736  24956  0
24740  24956  24736  0
24538  24958  24737  0
24535  24539  24733  0
24955  24959  24953  0
24953  24959  24957  0
24735  24957  24739  0
24742  24960  24740  0
24960  24742  24961  0
24741  24738  24962  0
24963  24306  24305  0
24306  24963  24539  0
24539  24964  24733  0
24733  24964  24955  0
24739  24957  24965  0
24305  24741  24966  0
24305  24966  24963  0
24539  24963  24964  0
24739  24965  24743  0
24744  24745  24967  0
24968  24967  24745  0
24745  24746  24968  0
24969  24968  24746  0
24542  24743  24970  0
24542  24970  24747  0
24746  24544  24969  0
24971  24969  24544  0
24747  24970  24972  0
24747  24972  24748  0
24973  24748  24972  0
24748  24973  24548  0
24749  24974  24545  0
24545  24974  24971  0
24545  24971  24544  0
24972  24975  24973  0
24750  24976  24977  0
24750  24551  24976  0
24750  24977  24749  0
24749  24977  24974  0
24973  24978  24751  0
24973  24751  24548  0
24551  24555  24979  0
24551  24979  24976  0
24754  24558  24759  0
24754  24980  24753  0
24751  24978  24755  0
24759  24560  24981  0
24759  24981  24754  0
24758  24765  24757  0
24328  24559  24982  0
24560  24766  24981  0
24762  24983  24330  0
24764  24769  24984  0
24764  24984  24763  0
24765  24758  24985  0
24765  24985  24772  0
24768  24330  24983  0
24769  24770  24986  0
24770  24772  24985  0
24770  24985  24987  0
24772  24773  24765  0
24566  24768  24988  0
24565  24569  24777  0
24566  24988  24776  0
24774  24775  24989  0
24568  24565  24990  0
24565  24777  24990  0
24776  24991  24992  0
24776  24992  24777  0
24570  24571  24993  0
24570  24993  24775  0
24775  24993  24989  0
24778  24568  24994  0
24568  24990  24994  0
24990  24995  24994  0
24990  24777  24992  0
24990  24992  24995  0
24573  24779  24996  0
24573  24996  24780  0
24780  24996  24997  0
24571  24780  24993  0
24998  24994  24995  0
24779  24350  24781  0
24779  24781  24996  0
24996  24781  24999  0
24996  24999  24997  0
24778  24994  25000  0
24778  25000  24576  0
24994  24998  25000  0
24786  24784  24783  0
24786  25001  24784  0
25002  24784  25001  0
24784  25002  25003  0
25004  25003  25002  0
25003  24789  24784  0
25003  25004  24789  0
25005  24789  25004  0
25006  24789  25005  0
24781  24577  24999  0
24577  24782  25007  0
24577  25007  24999  0
24782  24575  25008  0
24782  25008  25007  0
24575  24576  25009  0
24575  25009  25008  0
24576  25000  25009  0
25010  25011  25012  0
25010  25013  25011  0
24786  25012  25011  0
25012  24786  24785  0
24789  25006  24787  0
25014  24787  25006  0
25010  25012  25015  0
25012  24785  25015  0
24785  24790  25016  0
24785  25016  25015  0
24787  25014  24788  0
24790  24788  25014  0
24792  25017  24793  0
25018  24793  25017  0
24582  24794  24791  0
24791  24794  25019  0
25020  24793  25018  0
25021  24798  25022  0
24798  25023  24797  0
24798  25021  25023  0
25024  25023  25021  0
25023  24799  24797  0
25023  25024  24799  0
25025  24799  25024  0
24794  24583  24802  0
24794  24802  25026  0
24793  25020  24795  0
24795  25020  24803  0
25027  24803  25020  0
25027  25028  24587  0
25027  24587  24803  0
25028  25029  24587  0
25029  24798  24796  0
25029  24796  24587  0
25029  25022  24798  0
24799  25030  24804  0
24799  24804  24588  0
24799  25025  25030  0
24585  25031  24800  0
25032  24800  25031  0
25033  24800  25032  0
24800  25033  24801  0
25034  24801  25033  0
24801  25034  24590  0
24802  24586  24805  0
24802  24805  25026  0
24805  25035  25026  0
24806  25035  24805  0
25031  24140  24589  0
24140  25031  24585  0
25034  25036  24590  0
24590  25036  24807  0
25037  24596  24808  0
24592  24809  24810  0
24812  24594  24810  0
25038  24806  24814  0
24596  25037  24811  0
25039  24811  25037  0
24809  25040  24810  0
24809  24593  25040  0
25041  25040  24593  0
24600  24599  24813  0
25042  25038  24814  0
24811  25039  24598  0
24817  24598  25039  0
24593  24815  25041  0
25043  25041  24815  0
24814  24816  25042  0
25042  24816  25044  0
24817  25045  24379  0
24815  24601  25043  0
24818  25043  24601  0
24600  25046  24602  0
24816  25047  25044  0
24379  25045  24604  0
24605  24604  25045  0
24602  25046  24158  0
25048  24158  25046  0
24158  25048  24384  0
24816  24603  25047  0
24608  24607  24606  0
24605  24819  24156  0
25049  24818  24820  0
25050  25049  24820  0
24384  25048  24613  0
24603  24609  25047  0
24822  25047  24609  0
25051  24821  24607  0
24613  25048  24823  0
24823  25048  25052  0
25053  25050  24820  0
24823  25054  24824  0
24611  24616  24822  0
24616  25055  25056  0
24616  25056  24822  0
24826  25055  24616  0
24820  24825  25053  0
25057  25053  24825  0
25058  25053  25057  0
24615  24824  24826  0
24614  24827  24825  0
25059  24825  24827  0
24825  25059  25057  0
25060  25058  25057  0
25058  25060  25061  0
24828  25062  24827  0
24827  25062  25063  0
24827  25063  25059  0
25064  25057  25059  0
25057  25064  25060  0
24834  24832  25065  0
25065  25066  25067  0
25065  24832  25066  0
25065  25067  25068  0
25065  25068  24834  0
24830  25069  24828  0
24828  25070  25062  0
24828  25069  25070  0
25059  25063  25071  0
25059  25071  25064  0
25064  25071  25072  0
25064  25073  25060  0
24832  24833  25066  0
25074  25066  24833  0
24627  24837  24628  0
24627  24834  25068  0
24627  25068  24837  0
25069  24830  25075  0
24838  25075  24830  0
25073  25076  25060  0
24833  24844  25074  0
25077  24836  25078  0
25078  25075  25077  0
25075  24838  25077  0
24846  25077  24838  0
24175  24835  25079  0
24175  25079  24630  0
24630  25079  25080  0
24840  24841  25081  0
24840  25081  24839  0
24839  25081  25082  0
24839  25082  24842  0
24844  24845  25083  0
25084  25083  24845  0
25083  25084  25085  0
24851  24836  25077  0
25077  24846  24851  0
24632  24851  24846  0
24629  24630  25086  0
24629  25086  24847  0
24624  24847  24841  0
24626  24842  24848  0
25087  25084  24845  0
24852  24848  25088  0
25084  25087  25089  0
25084  25089  25090  0
24634  24856  25091  0
24634  25091  24854  0
24854  25091  24857  0
24855  24857  25092  0
24855  25092  25093  0
24855  25093  24845  0
24845  25093  25094  0
24845  25094  25087  0
25087  25094  25095  0
25087  25095  25089  0
25096  24858  24853  0
25096  24853  24852  0
25097  24856  24859  0
25097  24859  25098  0
25097  25099  24856  0
25097  25098  25099  0
24856  25099  25091  0
25091  25100  24857  0
24857  25100  25092  0
25094  25093  25095  0
25098  25101  25099  0
24859  24637  24863  0
24859  24863  25098  0
24860  25102  24638  0
24638  25102  25103  0
24638  25103  24639  0
24639  25103  24862  0
25098  24863  25101  0
25103  25104  24862  0
24861  24862  25105  0
24861  25105  24641  0
25101  24863  24864  0
25101  24864  25106  0
24641  25105  24643  0
25106  24864  24865  0
25107  25108  25109  0
25107  25109  24867  0
25107  24867  24650  0
25107  24650  24871  0
25107  24871  25110  0
25107  25110  25108  0
24868  24645  24866  0
25111  24865  24649  0
25111  24649  24869  0
25111  24869  25112  0
25113  24870  25114  0
25114  24870  24428  0
25114  24428  24867  0
25114  24867  25109  0
24871  24653  25115  0
24871  25115  25110  0
25115  24653  25116  0
24869  24651  25117  0
24869  25117  25112  0
24873  25118  24872  0
24873  25113  25118  0
25113  24873  24870  0
24653  24654  25116  0
25116  24654  25119  0
25120  24647  24646  0
24651  25121  25117  0
24651  24872  25121  0
24654  24655  25119  0
24647  25120  24874  0
24655  24657  25122  0
24875  25123  24876  0
25124  24876  25123  0
24876  25124  24435  0
25122  24657  24658  0
24658  24439  25125  0
24877  24219  25126  0
25125  24439  24877  0
24880  25127  24660  0
25128  24660  25127  0
24660  25128  24882  0
24879  24659  24883  0
24003  24878  24889  0
24881  25129  25130  0
24881  25130  24880  0
25130  25129  25131  0
24886  25132  24885  0
24881  24887  25133  0
24881  25133  25129  0
24891  24450  24665  0
24891  24665  25134  0
25133  24887  25135  0
24888  24669  25136  0
24888  25136  25137  0
24887  24893  25135  0
25138  24894  24891  0
25136  24669  24897  0
25139  24456  24890  0
24893  24895  25135  0
25140  24896  24894  0
25135  24895  25141  0
25142  25141  24895  0
25143  24898  24896  0
24903  24897  24673  0
25142  24895  24899  0
25144  24900  24898  0
25145  24902  24900  0
24899  24679  25146  0
24899  25146  25142  0
25146  24679  25147  0
24683  25147  24679  0
25148  25146  25147  0
25147  24683  24684  0
25147  24684  25148  0
25149  25148  24684  0
24684  24902  25149  0
25145  25149  24902  0
24682  24467  24904  0
25150  24903  24905  0
24903  25150  25151  0
24475  24907  24905  0
24905  24907  25150  0
24906  25152  24908  0
24907  25153  25150  0
24685  24908  24909  0
24907  24910  25153  0
25154  25150  25153  0
24686  24911  24910  0
24910  24911  25153  0
25154  25153  24911  0
24482  24909  24912  0
24914  24911  24688  0
24911  24914  25154  0
24914  24915  25155  0
25156  25155  24915  0
25157  25156  24915  0
24915  24693  25157  0
25158  25157  24693  0
24689  25159  24694  0
24692  24917  24916  0
24918  24916  24917  0
24693  24919  25158  0
24921  24917  24920  0
24917  24921  24918  0
24919  24924  25158  0
25160  25158  24924  0
24694  25159  24497  0
24924  24925  25160  0
25161  25160  24925  0
24925  24926  25161  0
24931  25161  24926  0
25161  24931  25162  0
25163  24927  24928  0
24928  24707  25163  0
24707  24932  25163  0
24502  25164  24929  0
24941  24931  24934  0
24927  25163  24935  0
25163  24932  24935  0
24933  24935  24932  0
24941  24939  24942  0
25165  24941  24942  0
24935  24933  25166  0
25167  25166  24933  0
24933  24711  25167  0
24936  24512  25168  0
24512  24937  25168  0
24942  24935  25165  0
24943  24715  25169  0
24715  24944  25169  0
24944  24936  25170  0
25168  25170  24936  0
24948  25171  25172  0
24948  25172  24949  0
24948  24950  25171  0
25173  25171  24950  0
24949  25172  25174  0
24949  25174  24951  0
24952  24951  25175  0
24952  24532  24722  0
24952  25175  24532  0
24950  24954  25173  0
24954  24956  25176  0
24954  25176  25173  0
25176  24956  24960  0
25176  24960  25177  0
24538  24732  25178  0
24538  25178  24958  0
24956  24740  24960  0
24960  24961  25179  0
24960  25179  25177  0
25179  25180  25177  0
24961  24742  24744  0
24961  24744  25179  0
25179  24744  24967  0
25179  24967  25181  0
25179  25181  25182  0
24738  24737  25183  0
24738  25183  24962  0
24964  25184  24955  0
24955  25184  24959  0
24959  25185  24957  0
24957  25185  24965  0
24966  25186  24963  0
24963  25186  24964  0
24964  25186  25187  0
24964  25187  25184  0
25185  24959  25188  0
25185  25189  24965  0
25185  25188  25189  0
24965  25189  24743  0
25189  25190  24970  0
25189  24970  24743  0
25191  24970  25190  0
24970  24975  24972  0
24970  25191  24975  0
24974  25192  24971  0
24974  25193  25192  0
24977  25194  24974  0
25193  24974  25194  0
25195  24975  25196  0
24975  25195  24978  0
24975  24978  24973  0
25197  24556  24752  0
24557  25198  24752  0
24557  24753  25198  0
24980  25199  24753  0
25195  25200  24978  0
24978  25201  25202  0
24978  25200  25201  0
24978  25202  24755  0
24559  24556  25203  0
24556  25197  25203  0
24754  24981  25204  0
24754  25204  24980  0
25202  25205  24758  0
25202  24758  24755  0
25202  25201  25205  0
25206  25205  25201  0
24555  24327  24979  0
24327  24328  25207  0
24327  25207  24979  0
24328  24982  25208  0
24328  25208  25207  0
25204  24981  25209  0
24762  24763  25210  0
24763  24984  25210  0
25205  24987  24985  0
25205  24985  24758  0
25205  25206  24987  0
24981  24766  25209  0
24762  25210  24983  0
24984  24769  24986  0
24984  24986  25211  0
24984  25211  25210  0
24986  25212  25211  0
24986  24770  25212  0
24988  25213  24776  0
24991  24776  25213  0
24774  24989  25214  0
24774  25214  24767  0
24989  24993  25215  0
24995  24992  25216  0
24992  25217  25216  0
24992  24991  25218  0
24992  25218  25217  0
24780  24997  25219  0
24780  25219  24993  0
24993  25219  25215  0
24995  25216  24998  0
25216  25217  25001  0
25217  25002  25001  0
25217  25218  25004  0
25217  25004  25002  0
25218  25220  25004  0
25221  25004  25220  0
25222  24997  24999  0
25000  24998  25223  0
25011  25223  24998  0
24998  25216  25011  0
25216  25001  25011  0
24786  25011  25001  0
25004  25221  25005  0
25006  25005  25221  0
24999  25007  25222  0
25224  25222  25007  0
25000  25223  25009  0
25013  25009  25223  0
25223  25011  25013  0
25007  25008  25224  0
25225  25224  25008  0
25008  25009  25225  0
25009  25013  25225  0
25226  25225  25013  0
25013  25010  25226  0
25010  25015  25226  0
25016  24790  25014  0
25227  25228  25229  0
25230  25227  25229  0
25228  25227  25231  0
25227  25230  25232  0
24792  24791  25233  0
25019  25233  24791  0
25233  25017  24792  0
25228  25231  25234  0
25228  25234  25235  0
25021  25231  25227  0
25227  25232  25021  0
25017  25236  25018  0
25018  25236  25237  0
25022  25238  25234  0
25234  25231  25022  0
25021  25022  25231  0
25021  25232  25024  0
25239  25024  25232  0
25240  25019  24794  0
24794  25026  25240  0
25018  25237  25020  0
25237  25241  25020  0
25027  25020  25241  0
25028  25027  25241  0
25241  25242  25028  0
25029  25028  25242  0
25242  25238  25029  0
25022  25029  25238  0
25024  25239  25025  0
25025  25239  25030  0
25243  25030  25239  0
25030  25244  24804  0
24589  24804  25244  0
25030  25243  25244  0
24589  25244  25245  0
24589  25245  25031  0
25031  25245  25032  0
25032  25246  25033  0
25033  25036  25034  0
25033  25246  25247  0
25033  25247  25036  0
25035  24806  25248  0
25249  25248  24806  0
25038  25249  24806  0
24808  24807  25250  0
24808  25250  25251  0
24808  25251  25037  0
25036  25250  24807  0
25251  25252  25037  0
25037  25252  25039  0
25040  25041  25253  0
25040  25253  24810  0
24810  25253  25254  0
24810  25254  24812  0
24812  25254  25255  0
24812  25255  24813  0
24813  25255  24600  0
24817  25039  25256  0
25041  25043  25257  0
24600  25258  25046  0
25045  24817  25259  0
25043  24818  25260  0
25049  25260  24818  0
25046  25258  25261  0
25046  25261  25048  0
25044  25047  25262  0
25045  25259  24605  0
25263  25262  25047  0
24607  24608  25264  0
24607  25264  25051  0
24608  24819  25265  0
24819  24605  25266  0
25049  25050  25267  0
25048  25268  25052  0
25263  25047  24822  0
25058  25267  25050  0
25267  25058  25269  0
25270  25269  25058  0
25052  25054  24823  0
25263  24822  25056  0
25050  25053  25058  0
25058  25061  25270  0
25054  25271  24824  0
24826  24824  25271  0
25271  25055  24826  0
24619  24821  25272  0
25061  25273  25274  0
25061  25274  25270  0
24619  25272  25275  0
24619  25275  24618  0
25276  25277  25278  0
25276  25279  25277  0
25276  25280  25279  0
25277  25281  25278  0
25277  25279  25282  0
25061  25060  25283  0
25061  25283  25273  0
25280  25276  25068  0
25280  25068  25067  0
25280  25067  25284  0
25280  25284  25285  0
25276  25278  25068  0
25281  25286  25287  0
25281  25277  25288  0
25281  25288  25286  0
25286  25289  25290  0
25286  25290  25287  0
25286  25288  25289  0
25289  25291  25070  0
25289  25070  25290  0
25062  25292  25063  0
25283  25293  25273  0
25283  25294  25293  0
25067  25066  25295  0
25067  25295  25284  0
25278  25281  24837  0
25278  24837  25068  0
25281  25287  25078  0
25281  25078  24837  0
25287  25290  25075  0
25287  25075  25078  0
25290  25070  25069  0
25290  25069  25075  0
25062  25070  25296  0
25062  25296  25292  0
25063  25292  25071  0
25060  25076  25283  0
25283  25076  25297  0
25283  25297  25294  0
25066  25074  25295  0
24837  25078  24836  0
25292  25296  25298  0
25292  25298  25071  0
25072  25071  25299  0
25064  25072  25300  0
25064  25300  25073  0
25073  25300  25076  0
25074  24844  25083  0
25074  25083  25085  0
25074  25085  25301  0
25074  25301  25295  0
25085  25302  25301  0
25300  25072  25303  0
25300  25304  25076  0
24841  25305  25081  0
25082  24848  24842  0
25085  25084  25090  0
25085  25090  25302  0
25302  25090  25306  0
25307  24630  25080  0
24630  25307  25086  0
25308  24847  25086  0
24847  25308  24841  0
25305  24841  25308  0
25090  25089  25309  0
25090  25309  25310  0
25090  25310  25306  0
25088  25311  24852  0
25312  24852  25311  0
25096  24852  25312  0
25099  25313  25091  0
25091  25313  25100  0
25089  25095  25314  0
25089  25314  25309  0
25309  25314  25315  0
25309  25315  25316  0
25309  25316  25310  0
25317  24858  25096  0
25318  25100  25313  0
25100  25318  25319  0
25100  25319  25092  0
25092  25319  25320  0
25092  25320  25093  0
25093  25320  25321  0
25093  25321  25095  0
25095  25321  25322  0
25095  25322  25314  0
24858  25323  24860  0
24858  25317  25323  0
25101  25324  25325  0
25101  25325  25099  0
25326  25319  25318  0
25327  25319  25326  0
25319  25327  25320  0
25314  25322  25108  0
25314  25108  25315  0
25315  25108  25110  0
25315  25328  25316  0
25104  25105  24862  0
25324  25101  25106  0
25327  25329  25330  0
25327  25330  25320  0
25320  25330  25321  0
25321  25330  25109  0
25321  25109  25108  0
25321  25108  25322  0
25315  25110  25115  0
25315  25115  25328  0
24860  25331  25102  0
25103  25102  25331  0
25332  25105  25104  0
25105  25332  24643  0
25333  24643  25332  0
25324  25106  24865  0
25324  24865  25111  0
25324  25111  25325  0
25112  25325  25111  0
25329  25114  25330  0
25109  25330  25114  0
25115  25116  25328  0
25334  25328  25116  0
25335  25334  25116  0
25333  24866  24643  0
25118  25113  25329  0
25329  25113  25114  0
25116  25119  25335  0
25336  24646  24868  0
25118  25121  24872  0
24646  25336  25120  0
25337  25119  24655  0
24655  25122  25338  0
25339  25338  25122  0
25120  25340  24874  0
25341  24874  25340  0
24875  24874  25341  0
25123  25342  25124  0
25343  25124  25342  0
25124  25343  24435  0
24658  25344  25122  0
25345  25122  25344  0
24658  25125  25344  0
25122  25345  25339  0
25344  25125  25346  0
24877  25346  25125  0
25128  25127  25347  0
25348  25347  25127  0
24441  25126  24219  0
24441  24879  25126  0
25349  25126  24879  0
25126  25350  24877  0
25130  25127  24880  0
25127  25130  25348  0
25351  24882  25128  0
24882  25351  24883  0
24879  24883  25351  0
25130  25131  25348  0
25352  25131  25129  0
25353  25134  24665  0
24665  24884  25353  0
25354  24884  24885  0
24885  25132  25354  0
25355  25352  25129  0
24891  25134  25138  0
24886  24888  25356  0
25137  25356  24888  0
24886  25356  25132  0
24889  25357  24890  0
25129  25133  25355  0
25141  25355  25133  0
25358  25355  25141  0
25355  25358  25359  0
25360  25137  25136  0
25133  25135  25141  0
24894  25138  25361  0
24894  25361  25140  0
24890  25357  25139  0
25362  25358  25141  0
24896  25140  25143  0
25363  25136  24897  0
25136  25363  25360  0
25364  25360  25363  0
25362  25141  25142  0
24898  25143  25144  0
25365  25144  25143  0
24897  24903  25363  0
24456  25139  25366  0
24456  25366  24901  0
25367  25362  25142  0
24900  25144  25368  0
25144  25365  25368  0
25369  25368  25365  0
25370  25364  25363  0
24901  25366  24676  0
25142  25146  25367  0
25148  25367  25146  0
24900  25368  25145  0
25371  25145  25368  0
25368  25369  25372  0
25368  25372  25373  0
25368  25373  25371  0
24676  25366  25374  0
24676  25374  24904  0
25375  25149  25145  0
25145  25371  25375  0
25376  25375  25371  0
25373  25376  25371  0
25377  25363  24903  0
25363  25377  25370  0
24903  25151  25377  0
24904  25378  24906  0
25151  25379  25380  0
25151  25380  25377  0
25151  25150  25379  0
25150  25381  25379  0
24908  25152  24909  0
25150  25154  25382  0
25150  25382  25381  0
25154  24914  25383  0
25154  25383  25382  0
24912  24913  24484  0
24914  25155  25383  0
24912  25384  24913  0
24913  25384  25385  0
24913  25385  24689  0
25156  25157  25386  0
25157  25158  25387  0
25157  25387  25386  0
24689  25385  25159  0
25158  25160  25388  0
25161  25162  25389  0
25161  25389  25160  0
24502  24497  25164  0
24497  25390  25164  0
24931  24941  25391  0
24931  25391  25162  0
24941  25165  25391  0
25165  24935  25392  0
25392  24935  25166  0
25166  25167  25393  0
25166  25393  25392  0
25167  24711  25394  0
25167  25394  25393  0
24711  25395  25394  0
24711  24943  25396  0
24711  25396  25395  0
24943  25169  25396  0
25169  25397  25396  0
25169  25398  25397  0
25169  24944  25398  0
24944  25170  25398  0
25170  25168  25399  0
25168  24937  25399  0
25400  25401  25172  0
25400  25172  25171  0
25400  25402  25401  0
25400  25171  25403  0
25401  25174  25172  0
25171  25173  25404  0
25171  25404  25403  0
25174  25401  25405  0
25174  25405  24951  0
24951  25405  25175  0
25173  25406  25404  0
25173  25176  25177  0
25175  25407  24532  0
24532  25407  24732  0
25177  25180  25408  0
25177  25408  25173  0
25178  24732  25407  0
25409  24958  25178  0
25180  25179  25182  0
25182  25181  25410  0
25182  25410  25411  0
25182  25411  25180  0
24958  25409  24737  0
25412  24737  25409  0
24737  25412  25183  0
25181  24967  25413  0
25181  25413  25410  0
25184  25187  25188  0
25184  25188  24959  0
24967  24968  25413  0
25414  24741  24962  0
24741  25414  24966  0
25415  25186  24966  0
25186  25415  25187  0
25187  25416  25188  0
25188  25416  25189  0
24968  24969  25417  0
24968  25417  25413  0
25416  25187  25415  0
25189  25416  25190  0
25417  25418  25413  0
25416  25419  25190  0
24969  24971  25417  0
25420  25417  24971  0
25419  25191  25190  0
25419  25421  25191  0
25422  25191  25421  0
25420  24971  25192  0
25423  25192  25193  0
25424  25191  25422  0
25191  25196  24975  0
25191  25424  25196  0
24977  24976  25194  0
25425  25194  24976  0
25426  25193  25194  0
25423  25193  25426  0
25427  25196  25424  0
25196  25427  25195  0
25200  25195  25427  0
25428  25197  24752  0
24752  25198  25428  0
25429  25428  25198  0
25198  24753  25429  0
25430  25429  24753  0
24753  25199  25430  0
25431  25199  24980  0
25432  25200  25427  0
24976  24979  25425  0
25425  24979  25433  0
24559  25203  24982  0
24980  25204  25431  0
25434  25431  25204  0
25200  25432  25201  0
25435  25201  25432  0
25436  25208  24982  0
24982  25203  25436  0
25437  25436  25203  0
25204  25209  25434  0
25438  25434  25209  0
25201  25435  25206  0
25439  25206  25435  0
25440  25209  24766  0
25209  25440  25438  0
25441  24768  24983  0
24983  25210  25441  0
25206  25212  24987  0
24770  24987  25212  0
25206  25439  25212  0
25442  25212  25439  0
24766  24767  25440  0
25443  25440  24767  0
25444  24988  24768  0
24768  25441  25444  0
25445  25441  25210  0
25210  25211  25445  0
25442  25211  25212  0
25446  24991  25213  0
24767  25214  25443  0
25447  25443  25214  0
24991  25446  25218  0
25220  25218  25446  0
24989  25215  25214  0
25447  25214  25215  0
25219  25448  25215  0
25215  25448  25447  0
25449  25447  25448  0
25220  25450  25221  0
25451  25221  25450  0
24997  25222  25219  0
25219  25452  25448  0
25219  25222  25452  0
25453  25452  25222  0
25221  25454  25006  0
25014  25006  25454  0
25221  25451  25454  0
25455  25454  25451  0
25222  25224  25453  0
25456  25453  25224  0
25224  25225  25457  0
25224  25457  25456  0
25226  25457  25225  0
25458  25459  25457  0
25460  25458  25457  0
25457  25226  25461  0
25015  25461  25226  0
25457  25461  25460  0
25462  25460  25461  0
25461  25015  25463  0
25016  25463  25015  0
25461  25463  25462  0
25464  25462  25463  0
25463  25016  25454  0
25014  25454  25016  0
25463  25454  25464  0
25455  25464  25454  0
25465  25230  25229  0
25233  25466  25017  0
25236  25017  25466  0
25233  25467  25466  0
25468  25466  25467  0
25469  25236  25466  0
25228  25470  25229  0
25228  25235  25470  0
25229  25470  25465  0
25230  25471  25232  0
25230  25465  25472  0
25230  25472  25471  0
25236  25469  25237  0
25473  25237  25469  0
25469  25474  25473  0
25469  25475  25474  0
25476  25473  25474  0
25474  25477  25476  0
25476  25235  25234  0
25476  25477  25470  0
25476  25470  25235  0
25232  25471  25239  0
25237  25473  25241  0
25242  25241  25473  0
25473  25476  25242  0
25238  25242  25476  0
25476  25234  25238  0
25240  25026  25478  0
25239  25479  25243  0
25026  25035  25478  0
25248  25478  25035  0
25243  25480  25244  0
25244  25480  25245  0
25245  25481  25032  0
25032  25481  25246  0
25248  25249  25482  0
25483  25250  25036  0
25483  25036  25247  0
25483  25247  25484  0
25249  25038  25482  0
25251  25250  25485  0
25251  25485  25252  0
25250  25483  25485  0
25038  25042  25486  0
25042  25487  25486  0
25252  25488  25039  0
25041  25257  25253  0
25253  25489  25490  0
25253  25490  25254  0
25253  25257  25489  0
25254  25490  25491  0
25254  25491  25255  0
25255  25492  25258  0
25255  25258  24600  0
25255  25491  25493  0
25255  25493  25492  0
25042  25044  25487  0
25039  25488  25494  0
25039  25494  25256  0
25257  25043  25260  0
25044  25262  25487  0
25256  25494  25495  0
25256  25495  24817  0
24817  25495  25259  0
25260  25049  25496  0
25260  25496  25497  0
25260  25497  25257  0
25496  25498  25497  0
25261  25499  25268  0
25261  25268  25048  0
25261  25500  25499  0
25259  25501  24605  0
25496  25049  25267  0
25496  25267  25498  0
25498  25267  25502  0
25268  25499  25503  0
25268  25503  25052  0
24608  25265  25264  0
24819  25266  25265  0
25266  24605  25501  0
25267  25269  25502  0
25502  25269  25504  0
25502  25504  25505  0
25504  25506  25505  0
25052  25503  25054  0
25263  25056  25507  0
24821  25051  25508  0
25269  25270  25504  0
25504  25270  25509  0
25504  25509  25506  0
25054  25503  25510  0
25510  25271  25054  0
25271  25056  25055  0
25270  25274  25509  0
25509  25274  25511  0
25279  25512  25513  0
25279  25280  25512  0
25279  25513  25282  0
25282  25288  25277  0
25282  25513  25514  0
25282  25514  25288  0
25273  25293  25274  0
25274  25293  25515  0
25274  25515  25511  0
25275  25516  24618  0
25285  25512  25280  0
25288  25514  25289  0
25289  25514  25291  0
25293  25294  25515  0
24618  25516  24622  0
25284  25295  25301  0
25284  25301  25517  0
25284  25517  25285  0
25070  25291  25518  0
25070  25518  25296  0
25301  25302  25519  0
25301  25519  25517  0
25296  25518  25520  0
25296  25520  25298  0
25298  25299  25071  0
25297  25076  25521  0
24622  25522  24835  0
25299  25523  25072  0
25072  25523  25303  0
25076  25304  25521  0
25524  25081  25305  0
25081  25524  25082  0
25525  25082  25524  0
25082  25525  24848  0
25526  24848  25525  0
25302  25306  25527  0
25302  25527  25519  0
25303  25528  25300  0
25300  25528  25304  0
25304  25528  25529  0
25530  25086  25307  0
25086  25530  25308  0
24848  25526  25088  0
25531  25088  25526  0
25529  25528  25303  0
25088  25531  25311  0
25306  25532  25527  0
25306  25310  25532  0
25311  25533  25312  0
25310  25534  25532  0
25535  25096  25312  0
25310  25316  25534  0
25536  25534  25316  0
25096  25535  25317  0
25316  25328  25536  0
25099  25325  25313  0
25537  25313  25325  0
25313  25537  25318  0
25538  25318  25537  0
25318  25538  25326  0
25328  25539  25536  0
25317  25540  25323  0
25331  24860  25323  0
25325  25541  25537  0
25542  25538  25537  0
25543  25538  25542  0
25538  25543  25326  0
25329  25326  25543  0
25326  25329  25327  0
25328  25334  25539  0
25331  25544  25103  0
25545  25103  25544  0
25103  25545  25104  0
25546  25104  25545  0
25104  25546  25332  0
25547  25333  25332  0
25325  25112  25541  0
25548  25541  25112  0
25542  25548  25543  0
25543  25118  25329  0
25112  25117  25548  0
25121  25548  25117  0
25548  25121  25543  0
25118  25543  25121  0
25549  25334  25335  0
25337  25549  25335  0
24868  24866  25336  0
25333  25336  24866  0
25119  25337  25335  0
25550  25336  25333  0
25551  25120  25336  0
24655  25338  25337  0
25120  25551  25340  0
25338  25339  25552  0
24875  25341  25123  0
25342  25123  25341  0
25342  25553  25343  0
25554  24435  25343  0
24435  25554  24437  0
24437  25554  24656  0
25555  24656  25554  0
25346  25556  25344  0
25346  24877  25557  0
24877  25350  25557  0
25348  25558  25347  0
25559  25347  25558  0
25347  25559  25128  0
25128  25559  25351  0
25350  25126  25349  0
25558  25348  25560  0
25561  25560  25348  0
25562  25561  25348  0
25349  24879  25351  0
25348  25131  25562  0
25563  25562  25131  0
25131  25352  25563  0
25354  25353  24884  0
25357  24889  24878  0
25352  25355  25564  0
25359  25564  25355  0
25352  25564  25563  0
25565  25564  25359  0
25566  25138  25134  0
25134  25353  25566  0
25567  25566  25353  0
25568  25132  25356  0
25356  25137  25568  0
25569  25568  25137  0
25138  25566  25570  0
25138  25570  25361  0
25137  25360  25569  0
25571  25359  25358  0
25572  25565  25359  0
25359  25571  25572  0
25573  25140  25361  0
25358  25362  25571  0
25573  25143  25140  0
25362  25367  25571  0
25143  25574  25365  0
25143  25573  25574  0
25367  25575  25571  0
25365  25574  25369  0
25148  25149  25367  0
25367  25149  25375  0
25367  25375  25575  0
25574  25372  25369  0
25375  25376  25576  0
25375  25576  25575  0
25376  25373  25577  0
25376  25577  25576  0
25370  25377  25380  0
25379  25578  25579  0
25152  24906  25580  0
25379  25381  25578  0
25152  25580  25581  0
25152  25581  24909  0
24909  25581  24912  0
25382  25383  25582  0
24912  25583  25384  0
25156  25584  25383  0
25156  25383  25155  0
25156  25386  25584  0
25385  25585  25159  0
25158  25586  25387  0
25158  25388  25586  0
25159  25585  25587  0
25159  25587  24497  0
25160  25389  25588  0
25160  25588  25388  0
24497  25587  25390  0
25390  25587  25589  0
25162  25391  25590  0
25162  25590  25389  0
25390  25589  25164  0
25391  25591  25590  0
25391  25165  25591  0
25165  25392  25591  0
24929  25592  25593  0
24929  25593  24937  0
24929  25164  25589  0
24929  25589  25592  0
25398  25170  25594  0
25170  25399  25594  0
25399  24937  25595  0
24937  25593  25595  0
25400  25596  25402  0
25400  25403  25596  0
25402  25597  25401  0
25401  25597  25598  0
25401  25598  25405  0
25175  25405  25599  0
25404  25406  25600  0
25406  25173  25408  0
25406  25408  25601  0
25406  25601  25600  0
25175  25599  25407  0
25408  25180  25601  0
25180  25411  25602  0
25180  25602  25601  0
25411  25410  25603  0
25604  25183  25412  0
25183  25604  24962  0
25414  24962  25604  0
25410  25413  25605  0
25410  25605  25606  0
25410  25606  25603  0
24966  25607  25415  0
25413  25418  25608  0
25413  25608  25605  0
25609  25415  25610  0
25415  25609  25416  0
25416  25609  25419  0
25421  25419  25609  0
25417  25420  25418  0
25611  25418  25420  0
25418  25611  25608  0
25192  25423  25420  0
25420  25612  25611  0
25613  25424  25422  0
25614  25424  25613  0
25615  25194  25425  0
25194  25615  25426  0
25616  25426  25615  0
25426  25617  25423  0
25618  25423  25617  0
25426  25616  25617  0
25423  25618  25420  0
25420  25618  25612  0
25424  25614  25427  0
25432  25427  25614  0
25425  25433  25615  0
25615  25433  25616  0
25619  25616  25433  0
25197  25428  25620  0
25428  25429  25621  0
25428  25621  25620  0
25622  25620  25621  0
25623  25429  25430  0
25624  25430  25199  0
25199  25431  25624  0
25625  25624  25431  0
25434  25625  25431  0
25207  25433  24979  0
25433  25207  25619  0
25208  25619  25207  0
25436  25619  25208  0
25203  25197  25437  0
25197  25620  25437  0
25620  25626  25437  0
25627  25437  25626  0
25622  25626  25620  0
25628  25436  25437  0
25627  25628  25437  0
25435  25629  25439  0
25630  25438  25440  0
25439  25629  25442  0
24988  25444  25213  0
25445  25444  25441  0
25631  25445  25211  0
25211  25442  25631  0
25632  25631  25442  0
25440  25443  25633  0
25213  25444  25634  0
25213  25634  25446  0
25443  25635  25633  0
25443  25447  25635  0
25450  25220  25446  0
25448  25636  25449  0
25637  25447  25449  0
25450  25638  25451  0
25452  25453  25448  0
25456  25448  25453  0
25448  25456  25636  0
25459  25636  25456  0
25451  25638  25455  0
25639  25455  25638  0
25456  25457  25459  0
25640  25458  25460  0
25462  25640  25460  0
25462  25464  25641  0
25642  25641  25464  0
25464  25455  25642  0
25639  25642  25455  0
25643  25644  25467  0
25467  25644  25468  0
25469  25466  25468  0
25645  25468  25644  0
25468  25645  25469  0
25472  25646  25647  0
25648  25467  25233  0
25467  25648  25643  0
25649  25643  25648  0
25650  25475  25469  0
25477  25474  25475  0
25651  25475  25650  0
25475  25651  25477  0
25470  25652  25465  0
25653  25465  25652  0
25465  25654  25472  0
25465  25653  25654  0
25655  25654  25653  0
25472  25647  25471  0
25656  25471  25647  0
25647  25657  25656  0
25233  25019  25648  0
25477  25651  25470  0
25658  25470  25651  0
25470  25658  25652  0
25659  25652  25658  0
25652  25660  25653  0
25652  25659  25660  0
25661  25660  25659  0
25471  25656  25239  0
25479  25239  25656  0
25656  25657  25479  0
25019  25240  25648  0
25478  25648  25240  0
25648  25478  25649  0
25662  25649  25478  0
25479  25663  25480  0
25479  25657  25664  0
25479  25664  25663  0
25663  25664  25665  0
25248  25666  25478  0
25478  25666  25662  0
25479  25480  25243  0
25245  25480  25663  0
25663  25481  25245  0
25663  25665  25667  0
25663  25667  25481  0
25482  25666  25248  0
25666  25482  25668  0
25481  25484  25246  0
25247  25246  25484  0
25481  25667  25484  0
25668  25482  25669  0
25485  25670  25671  0
25485  25671  25672  0
25670  25485  25483  0
25670  25483  25484  0
25482  25038  25486  0
25482  25486  25669  0
25485  25672  25252  0
25486  25487  25673  0
25674  25488  25252  0
25488  25675  25494  0
25257  25497  25489  0
25492  25500  25261  0
25492  25261  25258  0
25492  25493  25676  0
25492  25676  25500  0
25500  25676  25677  0
25487  25262  25678  0
25494  25679  25495  0
25495  25680  25259  0
25498  25502  25681  0
25498  25681  25497  0
25499  25500  25682  0
25262  25683  25678  0
25259  25680  25501  0
25502  25505  25684  0
25503  25499  25682  0
25503  25682  25685  0
25685  25510  25503  0
25263  25507  25683  0
25263  25683  25262  0
25264  25686  25508  0
25264  25508  25051  0
25505  25506  25684  0
25510  25685  25687  0
25687  25688  25271  0
25687  25271  25510  0
25688  25507  25056  0
25688  25056  25271  0
24821  25508  25272  0
25509  25511  25689  0
25509  25689  25506  0
25272  25690  25275  0
25511  25691  25689  0
25513  25512  25692  0
25513  25693  25514  0
25511  25515  25691  0
25512  25694  25692  0
25514  25695  25291  0
25285  25694  25512  0
25291  25695  25696  0
25291  25696  25697  0
25291  25697  25518  0
25515  25294  25698  0
24622  25516  25522  0
25519  25699  25517  0
25518  25697  25520  0
25520  25700  25298  0
25294  25297  25701  0
25294  25701  25698  0
25522  25079  24835  0
25522  25702  25079  0
25519  25703  25699  0
25298  25700  25299  0
25297  25521  25704  0
25297  25704  25701  0
25079  25702  25080  0
25305  25705  25524  0
25305  25530  25705  0
25524  25705  25706  0
25524  25706  25525  0
25525  25707  25708  0
25525  25708  25526  0
25525  25706  25709  0
25525  25709  25707  0
25519  25527  25703  0
25521  25304  25710  0
25521  25710  25704  0
25307  25711  25530  0
25308  25530  25305  0
25708  25531  25526  0
25527  25712  25703  0
25303  25713  25529  0
25303  25523  25713  0
25529  25710  25304  0
25531  25714  25311  0
25527  25532  25712  0
25533  25311  25714  0
25532  25534  25715  0
25312  25533  25535  0
25534  25536  25715  0
25536  25716  25715  0
25317  25535  25717  0
25317  25717  25540  0
25536  25539  25716  0
25539  25718  25716  0
25719  25323  25540  0
25542  25537  25541  0
25539  25334  25718  0
25549  25718  25334  0
25323  25719  25331  0
25720  25331  25719  0
25331  25720  25544  0
25547  25332  25546  0
25541  25548  25542  0
25721  25544  25720  0
25545  25544  25721  0
25545  25722  25546  0
25546  25722  25547  0
25723  25549  25337  0
25333  25547  25550  0
25336  25550  25551  0
25337  25338  25723  0
25724  25723  25338  0
25725  25551  25550  0
25726  25340  25551  0
25724  25338  25552  0
25340  25726  25341  0
25345  25727  25339  0
25339  25727  25552  0
25728  25341  25729  0
25341  25728  25342  0
25730  25342  25728  0
25342  25730  25553  0
25731  25553  25730  0
25553  25731  25343  0
25732  25344  25556  0
25344  25732  25345  0
25727  25345  25732  0
25730  25728  25731  0
25555  25554  25343  0
25556  25346  25733  0
25558  25734  25559  0
25735  25559  25734  0
25557  25736  25346  0
25733  25346  25736  0
25737  25559  25735  0
25559  25737  25351  0
25738  25351  25737  0
25351  25738  25349  0
25349  25738  25350  0
25739  25350  25738  0
25736  25350  25739  0
25350  25736  25557  0
25560  25561  25740  0
25561  25562  25741  0
25562  25563  25741  0
25742  25563  25564  0
25353  25354  25743  0
25353  25743  25567  0
25744  25743  25354  0
25354  25132  25744  0
25564  25565  25742  0
25567  25570  25566  0
25745  25744  25132  0
25132  25568  25745  0
25746  25742  25565  0
25565  25572  25746  0
25570  25567  25747  0
25748  25569  25360  0
25361  25570  25573  0
25749  25573  25570  0
25570  25747  25750  0
25570  25750  25749  0
25751  25572  25571  0
25752  25751  25571  0
25573  25749  25574  0
25753  25574  25749  0
25749  25754  25753  0
25755  25753  25754  0
25756  25748  25360  0
25757  25571  25575  0
25571  25757  25752  0
25758  25752  25757  0
25574  25753  25759  0
25753  25755  25759  0
25760  25759  25755  0
25360  25364  25756  0
25576  25757  25575  0
25574  25759  25372  0
25761  25372  25759  0
25760  25762  25759  0
25759  25762  25761  0
25364  25370  25756  0
25763  25374  25366  0
25764  25577  25373  0
25373  25372  25764  0
25761  25764  25372  0
25756  25370  25380  0
24904  25374  25765  0
25763  25765  25374  0
24904  25765  25378  0
25380  25766  25756  0
25380  25379  25767  0
25579  25767  25379  0
25378  25580  24906  0
25578  25768  25579  0
25578  25381  25768  0
25581  25580  25769  0
25580  25770  25769  0
25381  25382  25771  0
25381  25771  25768  0
25581  25583  24912  0
25581  25769  25583  0
25769  25770  25772  0
25582  25771  25382  0
25583  25769  25384  0
25384  25769  25385  0
25769  25772  25773  0
25769  25773  25385  0
25584  25386  25774  0
25385  25773  25585  0
25386  25387  25775  0
25386  25775  25774  0
25387  25586  25775  0
25388  25588  25776  0
25388  25776  25586  0
25587  25585  25777  0
25588  25389  25778  0
25588  25778  25776  0
25587  25779  25589  0
25389  25590  25778  0
25591  25392  25780  0
25392  25393  25780  0
25594  25781  25398  0
25594  25399  25782  0
25594  25782  25783  0
25782  25399  25595  0
25782  25595  25784  0
25595  25593  25785  0
25595  25785  25784  0
25397  25398  25786  0
25398  25781  25786  0
25596  25787  25402  0
25402  25787  25597  0
25403  25404  25596  0
25598  25597  25788  0
25598  25788  25789  0
25598  25789  25405  0
25404  25600  25790  0
25404  25790  25596  0
25600  25791  25790  0
25600  25601  25791  0
25599  25405  25789  0
25601  25792  25791  0
25407  25793  25178  0
25178  25793  25794  0
25178  25794  25409  0
25601  25602  25792  0
25409  25794  25795  0
25409  25795  25412  0
25602  25411  25796  0
25411  25603  25797  0
25411  25797  25796  0
25412  25798  25604  0
25606  25605  25603  0
25414  25799  25607  0
25414  25607  24966  0
25605  25800  25603  0
25607  25610  25415  0
25605  25608  25800  0
25610  25801  25609  0
25421  25609  25802  0
25611  25803  25608  0
25421  25802  25804  0
25421  25804  25805  0
25421  25805  25422  0
25422  25805  25613  0
25618  25617  25806  0
25618  25806  25612  0
25612  25807  25611  0
25612  25806  25807  0
25616  25619  25808  0
25616  25808  25617  0
25617  25808  25806  0
25806  25808  25809  0
25429  25623  25810  0
25429  25810  25621  0
25430  25624  25811  0
25430  25811  25623  0
25812  25432  25614  0
25619  25436  25808  0
25628  25808  25436  0
25808  25628  25809  0
25813  25627  25626  0
25626  25622  25813  0
25814  25813  25622  0
25815  25622  25621  0
25621  25810  25815  0
25434  25816  25625  0
25432  25812  25435  0
25817  25628  25627  0
25627  25813  25817  0
25814  25817  25813  0
25434  25438  25816  0
25816  25438  25818  0
25819  25818  25438  0
25438  25630  25819  0
25440  25633  25630  0
25820  25630  25633  0
25633  25635  25820  0
25634  25444  25821  0
25822  25821  25444  0
25634  25821  25446  0
25823  25446  25821  0
25444  25445  25822  0
25824  25822  25445  0
25825  25824  25445  0
25445  25631  25825  0
25632  25825  25631  0
25446  25823  25450  0
25447  25637  25635  0
25826  25635  25637  0
25637  25449  25636  0
25636  25459  25637  0
25637  25459  25827  0
25638  25828  25639  0
25640  25459  25458  0
25640  25462  25829  0
25830  25829  25462  0
25462  25641  25830  0
25644  25831  25645  0
25645  25650  25469  0
25645  25832  25650  0
25472  25654  25646  0
25833  25646  25654  0
25834  25647  25646  0
25835  25647  25834  0
25650  25832  25651  0
25836  25654  25655  0
25654  25836  25833  0
25647  25837  25657  0
25647  25835  25837  0
25838  25837  25835  0
25664  25837  25838  0
25651  25839  25658  0
25653  25660  25655  0
25664  25657  25837  0
25662  25666  25840  0
25841  25840  25666  0
25659  25658  25661  0
25842  25661  25658  0
25843  25660  25661  0
25660  25843  25655  0
25844  25655  25843  0
25664  25845  25665  0
25846  25665  25845  0
25666  25668  25841  0
25661  25842  25843  0
25665  25846  25667  0
25670  25846  25671  0
25674  25671  25846  0
25846  25670  25667  0
25484  25667  25670  0
25671  25674  25672  0
25673  25669  25486  0
25252  25672  25674  0
25674  25847  25488  0
25675  25488  25847  0
25848  25490  25489  0
25490  25848  25491  0
25849  25491  25848  0
25491  25849  25493  0
25850  25493  25849  0
25493  25850  25676  0
25677  25676  25850  0
25673  25487  25851  0
25679  25494  25675  0
25489  25497  25852  0
25853  25500  25677  0
25682  25500  25853  0
25854  25682  25853  0
25487  25678  25851  0
25855  25851  25678  0
25680  25495  25679  0
25497  25681  25852  0
25684  25681  25502  0
25854  25856  25682  0
25854  25857  25856  0
25858  25856  25857  0
25855  25678  25683  0
25680  25859  25501  0
25501  25859  25860  0
25682  25856  25685  0
25856  25861  25685  0
25687  25685  25861  0
25856  25858  25861  0
25688  25687  25861  0
25861  25858  25862  0
25861  25507  25688  0
25861  25862  25863  0
25861  25863  25507  0
25264  25265  25864  0
25264  25864  25686  0
25265  25266  25864  0
25266  25501  25860  0
25684  25506  25865  0
25508  25686  25866  0
25508  25866  25867  0
25508  25867  25690  0
25508  25690  25272  0
25506  25689  25868  0
25506  25868  25865  0
25869  25870  25871  0
25275  25690  25872  0
25513  25692  25693  0
25692  25873  25693  0
25693  25873  25874  0
25693  25874  25514  0
25514  25874  25875  0
25514  25875  25695  0
25695  25875  25696  0
25875  25876  25696  0
25691  25515  25877  0
25275  25872  25516  0
25285  25517  25694  0
25694  25517  25878  0
25696  25876  25697  0
25697  25876  25879  0
25515  25698  25877  0
25698  25880  25877  0
25516  25881  25522  0
25517  25699  25882  0
25517  25882  25878  0
25697  25879  25520  0
25520  25883  25700  0
25522  25881  25702  0
25706  25884  25709  0
25706  25885  25884  0
25706  25705  25885  0
25884  25707  25709  0
25700  25883  25886  0
25702  25887  25080  0
25707  25884  25888  0
25707  25888  25708  0
25700  25886  25523  0
25700  25523  25299  0
25080  25887  25889  0
25080  25889  25307  0
25307  25889  25890  0
25307  25890  25711  0
25530  25711  25891  0
25530  25891  25705  0
25708  25888  25892  0
25523  25893  25713  0
25523  25886  25893  0
25531  25708  25892  0
25531  25892  25894  0
25531  25894  25714  0
25893  25895  25713  0
25713  25895  25896  0
25713  25896  25529  0
25529  25896  25897  0
25529  25897  25710  0
25532  25715  25898  0
25715  25899  25898  0
25533  25714  25900  0
25533  25900  25535  0
25535  25900  25901  0
25715  25716  25899  0
25717  25535  25901  0
25716  25718  25902  0
25718  25549  25902  0
25549  25903  25902  0
25545  25904  25722  0
25545  25721  25904  0
25722  25550  25547  0
25550  25722  25905  0
25550  25905  25725  0
25551  25725  25906  0
25551  25906  25726  0
25552  25727  25907  0
25552  25907  25724  0
25726  25729  25341  0
25907  25727  25908  0
25556  25733  25732  0
25732  25908  25727  0
25728  25909  25731  0
25910  25731  25909  0
25731  25910  25343  0
25555  25343  25910  0
25911  24656  25555  0
25558  25912  25734  0
25913  25734  25912  0
25558  25560  25912  0
25914  25912  25560  0
25734  25913  25735  0
25915  25735  25913  0
25916  25735  25915  0
25735  25916  25737  0
25916  25917  25737  0
25918  25739  25919  0
25739  25918  25736  0
25733  25736  25918  0
24656  25911  24878  0
25920  24878  25911  0
25560  25740  25914  0
25737  25917  25738  0
25919  25738  25917  0
25738  25919  25739  0
25741  25740  25561  0
25741  25563  25921  0
25922  25563  25742  0
25923  25567  25743  0
24878  25920  25357  0
25924  25922  25742  0
25925  25747  25567  0
25743  25744  25923  0
25745  25923  25744  0
25742  25746  25924  0
25747  25925  25926  0
25747  25926  25750  0
25927  25568  25569  0
25569  25748  25927  0
25928  25746  25572  0
25929  25749  25750  0
25750  25926  25929  0
25930  25929  25926  0
25572  25751  25928  0
25931  25928  25751  0
25749  25929  25754  0
