#!ascii file
25919  26096  25916  0
26096  25919  26097  0
25917  26099  25762  0
25921  25762  26099  0
25756  26100  25918  0
26101  26102  25919  0
25921  26103  25924  0
26104  25924  26103  0
25763  25914  25760  0
25919  25920  26101  0
25924  26104  25923  0
26105  25923  26104  0
25923  26105  25926  0
25920  25928  26101  0
26106  26101  25928  0
26107  25926  26105  0
25926  26107  25927  0
26108  25927  26107  0
25775  25918  26109  0
25927  26108  25929  0
26108  26110  25929  0
26111  26110  26108  0
26112  26110  26111  0
26113  26112  26111  0
25928  25931  26106  0
25929  26110  25932  0
26112  25932  26110  0
26112  26113  26114  0
26109  26115  25775  0
26116  25778  25767  0
25767  25932  26116  0
26117  26116  25932  0
25932  26112  26117  0
26112  26114  26117  0
25774  25775  26115  0
25770  26118  25931  0
25778  26116  26119  0
25778  26119  25937  0
26116  26117  26120  0
26121  25933  25934  0
25933  26121  25772  0
26122  25930  25936  0
25770  25776  26118  0
25771  25940  26123  0
25771  26123  25935  0
26118  25776  25780  0
25940  25939  26123  0
25939  25938  25943  0
25939  25943  26124  0
25939  26124  26123  0
25780  25784  26125  0
25943  25942  26126  0
25943  26126  26127  0
25943  26127  26124  0
25942  25786  26126  0
25784  25946  26125  0
25944  25781  26128  0
26126  25786  26129  0
25944  26128  26130  0
25944  26130  25788  0
25616  25617  26131  0
25616  26131  25945  0
25788  26130  25948  0
25617  25619  26131  0
25619  25949  26132  0
25619  26132  26131  0
25947  26133  26134  0
25947  25948  26133  0
25789  25947  26135  0
25947  26134  26135  0
25622  25951  25952  0
25789  26135  25792  0
25951  26136  25952  0
25952  26136  25953  0
25954  26137  25790  0
25792  26135  25955  0
25954  25956  26138  0
25954  26138  26137  0
25957  25798  26139  0
25957  26139  25958  0
25798  26140  26141  0
25798  26141  26139  0
25798  25446  26140  0
26139  26141  26142  0
26139  26142  26143  0
26139  26143  25958  0
25958  26143  26144  0
25958  26144  25956  0
25956  26144  26138  0
25250  25800  25962  0
25634  26145  25799  0
25634  26146  26145  0
25458  25963  25800  0
25452  26147  25803  0
25634  25804  26146  0
25801  25964  25963  0
25965  26148  25805  0
25802  25966  26149  0
25966  25967  26149  0
25967  25808  25970  0
25813  26150  25970  0
25977  25804  25472  0
25805  25973  25640  0
25805  26148  25973  0
26151  25973  26148  0
25813  25972  26150  0
25968  26152  25819  0
25974  25973  26151  0
25979  25975  25823  0
26153  25976  25819  0
25984  25826  25976  0
26154  25976  26153  0
25976  26154  25984  0
26155  25984  26154  0
25980  25979  25825  0
25984  26155  25985  0
25991  25985  26155  0
26156  25991  26155  0
25991  26156  25992  0
25974  25986  25978  0
25981  25987  26157  0
25998  25992  26156  0
25995  25986  26158  0
26159  25988  25996  0
26000  26159  25996  0
25998  26160  26000  0
26161  26162  26001  0
26001  26004  26161  0
26005  26004  25838  0
26163  26004  26005  0
26005  25840  26163  0
26164  26163  25840  0
26165  26007  25842  0
25842  26006  26165  0
26003  26165  26006  0
25840  25841  26164  0
26166  26164  25841  0
25841  26009  26166  0
26167  26166  26009  0
26009  25845  26167  0
26168  26167  25845  0
25847  26168  25845  0
26010  26012  26011  0
26012  26169  26019  0
26170  26014  26013  0
26016  26018  26171  0
26172  26171  26018  0
26019  26169  26020  0
26173  26020  26169  0
26018  25854  26172  0
26172  25854  26174  0
26020  26173  26021  0
26175  26024  26022  0
26176  26015  25686  0
26016  26177  26025  0
26178  26025  26177  0
25854  26027  26174  0
26179  26180  26032  0
25686  26181  26176  0
26182  26027  26029  0
26183  26027  26182  0
26039  26184  26040  0
26185  26186  26184  0
26184  26186  26040  0
26187  26040  26186  0
26184  26039  26042  0
26184  26042  26185  0
26188  26185  26042  0
26042  26043  26188  0
26189  26188  26043  0
26043  26044  26189  0
26028  26190  25858  0
26191  25858  26190  0
26030  25858  26191  0
26031  26179  26032  0
26192  26179  26031  0
26193  26053  26194  0
26195  26196  26181  0
26181  26196  26176  0
26025  26178  26034  0
26197  26034  26178  0
26029  26036  26182  0
26041  26040  26187  0
26041  26187  26198  0
26044  26045  26199  0
26044  26199  26189  0
26045  26046  26199  0
26046  26047  26200  0
26201  25857  26030  0
26049  26202  26192  0
26049  26192  26031  0
26054  26053  26193  0
26054  26193  26203  0
26054  26203  26204  0
26054  26204  26055  0
26036  26057  26205  0
26036  26205  26182  0
26198  26067  26058  0
26198  26058  26041  0
26047  26059  26206  0
26047  26206  26200  0
26059  26060  26207  0
26059  26207  26206  0
25857  26201  25870  0
25870  26201  26061  0
26061  26208  25881  0
26061  26209  26208  0
26050  26064  26210  0
26050  26210  26049  0
26065  26055  26204  0
26065  26211  26063  0
26057  26066  26205  0
26205  26066  26212  0
26205  26212  26213  0
26212  26067  26198  0
26212  26198  26213  0
26060  26068  26207  0
25881  26208  26214  0
25881  26214  25885  0
26210  26064  26215  0
26064  26063  26211  0
26064  26211  26215  0
26216  26035  26217  0
26216  26217  26218  0
26066  25883  26069  0
26066  26069  26212  0
26212  26069  26067  0
26068  26070  26219  0
26070  25885  26214  0
26220  26221  26222  0
26222  26221  26223  0
26222  26223  26224  0
25886  26072  25887  0
25887  26225  26071  0
26071  26225  26073  0
25731  26079  26072  0
26073  26226  25889  0
25889  26226  26227  0
25889  26227  26074  0
26074  26228  26075  0
26074  26075  25890  0
26074  26227  26229  0
26074  26229  26228  0
26079  26230  26072  0
26075  26231  26076  0
26076  26231  26232  0
26076  26232  26081  0
26078  26081  26232  0
26080  26082  26233  0
26080  26233  26079  0
26082  25897  26085  0
26231  26234  26232  0
25740  26083  25899  0
26084  25901  26235  0
25899  26083  26236  0
25899  26236  26086  0
25902  26086  26237  0
25901  25750  26238  0
25902  26237  26087  0
25750  26091  26238  0
26088  26089  26090  0
26091  25910  26239  0
26091  26239  26240  0
26089  25911  26241  0
26089  26241  26090  0
26090  26241  26092  0
26090  26092  25909  0
26239  25910  26094  0
25756  25912  26100  0
25911  26095  26241  0
26241  26095  26093  0
26241  26093  26092  0
26094  25914  26242  0
26094  26242  26239  0
26095  26097  26243  0
26095  26243  26093  0
26093  26244  26245  0
26093  26245  26098  0
26093  26243  26244  0
26098  26099  25917  0
26098  26245  26099  0
25914  26246  26242  0
26097  25919  26102  0
26097  26102  26243  0
26099  26247  26103  0
26099  26103  25921  0
25914  26248  26246  0
26102  26101  26249  0
26102  26249  26243  0
26249  26250  26243  0
26103  26247  26251  0
26103  26251  26104  0
25914  25763  26248  0
25918  26100  26252  0
26249  26101  26250  0
26104  26253  26105  0
25763  25930  26248  0
25918  26252  26109  0
26254  26250  26101  0
26107  26105  26255  0
26106  26254  26101  0
26108  26107  26113  0
26108  26113  26111  0
26256  26257  25930  0
26109  26258  26115  0
26259  26106  25931  0
26113  26260  26114  0
26261  26114  26260  0
25930  26122  26256  0
25941  25774  26115  0
26262  26259  25931  0
26263  26120  26117  0
26117  26114  26263  0
26261  26263  26114  0
25931  26118  26262  0
26120  26119  26116  0
26120  26263  26264  0
26265  26263  26261  0
26266  25934  25935  0
25934  26266  26121  0
26267  25772  26121  0
25772  26267  25936  0
26268  25936  26267  0
25936  26268  26122  0
25937  26119  26269  0
26270  26269  26119  0
26119  26120  26270  0
26264  26270  26120  0
25935  26123  26266  0
26267  26121  26266  0
26271  26266  26123  0
26267  26272  26268  0
26268  26273  26122  0
25780  26274  26118  0
26275  25781  25937  0
25937  26269  26275  0
26123  26124  26271  0
26276  26271  26124  0
25785  26277  25787  0
25780  26125  26274  0
25781  26275  26128  0
26124  26127  26276  0
26278  26276  26127  0
26279  26125  25946  0
26126  26278  26127  0
25945  26129  25786  0
26280  25787  26281  0
26129  25945  26282  0
25946  25787  26280  0
25946  26283  26279  0
26284  25945  26131  0
26285  25946  26280  0
25946  26285  26283  0
26286  25948  26130  0
26286  26287  25948  0
26133  25948  26287  0
26288  26133  26287  0
26287  26289  26288  0
26290  26291  26292  0
26293  26292  26291  0
26294  26132  25949  0
26295  26133  26288  0
26288  26296  26295  0
26297  26295  26296  0
26296  26290  26297  0
26290  26292  26297  0
26133  26295  26134  0
26295  26297  26298  0
26297  26292  26299  0
26300  26299  26292  0
26292  26301  26300  0
26292  26293  26301  0
26302  26301  26293  0
26303  26134  26295  0
26295  26298  26303  0
26298  26297  26303  0
26299  26303  26297  0
26299  26300  26304  0
26305  26300  26301  0
26301  26302  26305  0
26306  26136  25951  0
26307  25949  25953  0
26294  25949  26307  0
26308  26135  26134  0
26134  26303  26308  0
26309  26308  26303  0
26303  26299  26309  0
26299  26304  26309  0
26310  26304  26300  0
26300  26305  26310  0
26305  26302  26311  0
26312  26311  26302  0
26313  26311  26312  0
25790  26314  25950  0
25790  26137  26314  0
25950  26314  25951  0
26315  25951  26314  0
26306  25951  26315  0
26316  26136  26306  0
26136  26316  25953  0
26135  26308  25955  0
26308  26309  26317  0
26309  26304  26318  0
26309  26318  26317  0
26304  26310  26318  0
26305  26311  26319  0
26305  26319  26310  0
26311  26313  26319  0
25955  26308  25796  0
26308  26317  26320  0
26308  26320  25796  0
26137  26321  26314  0
26137  26138  26322  0
26137  26322  26321  0
26140  25446  26145  0
26141  26323  26143  0
26141  26143  26142  0
26141  26140  26323  0
25797  25796  26324  0
25797  26324  25628  0
26145  25446  25799  0
26323  26325  26143  0
26143  26325  26144  0
25628  26324  25959  0
25960  25962  26326  0
25959  26147  25452  0
25959  26327  26147  0
25961  26328  25637  0
25800  25963  26329  0
26147  26330  25803  0
25803  26330  25807  0
25804  25977  26146  0
25965  25637  26331  0
25965  26331  26148  0
26149  25967  26332  0
26149  26332  25802  0
26332  25967  26333  0
25807  26330  26334  0
25807  26334  25969  0
25967  25970  26333  0
25970  26150  26333  0
26150  26335  26333  0
26150  25972  26335  0
25969  26336  25968  0
25968  26337  26152  0
25968  26336  26337  0
26148  26331  26151  0
25818  26338  25971  0
26152  26339  26153  0
26152  26153  25819  0
26152  26337  26340  0
26152  26340  26339  0
25975  26341  25818  0
25975  25979  26341  0
26153  26339  26154  0
26154  26342  26155  0
26154  26339  26343  0
26154  26343  26342  0
26342  26344  26156  0
26342  26156  26155  0
26342  26343  26344  0
26344  26345  26156  0
25977  25827  26346  0
25977  26346  26347  0
25974  26151  26348  0
25974  26348  25986  0
26346  25827  25993  0
26349  26158  25986  0
26349  25986  26348  0
26157  25987  26350  0
25987  25988  26159  0
25987  26159  26351  0
25987  26351  26350  0
25998  26156  26352  0
25998  26352  26160  0
25993  26353  26346  0
26349  26354  25995  0
26349  25995  26158  0
26349  26355  26356  0
26349  26356  26354  0
26159  26000  26160  0
26159  26160  26357  0
26159  26357  26351  0
25993  25834  26358  0
25993  26358  26353  0
26354  26002  25995  0
25834  26359  26358  0
26002  26354  26360  0
26002  26360  26003  0
26359  26162  26358  0
26162  26161  26361  0
26003  26360  26165  0
26004  26163  26161  0
26163  26164  26362  0
26007  26165  26363  0
26007  26363  25843  0
26164  26166  26364  0
26164  26364  26362  0
26167  26365  26166  0
26167  26366  26365  0
26366  26167  26168  0
26366  26168  26367  0
26366  26367  26365  0
26168  25847  26368  0
25847  26369  26370  0
25847  26370  26368  0
26010  26008  26371  0
26010  26371  26012  0
26177  26016  26372  0
26171  26372  26016  0
26012  26371  26169  0
26169  26373  26173  0
26015  26170  26013  0
26173  26373  26021  0
26374  26021  26373  0
26022  26021  26374  0
26375  26376  26174  0
26175  26377  26024  0
26378  26379  26380  0
26381  26380  26379  0
26378  26180  26379  0
26382  26379  26180  0
26177  26383  26178  0
26174  26027  26375  0
26183  26375  26027  0
26024  26377  26028  0
26190  26028  26377  0
26384  26180  26179  0
26385  26386  26387  0
26388  26387  26386  0
26385  26389  26386  0
26178  26383  26197  0
26390  26197  26383  0
26183  26213  26391  0
26187  26391  26213  0
26183  26391  26392  0
26391  26187  26186  0
26393  26391  26186  0
26186  26185  26393  0
26185  26188  26393  0
26188  26189  26394  0
26395  26394  26189  0
26396  26395  26189  0
26189  26199  26396  0
26397  26396  26199  0
26190  26398  26191  0
26384  26179  26399  0
26179  26192  26399  0
26400  26399  26192  0
26194  26387  26193  0
26401  26387  26388  0
26183  26182  26213  0
26198  26187  26213  0
26199  26046  26397  0
26402  26397  26046  0
26046  26200  26402  0
26403  26402  26200  0
26404  26030  26191  0
26030  26404  26201  0
26201  26405  26061  0
26209  26061  26405  0
26400  26192  26202  0
26210  26202  26049  0
26203  26193  26204  0
26406  26204  26193  0
26193  26387  26401  0
26193  26401  26406  0
26407  26406  26401  0
26195  26408  26196  0
26409  26196  26408  0
26197  26410  26034  0
26411  26034  26410  0
26182  26205  26213  0
26200  26206  26412  0
26207  26412  26206  0
26200  26412  26403  0
26065  26204  26211  0
26413  26211  26204  0
26204  26406  26413  0
26414  26413  26406  0
26408  26415  26409  0
26416  26409  26415  0
26411  26035  26034  0
26417  26412  26207  0
26207  26068  26417  0
26418  26419  26214  0
26420  26214  26419  0
26214  26208  26418  0
26421  26210  26215  0
26215  26211  26422  0
26423  26422  26211  0
26215  26422  26421  0
26211  26413  26423  0
26413  26414  26423  0
26424  26423  26414  0
26035  26411  26217  0
26425  26217  26411  0
26068  26219  26417  0
26420  26219  26070  0
26070  26214  26420  0
26218  26217  26220  0
26426  26220  26217  0
26217  26425  26426  0
26220  26426  26221  0
26427  26221  26426  0
26221  26427  26428  0
26221  26428  26223  0
26429  26223  26428  0
26430  26223  26429  0
25887  26072  26225  0
26431  26225  26072  0
26225  26432  26073  0
26073  26432  26226  0
26433  26226  26432  0
26072  26230  26431  0
26434  26226  26433  0
26226  26434  26227  0
26229  26227  26434  0
26233  26230  26079  0
26230  26233  26435  0
26434  26436  26229  0
26437  26229  26436  0
26229  26438  26228  0
26075  26228  26438  0
26229  26437  26438  0
26439  26078  26232  0
25895  26078  26439  0
26440  26082  26085  0
26075  26441  26231  0
26231  26441  26234  0
26234  26442  26232  0
26232  26442  26443  0
26232  26443  26439  0
26444  25738  25895  0
26085  26084  26445  0
26085  26445  26440  0
26084  26235  26445  0
26441  26075  26438  0
26441  26446  26234  0
26447  26234  26446  0
26234  26447  26442  0
26443  26442  26447  0
25738  26444  26083  0
26448  26083  26444  0
26236  26083  26448  0
26235  25901  26449  0
25901  26238  26449  0
26237  26086  26450  0
26451  26087  26237  0
26240  26452  26453  0
26240  26453  26091  0
26240  26454  26455  0
26240  26455  26452  0
26091  26453  26238  0
26087  26451  26456  0
26087  26456  25912  0
26454  26457  26458  0
26454  26458  26455  0
26454  26240  26239  0
26454  26239  26457  0
25912  26456  26100  0
26457  26239  26242  0
26245  26247  26099  0
26245  26244  26459  0
26245  26459  26247  0
26242  26246  26460  0
26244  26243  26461  0
26247  26462  26251  0
26247  26459  26462  0
26243  26250  26461  0
26251  26463  26253  0
26251  26253  26104  0
26251  26462  26463  0
26100  26464  26252  0
26250  26465  26461  0
26253  26463  26466  0
26248  25930  26467  0
26250  26254  26468  0
26250  26468  26465  0
26469  26470  26466  0
26469  26466  26471  0
26469  26471  26472  0
26466  26470  26255  0
26466  26255  26253  0
26253  26255  26105  0
25930  26257  26467  0
26252  26258  26109  0
26252  26473  26258  0
26470  26469  26472  0
26255  26470  26474  0
26255  26474  26475  0
26255  26475  26107  0
26107  26475  26476  0
26107  26476  26113  0
26113  26476  26260  0
26258  26477  26115  0
26477  26478  26115  0
26106  26259  26254  0
26475  26479  26476  0
26475  26474  26480  0
26260  26481  26261  0
26260  26476  26481  0
26256  26122  26482  0
26115  26478  26483  0
26115  26483  25941  0
26259  26262  26484  0
26474  26470  26480  0
26481  26485  26261  0
25941  26483  25783  0
26265  26261  26485  0
26265  26486  26263  0
26122  26273  26482  0
25785  25783  26483  0
25785  26483  26277  0
26118  26487  26262  0
26264  26488  26270  0
26264  26263  26486  0
26264  26486  26488  0
26266  26271  26489  0
26266  26489  26267  0
26267  26489  26490  0
26267  26490  26272  0
26268  26272  26491  0
26268  26491  26273  0
26274  26487  26118  0
26274  26492  26487  0
26269  26270  26493  0
26269  26493  26275  0
26271  26494  26489  0
26271  26276  26495  0
26271  26495  26494  0
26490  26491  26272  0
26277  26281  25787  0
26277  26496  26281  0
26274  26125  26492  0
26275  26493  26497  0
26125  26279  26492  0
26128  26275  26498  0
26275  26497  26498  0
26278  26126  26499  0
26278  26499  26500  0
26278  26500  26276  0
26126  26129  26499  0
26128  26498  26130  0
26498  26497  26501  0
26129  26282  26502  0
26129  26502  26499  0
26503  26279  26283  0
26282  26504  26502  0
26282  25945  26504  0
26503  26283  26285  0
26130  26498  26286  0
26501  26286  26498  0
25945  26284  26504  0
26285  26505  26503  0
26287  26286  26501  0
26289  26287  26501  0
26506  26289  26501  0
26507  26289  26506  0
26289  26507  26296  0
26290  26296  26507  0
26291  26508  26509  0
26132  26284  26131  0
26296  26288  26289  0
26291  26509  26293  0
26510  26293  26509  0
26509  26508  26510  0
26293  26510  26511  0
26293  26511  26302  0
26512  26302  26511  0
26302  26512  26312  0
26513  26312  26512  0
26312  26513  26313  0
26514  26313  26513  0
26515  26306  26315  0
26516  26306  26515  0
26307  25953  26316  0
26317  26318  26517  0
26518  26318  26310  0
26310  26319  26518  0
26519  26319  26313  0
26520  26313  26514  0
26313  26520  26519  0
26521  26519  26520  0
26314  26321  26315  0
26522  26315  26321  0
26317  26517  26320  0
26523  26320  26517  0
26524  26523  26517  0
26517  26318  26524  0
26318  26518  26524  0
26525  26518  26319  0
26319  26519  26525  0
26526  26525  26519  0
26521  26526  26519  0
26321  26322  26522  0
26527  26522  26322  0
26320  26523  26528  0
26322  26138  26527  0
26529  26527  26138  0
26320  26528  25796  0
26324  25796  26528  0
26529  26138  26144  0
26530  26140  26145  0
26531  26140  26530  0
26140  26531  26323  0
26532  26323  26531  0
26323  26532  26325  0
26533  26325  26532  0
26325  26533  26144  0
26529  26144  26533  0
26324  26327  25959  0
26146  26534  26145  0
26326  25961  25960  0
26326  26328  25961  0
26535  25637  26328  0
25637  26535  26331  0
26332  25964  25802  0
26332  26333  26536  0
26537  25969  26334  0
26336  25969  26537  0
26347  26146  25977  0
26538  26337  26336  0
26340  26337  26538  0
26331  26539  26151  0
26340  26540  26339  0
26541  26339  26540  0
26339  26541  26343  0
26542  26343  26541  0
26343  26542  26344  0
26345  26344  26542  0
26539  26348  26151  0
26338  25818  26543  0
26544  26543  25818  0
25818  26341  26544  0
26348  26539  26349  0
26355  26349  26539  0
26341  25979  26545  0
26341  26545  26546  0
25979  25980  26545  0
25980  25981  26547  0
25981  26157  26547  0
26352  26548  26549  0
26352  26549  26550  0
26551  26550  26549  0
26548  26352  26156  0
26548  26156  26345  0
26157  26350  26547  0
26350  26351  26551  0
26351  26357  26550  0
26351  26550  26551  0
26550  26357  26160  0
26550  26160  26352  0
26355  26552  26356  0
26354  26356  26553  0
26354  26553  26360  0
26358  26554  26353  0
26358  26162  26554  0
26162  26361  26554  0
26361  26555  26554  0
26161  26163  26556  0
26161  26556  26361  0
26163  26362  26557  0
26163  26557  26556  0
26362  26558  26557  0
26362  26364  26558  0
26364  26166  26365  0
26364  26365  26367  0
26364  26367  26559  0
25843  26363  26008  0
26008  26363  26560  0
26367  26168  26368  0
26368  26370  26561  0
26372  26562  26563  0
26562  26372  26171  0
26008  26560  26564  0
26008  26564  26371  0
26171  26565  26562  0
26171  26172  26565  0
26371  26564  26566  0
26371  26566  26169  0
26169  26566  26373  0
26373  26566  26567  0
26177  26372  26568  0
26172  26174  26376  0
26172  26376  26565  0
26374  26175  26022  0
26170  26569  26389  0
26170  26015  26569  0
26379  26382  26570  0
26379  26570  26381  0
26381  26571  26572  0
26381  26572  26369  0
26381  26570  26571  0
26389  26569  26573  0
26015  26176  26574  0
26015  26574  26575  0
26177  26568  26383  0
26375  26183  26392  0
26392  26391  26393  0
26393  26576  26392  0
26393  26188  26394  0
26393  26394  26577  0
26393  26577  26576  0
26394  26578  26577  0
26377  26579  26190  0
26190  26579  26398  0
26180  26384  26580  0
26180  26580  26382  0
26382  26580  26570  0
26386  26389  26573  0
26386  26573  26581  0
26386  26581  26388  0
26176  26196  26574  0
26394  26395  26582  0
26394  26582  26578  0
26395  26396  26583  0
26395  26583  26582  0
26396  26397  26584  0
26396  26584  26583  0
26398  26585  26191  0
26399  26586  26384  0
26399  26400  26586  0
26388  26587  26401  0
26196  26409  26588  0
26196  26588  26574  0
26390  26589  26197  0
26397  26402  26584  0
26402  26403  26590  0
26201  26404  26591  0
26201  26591  26405  0
26405  26591  26592  0
26405  26592  26209  0
26209  26592  26418  0
26202  26210  26593  0
26202  26593  26400  0
26400  26593  26594  0
26400  26594  26586  0
26401  26595  26407  0
26401  26587  26596  0
26401  26596  26595  0
26409  26416  26588  0
26197  26589  26597  0
26197  26597  26410  0
26403  26412  26598  0
26403  26598  26590  0
26209  26418  26208  0
26210  26421  26593  0
26593  26421  26599  0
26593  26599  26594  0
26406  26407  26414  0
26407  26595  26596  0
26407  26596  26600  0
26407  26600  26414  0
26415  26601  26416  0
26416  26601  26602  0
26411  26410  26597  0
26411  26597  26603  0
26411  26603  26425  0
26412  26417  26604  0
26412  26604  26598  0
26605  26420  26419  0
26605  26419  26606  0
26605  26606  26607  0
26605  26607  26608  0
26605  26608  26420  0
26421  26422  26609  0
26421  26609  26599  0
26415  26610  26601  0
26601  26610  26611  0
26601  26611  26602  0
26425  26603  26612  0
26417  26219  26608  0
26219  26420  26608  0
26422  26423  26609  0
26423  26424  26609  0
26610  26613  26611  0
26612  26426  26425  0
26426  26612  26614  0
26426  26614  26427  0
26615  26427  26614  0
26429  26613  26616  0
26428  26427  26617  0
26615  26617  26427  0
26428  26617  26429  0
26616  26618  26429  0
26430  26429  26618  0
26225  26431  26432  0
26435  26431  26230  0
26431  26619  26432  0
26620  26432  26619  0
26431  26435  26619  0
26621  26619  26435  0
26432  26620  26433  0
26622  26433  26620  0
26433  26622  26434  0
26436  26434  26622  0
26435  26233  26621  0
26623  26621  26233  0
26436  26624  26437  0
26625  26437  26624  0
26233  26082  26623  0
26440  26623  26082  0
26437  26625  26438  0
26626  26439  26443  0
26439  26626  25895  0
26444  25895  26626  0
26438  26627  26441  0
26441  26628  26446  0
26629  26447  26446  0
26447  26630  26443  0
26447  26629  26630  0
26631  26630  26629  0
26443  26630  26626  0
26632  26444  26626  0
26444  26632  26448  0
26633  26446  26628  0
26446  26633  26629  0
26631  26629  26633  0
26634  26086  26236  0
26086  26634  26450  0
26451  26237  26450  0
26635  26453  26452  0
26453  26635  26238  0
26449  26238  26635  0
26636  26452  26455  0
26636  26637  26452  0
26636  26455  26638  0
26458  26638  26455  0
26636  26638  26639  0
26638  26458  26640  0
26457  26640  26458  0
26460  26640  26457  0
26457  26242  26460  0
26244  26461  26459  0
26641  26459  26461  0
26459  26641  26462  0
26463  26462  26641  0
26246  26248  26642  0
26467  26642  26248  0
26464  26473  26252  0
26461  26465  26641  0
26643  26641  26465  0
26641  26643  26463  0
26471  26463  26643  0
26466  26463  26471  0
26465  26468  26643  0
26472  26471  26643  0
26256  26467  26257  0
26473  26644  26258  0
26477  26258  26644  0
26645  26468  26254  0
26468  26645  26643  0
26643  26645  26472  0
26477  26646  26478  0
26647  26478  26646  0
26254  26259  26645  0
26472  26648  26470  0
26475  26480  26479  0
26649  26476  26479  0
26481  26476  26649  0
26478  26647  26483  0
26259  26484  26645  0
26650  26645  26484  0
26470  26651  26480  0
26652  26480  26651  0
26653  26479  26480  0
26479  26653  26649  0
26654  26481  26649  0
26481  26655  26485  0
26656  26485  26655  0
26481  26654  26655  0
26657  26484  26262  0
26658  26645  26650  0
26645  26658  26472  0
26648  26472  26658  0
26265  26485  26486  0
26659  26486  26485  0
26485  26656  26659  0
26482  26273  26660  0
26483  26661  26277  0
26262  26487  26662  0
26262  26662  26657  0
26270  26488  26663  0
26488  26486  26663  0
26664  26663  26486  0
26486  26659  26665  0
26486  26665  26664  0
26659  26656  26666  0
26659  26666  26665  0
26496  26277  26661  0
26270  26663  26667  0
26270  26667  26493  0
26489  26494  26490  0
26492  26668  26487  0
26495  26276  26669  0
26670  26495  26671  0
26495  26669  26671  0
26495  26670  26494  0
26494  26672  26490  0
26490  26673  26491  0
26491  26673  26674  0
26491  26674  26273  0
26492  26279  26675  0
26492  26675  26668  0
26497  26493  26676  0
26669  26276  26500  0
26669  26500  26677  0
26669  26677  26671  0
26281  26496  26678  0
26279  26679  26675  0
26676  26680  26497  0
26500  26681  26682  0
26500  26682  26677  0
26500  26499  26681  0
26499  26502  26681  0
26281  26678  26280  0
26279  26503  26679  0
26497  26680  26506  0
26680  26683  26684  0
26680  26684  26506  0
26680  26676  26683  0
26681  26502  26685  0
26502  26504  26686  0
26502  26686  26685  0
26280  26687  26285  0
26497  26506  26501  0
26506  26684  26507  0
26684  26688  26507  0
26684  26683  26688  0
26688  26689  26290  0
26688  26290  26507  0
26688  26690  26689  0
26689  26291  26290  0
26291  26691  26508  0
26291  26689  26692  0
26291  26692  26691  0
26691  26692  26693  0
26691  26693  26694  0
26686  26504  26695  0
26504  26284  26695  0
26508  26691  26694  0
26508  26694  26696  0
26284  26132  26697  0
26132  26698  26697  0
26285  26687  26505  0
26510  26508  26696  0
26510  26696  26699  0
26132  26294  26698  0
26511  26510  26700  0
26511  26700  26701  0
26511  26701  26702  0
26511  26702  26512  0
26512  26702  26703  0
26512  26703  26704  0
26512  26704  26513  0
26513  26705  26514  0
26513  26704  26705  0
26306  26516  26316  0
26316  26706  26307  0
26307  26707  26294  0
26514  26705  26708  0
26514  26708  26520  0
26520  26708  26709  0
26520  26709  26521  0
26315  26522  26515  0
26516  26706  26316  0
26523  26524  26710  0
26518  26525  26524  0
26526  26521  26711  0
26526  26712  26525  0
26522  26713  26515  0
26522  26527  26713  0
26528  26523  26714  0
26710  26524  26715  0
26524  26525  26716  0
26524  26716  26715  0
26525  26712  26716  0
26528  26714  26324  0
26529  26717  26527  0
26145  26534  26530  0
26533  26532  26718  0
26533  26718  26529  0
26328  26326  26719  0
26720  26719  26326  0
26721  26720  26326  0
26326  25962  26721  0
25962  25800  26721  0
26329  26721  25800  0
26327  26722  26147  0
26328  26719  26535  0
26723  26329  25963  0
25963  25964  26723  0
26724  26723  25964  0
26147  26722  26330  0
25964  26332  26724  0
26536  26724  26332  0
26725  26336  26537  0
26336  26725  26538  0
26726  26540  26727  0
26728  26727  26540  0
26727  26729  26726  0
26542  26726  26729  0
26331  26535  26539  0
26730  26539  26535  0
26333  26335  26536  0
26731  26536  26335  0
26340  26728  26540  0
26540  26726  26541  0
26542  26541  26726  0
26345  26542  26732  0
26542  26733  26732  0
26734  26732  26733  0
26735  26347  26346  0
26736  26338  26543  0
26543  26544  26736  0
26546  26544  26341  0
26549  26737  26738  0
26734  26738  26737  0
26737  26549  26732  0
26548  26732  26549  0
26737  26732  26734  0
26732  26548  26345  0
26539  26739  26355  0
26552  26355  26739  0
26546  26736  26544  0
26546  26545  26740  0
26741  26545  25980  0
25980  26547  26741  0
26742  26741  26547  0
26350  26742  26547  0
26742  26350  26738  0
26551  26738  26350  0
26738  26551  26549  0
26743  26735  26346  0
26744  26356  26552  0
26346  26353  26743  0
26553  26356  26744  0
26353  26554  26745  0
26746  26745  26554  0
26747  26746  26554  0
26554  26555  26747  0
26555  26361  26556  0
26555  26556  26747  0
26557  26747  26556  0
26748  26360  26553  0
26557  26558  26749  0
26750  26749  26558  0
26360  26748  26165  0
26364  26559  26558  0
26559  26750  26558  0
26751  26750  26559  0
26165  26748  26363  0
26559  26367  26751  0
26752  26751  26367  0
26368  26752  26367  0
26561  26752  26368  0
26753  26563  26562  0
26754  26753  26562  0
26566  26564  26755  0
26755  26756  26566  0
26757  26758  26759  0
26563  26760  26372  0
26374  26373  26567  0
26567  26761  26374  0
26762  26757  26763  0
26757  26759  26763  0
26764  26759  26758  0
26765  26568  26372  0
26766  26565  26376  0
26767  26766  26376  0
26374  26761  26175  0
26768  26175  26761  0
26377  26175  26768  0
26763  26759  26769  0
26764  26769  26759  0
26369  26572  26370  0
26770  26771  26015  0
26015  26575  26770  0
26376  26375  26772  0
26376  26772  26767  0
26772  26375  26392  0
26392  26576  26773  0
26377  26774  26579  0
26775  26776  26777  0
26778  26777  26776  0
26775  26779  26776  0
26780  26776  26779  0
26776  26780  26778  0
26781  26778  26780  0
26778  26781  26782  0
26576  26577  26773  0
26577  26783  26773  0
26577  26578  26783  0
26579  26784  26585  0
26579  26585  26398  0
26579  26774  26784  0
26785  26777  26786  0
26785  26786  26591  0
26785  26787  26775  0
26785  26775  26777  0
26785  26591  26787  0
26777  26778  26788  0
26777  26788  26786  0
26778  26782  26788  0
26782  26789  26788  0
26570  26580  26790  0
26581  26573  26791  0
26581  26792  26388  0
26575  26574  26793  0
26582  26583  26794  0
26582  26794  26578  0
26583  26584  26795  0
26583  26795  26794  0
26191  26585  26796  0
26191  26796  26404  0
26404  26796  26787  0
26404  26787  26591  0
26591  26786  26592  0
26786  26788  26797  0
26786  26797  26798  0
26786  26798  26592  0
26788  26789  26797  0
26586  26790  26384  0
26384  26790  26580  0
26388  26792  26799  0
26388  26799  26587  0
26574  26588  26800  0
26574  26800  26793  0
26584  26402  26590  0
26584  26590  26801  0
26584  26801  26795  0
26592  26798  26802  0
26592  26802  26418  0
26586  26594  26803  0
26588  26416  26804  0
26588  26804  26800  0
26801  26590  26805  0
26590  26598  26805  0
26806  26419  26418  0
26806  26418  26802  0
26806  26802  26807  0
26806  26807  26606  0
26806  26606  26419  0
26596  26587  26808  0
26416  26602  26809  0
26416  26809  26804  0
26804  26809  26810  0
26804  26810  26800  0
26598  26604  26811  0
26598  26811  26805  0
26604  26417  26608  0
26604  26608  26812  0
26604  26812  26811  0
26608  26607  26813  0
26608  26813  26812  0
26607  26606  26814  0
26607  26814  26813  0
26599  26609  26815  0
26599  26815  26594  0
26600  26596  26808  0
26600  26816  26414  0
26602  26611  26817  0
26602  26817  26809  0
26809  26817  26818  0
26809  26818  26810  0
26603  26819  26612  0
26609  26424  26815  0
26424  26414  26816  0
26611  26613  26820  0
26611  26820  26817  0
26817  26820  26821  0
26817  26821  26818  0
26613  26617  26820  0
26820  26617  26615  0
26820  26615  26614  0
26820  26614  26822  0
26820  26822  26821  0
26614  26612  26822  0
26613  26429  26617  0
26619  26621  26823  0
26619  26823  26620  0
26622  26824  26624  0
26622  26624  26436  0
26622  26620  26824  0
26621  26825  26823  0
26824  26826  26624  0
26624  26826  26827  0
26624  26827  26625  0
26623  26828  26621  0
26625  26627  26438  0
26625  26827  26829  0
26625  26829  26627  0
26623  26440  26830  0
26623  26830  26828  0
26440  26445  26831  0
26440  26831  26830  0
26627  26628  26441  0
26627  26832  26628  0
26630  26833  26626  0
26630  26631  26833  0
26626  26833  26834  0
26626  26834  26632  0
26632  26834  26835  0
26632  26835  26448  0
26445  26235  26449  0
26628  26832  26836  0
26628  26836  26837  0
26628  26837  26633  0
26633  26837  26631  0
26631  26837  26833  0
26445  26449  26635  0
26445  26635  26831  0
26634  26236  26448  0
26634  26838  26450  0
26839  26635  26452  0
26839  26452  26637  0
26839  26637  26840  0
26839  26840  26841  0
26635  26839  26831  0
26450  26842  26451  0
26450  26838  26842  0
26840  26637  26636  0
26840  26636  26843  0
26840  26843  26844  0
26636  26639  26845  0
26636  26845  26843  0
26638  26640  26846  0
26638  26846  26639  0
26100  26456  26464  0
26640  26460  26847  0
26640  26847  26848  0
26640  26848  26846  0
26460  26246  26642  0
26460  26642  26849  0
26460  26849  26847  0
26642  26467  26850  0
26473  26464  26851  0
26473  26851  26852  0
26473  26852  26644  0
26644  26852  26853  0
26644  26853  26854  0
26644  26854  26477  0
26467  26256  26855  0
26482  26855  26256  0
26477  26854  26646  0
26483  26647  26856  0
26483  26856  26661  0
26480  26652  26653  0
26857  26653  26652  0
26653  26857  26858  0
26653  26858  26649  0
26649  26858  26654  0
26655  26654  26859  0
26655  26859  26656  0
26860  26482  26660  0
26484  26657  26650  0
26650  26861  26658  0
26648  26862  26470  0
26470  26862  26651  0
26863  26652  26651  0
26652  26863  26857  0
26656  26864  26666  0
26865  26666  26864  0
26656  26859  26864  0
26866  26865  26864  0
26657  26867  26650  0
26657  26662  26867  0
26868  26867  26662  0
26869  26664  26665  0
26665  26666  26869  0
26870  26869  26666  0
26666  26865  26870  0
26871  26870  26865  0
26668  26662  26487  0
26868  26662  26668  0
26663  26664  26667  0
26872  26667  26664  0
26664  26869  26872  0
26870  26871  26873  0
26273  26674  26660  0
26676  26493  26667  0
26667  26872  26676  0
26874  26676  26872  0
26872  26869  26875  0
26872  26875  26874  0
26869  26870  26875  0
26873  26875  26870  0
26672  26494  26670  0
26676  26874  26876  0
26877  26670  26671  0
26878  26671  26677  0
26670  26877  26672  0
26879  26672  26877  0
26672  26879  26490  0
26673  26490  26879  0
26677  26682  26878  0
26880  26878  26682  0
26679  26503  26881  0
26676  26876  26683  0
26688  26683  26876  0
26876  26874  26688  0
26690  26688  26874  0
26882  26690  26874  0
26690  26882  26689  0
26883  26689  26882  0
26689  26883  26692  0
26884  26692  26883  0
26692  26884  26693  0
26885  26693  26884  0
26693  26885  26886  0
26682  26681  26887  0
26682  26887  26880  0
26888  26887  26681  0
26681  26685  26888  0
26686  26888  26685  0
26889  26280  26678  0
26280  26889  26687  0
26693  26886  26694  0
26890  26694  26886  0
26888  26686  26891  0
26892  26891  26686  0
26686  26695  26892  0
26893  26503  26505  0
26696  26694  26894  0
26890  26894  26694  0
26895  26696  26894  0
26695  26284  26892  0
26896  26892  26284  0
26284  26697  26896  0
26505  26897  26893  0
26898  26893  26897  0
26510  26699  26700  0
26895  26899  26699  0
26699  26899  26700  0
26699  26696  26895  0
26505  26900  26897  0
26701  26700  26901  0
26899  26901  26700  0
26707  26698  26294  0
26702  26701  26901  0
26902  26702  26901  0
26702  26902  26703  0
26903  26703  26902  0
26703  26903  26704  0
26704  26903  26705  0
26904  26705  26903  0
26905  26705  26904  0
26705  26905  26708  0
26906  26521  26709  0
26706  26907  26307  0
26307  26907  26707  0
26526  26711  26712  0
26521  26906  26908  0
26521  26908  26711  0
26515  26713  26516  0
26516  26713  26909  0
26715  26716  26910  0
26712  26711  26911  0
26712  26911  26912  0
26712  26912  26716  0
26711  26908  26911  0
26523  26710  26913  0
26523  26913  26714  0
26710  26715  26914  0
26710  26914  26913  0
26715  26910  26914  0
26910  26716  26912  0
26324  26714  26327  0
26714  26913  26327  0
26531  26530  26915  0
26531  26915  26532  0
26532  26915  26718  0
26718  26916  26717  0
26718  26717  26529  0
26327  26913  26722  0
26530  26534  26917  0
26530  26917  26915  0
26915  26917  26918  0
26915  26918  26718  0
26718  26918  26916  0
26329  26919  26721  0
26534  26146  26920  0
26329  26723  26919  0
26330  26722  26921  0
26146  26347  26920  0
26536  26922  26724  0
26334  26330  26923  0
26334  26923  26537  0
26537  26923  26924  0
26537  26924  26725  0
26538  26728  26340  0
26538  26725  26925  0
26538  26925  26728  0
26728  26925  26926  0
26728  26926  26727  0
26727  26926  26927  0
26727  26927  26729  0
26536  26731  26922  0
26731  26335  25972  0
26731  25972  26928  0
26542  26729  26733  0
26730  26929  26539  0
25971  26338  26930  0
25971  26930  25972  0
26931  26738  26932  0
26931  26932  26933  0
26932  26738  26734  0
26734  26733  26932  0
26347  26735  26920  0
26539  26929  26739  0
26930  26338  26934  0
26338  26736  26934  0
26931  26742  26738  0
26931  26935  26742  0
26930  26934  26936  0
26934  26736  26937  0
26736  26546  26938  0
26736  26938  26937  0
26546  26740  26938  0
26740  26545  26741  0
26741  26742  26935  0
26353  26745  26939  0
26353  26939  26743  0
26940  26745  26746  0
26941  26942  26943  0
26941  26943  26747  0
26746  26747  26943  0
26746  26943  26940  0
26747  26944  26941  0
26747  26557  26749  0
26747  26749  26945  0
26747  26945  26944  0
26749  26750  26946  0
26749  26946  26945  0
26750  26751  26946  0
26751  26752  26947  0
26752  26948  26947  0
26949  26560  26363  0
26949  26755  26560  0
26752  26561  26950  0
26950  26561  26951  0
26950  26951  26952  0
26953  26563  26753  0
26560  26755  26564  0
26954  26955  26956  0
26957  26956  26955  0
26955  26958  26959  0
26955  26954  26958  0
26958  26762  26959  0
26960  26958  26954  0
26958  26960  26757  0
26958  26757  26762  0
26961  26757  26960  0
26962  26561  26370  0
26561  26962  26951  0
26565  26754  26562  0
26754  26565  26963  0
26567  26566  26756  0
26756  26964  26567  0
26955  26959  26957  0
26965  26957  26959  0
26966  26965  26959  0
26959  26762  26966  0
26763  26966  26762  0
26757  26961  26758  0
26765  26372  26760  0
26766  26767  26967  0
26567  26964  26761  0
26965  26966  26968  0
26969  26968  26966  0
26966  26763  26969  0
26970  26969  26763  0
26769  26970  26763  0
26758  26961  26764  0
26971  26764  26961  0
26767  26772  26967  0
26768  26972  26377  0
26969  26970  26973  0
26779  26973  26970  0
26974  26969  26973  0
26970  26769  26779  0
26780  26779  26769  0
26769  26764  26780  0
26781  26780  26764  0
26764  26971  26781  0
26975  26781  26971  0
26370  26572  26962  0
26976  26962  26572  0
26015  26771  26569  0
26977  26569  26771  0
26978  26772  26392  0
26392  26773  26978  0
26377  26972  26774  0
26979  26784  26774  0
26980  26973  26981  0
26787  26981  26973  0
26974  26973  26980  0
26979  26980  26981  0
26973  26779  26787  0
26775  26787  26779  0
26982  26781  26975  0
26781  26982  26782  0
26976  26572  26571  0
26983  26573  26569  0
26984  26791  26573  0
26569  26977  26983  0
26985  26770  26575  0
26575  26793  26985  0
26784  26981  26585  0
26796  26585  26981  0
26784  26979  26981  0
26981  26787  26796  0
26986  26789  26782  0
26782  26982  26986  0
26987  26986  26982  0
26570  26988  26571  0
26989  26571  26988  0
26570  26790  26988  0
26581  26791  26792  0
26990  26791  26984  0
26783  26578  26991  0
26992  26991  26578  0
26578  26794  26992  0
26993  26992  26794  0
26794  26795  26993  0
26994  26993  26795  0
26995  26798  26797  0
26797  26789  26996  0
26997  26996  26789  0
26797  26996  26995  0
26998  26995  26996  0
26789  26986  26997  0
26987  26997  26986  0
26586  26999  26790  0
27000  26999  26586  0
26988  26790  26999  0
26990  26792  26791  0
27001  26799  26792  0
26795  26801  26994  0
26805  26994  26801  0
26994  26805  27002  0
26798  26995  27003  0
26998  27003  26995  0
26798  27003  26802  0
27004  26802  27003  0
26586  26803  27000  0
27005  26587  26799  0
26799  27001  27005  0
27006  27005  27001  0
26811  27007  26805  0
26805  27007  27002  0
27008  27002  27007  0
26812  27007  26811  0
27007  26812  27009  0
26813  27009  26812  0
27007  27009  27008  0
27010  27008  27009  0
27009  26813  27011  0
26814  27011  26813  0
27009  27011  27010  0
27012  27010  27011  0
27011  26814  26807  0
26606  26807  26814  0
27011  26807  27012  0
27013  27012  26807  0
26807  26802  27013  0
27004  27013  26802  0
27014  26803  26594  0
26587  27005  26808  0
27015  26808  27005  0
27005  27006  27015  0
27016  27015  27006  0
26594  26815  27014  0
27017  27014  26815  0
27018  27017  26815  0
26815  26424  27018  0
26600  26808  26816  0
27019  26816  26808  0
26808  27015  27019  0
27020  27019  27015  0
26424  26816  27018  0
27019  27018  26816  0
27021  26822  26819  0
26612  26819  26822  0
26821  26822  27022  0
26824  26620  26823  0
27023  26823  26825  0
27024  26825  26621  0
26823  27023  26824  0
26826  26824  27023  0
26621  26828  27024  0
26826  27025  27026  0
26826  27026  26827  0
26827  27026  27027  0
26827  27027  26829  0
26829  27028  26627  0
26832  26627  27028  0
26829  27027  27028  0
26828  26830  26841  0
26828  26841  27029  0
26837  27030  26833  0
26833  27030  27031  0
26833  27031  26834  0
26834  27031  27032  0
26834  27032  26835  0
26835  27032  27033  0
26835  27033  26448  0
26841  26830  26839  0
26830  26831  26839  0
26836  26832  27034  0
26836  27034  26837  0
26448  27033  27035  0
26448  27035  26634  0
26844  26841  26840  0
26844  27036  26841  0
26838  26634  27035  0
26842  26838  27037  0
26842  27037  26451  0
26845  26639  27038  0
26456  26451  27039  0
27040  26639  26846  0
27040  26846  27041  0
27040  27038  26639  0
26456  27039  26464  0
27041  26846  26848  0
27041  27042  27040  0
27039  26851  26464  0
27039  27043  26851  0
26848  26847  27044  0
26848  27044  27041  0
26847  26849  27044  0
26849  26642  27045  0
26849  27045  27046  0
26849  27046  27044  0
26642  26850  27045  0
26852  27047  26853  0
27047  27048  26853  0
26850  26467  26855  0
26853  27048  27049  0
26854  26853  27049  0
26854  27050  26646  0
26482  27051  26855  0
26646  27050  26856  0
26646  26856  26647  0
26482  26860  27052  0
26482  27052  27051  0
26856  27053  26661  0
26857  26863  26858  0
26661  27053  27054  0
26648  26658  27055  0
26648  27055  26862  0
26862  27056  26651  0
26651  27056  26863  0
26863  27056  27057  0
26863  27057  27058  0
26863  27058  26858  0
26858  27058  27059  0
26858  27059  26654  0
26654  27059  26859  0
26859  26866  26864  0
26661  27054  27060  0
26661  27060  26496  0
26867  26868  27061  0
26650  26867  26861  0
26859  27062  26866  0
26866  27062  26865  0
26668  27063  26868  0
26668  26675  27063  0
26873  26871  27064  0
26871  27065  27064  0
26871  26865  27065  0
26675  27066  27063  0
26875  26882  26874  0
26875  26873  26882  0
26496  27060  26678  0
26675  26679  27067  0
26675  27067  27066  0
26882  26873  26883  0
26873  27064  26884  0
26873  26884  26883  0
27064  27068  26884  0
27064  27065  27068  0
26671  26878  27069  0
26671  27069  26877  0
26879  27070  26673  0
26879  26877  27071  0
26879  27071  27070  0
26673  27070  27072  0
26673  27072  26674  0
26674  27073  26660  0
26674  27072  27073  0
26679  26881  27067  0
27067  27074  27066  0
27075  27076  27077  0
26884  27068  26885  0
27068  27078  26885  0
26878  27079  27069  0
26878  26880  27080  0
26878  27080  27079  0
27067  26881  27081  0
27067  27081  27074  0
26885  27078  27082  0
26885  27082  26886  0
26880  26887  27083  0
26880  27083  27080  0
26503  26893  26881  0
26881  26893  27081  0
26886  27082  27084  0
26886  27084  26890  0
27085  26890  27084  0
26887  26888  27086  0
26887  27086  27087  0
26887  27087  27083  0
26888  26891  27086  0
26891  26892  27086  0
26889  27088  26687  0
27089  26687  27088  0
27090  27091  27075  0
26894  27092  26895  0
26894  26890  27085  0
27086  26892  27093  0
27086  27093  27087  0
27094  27093  26892  0
26892  26896  27094  0
26505  26687  27089  0
27090  27095  27096  0
27090  27097  27091  0
27098  27091  27097  0
27099  27098  27100  0
27100  26899  27099  0
27092  27099  26899  0
26899  26895  27092  0
26900  26505  27089  0
27101  26897  26900  0
26897  27101  26898  0
27096  27102  27090  0
27090  27102  27097  0
27103  27098  27097  0
27098  27103  27100  0
26901  27100  27103  0
27100  26901  26899  0
26698  26707  27104  0
27096  27105  27102  0
27106  27105  27096  0
27102  27107  27097  0
27097  27107  27103  0
27108  27103  27107  0
27103  27108  26901  0
27109  26901  27108  0
26901  27109  26902  0
27105  27106  27110  0
27111  27107  27102  0
27112  27109  27108  0
27113  26902  27109  0
26902  27113  26903  0
27114  26903  27113  0
26903  27114  26904  0
27115  26904  27114  0
26904  27115  26905  0
27116  26905  27115  0
26905  27116  26708  0
27117  26708  27116  0
26708  27117  26709  0
26906  26709  27117  0
27118  26707  26907  0
27119  27105  27110  0
27105  27119  27102  0
27111  27102  27119  0
27120  27107  27111  0
27107  27120  27108  0
27121  26908  26906  0
26516  27122  26706  0
27123  26907  26706  0
27111  27124  27120  0
27125  26912  26911  0
26911  26908  27125  0
27121  27125  26908  0
27126  26713  26527  0
26713  27127  26909  0
27122  26516  26909  0
27123  26706  27122  0
27128  27111  27119  0
27111  27128  27124  0
27129  26910  26912  0
26912  27125  27129  0
26527  26717  27126  0
27130  27126  26717  0
26910  27129  26914  0
26722  26913  26914  0
27130  26717  26916  0
26534  27131  26917  0
27132  26917  27131  0
26917  27132  26918  0
27133  26916  26918  0
26916  27133  27130  0
27134  27130  27133  0
27131  26534  27135  0
26534  26920  27135  0
27136  26918  27132  0
26918  27136  27133  0
26719  26720  27137  0
26919  26720  26721  0
26722  27138  26921  0
26923  26330  26921  0
26924  27139  26725  0
26925  26725  27139  0
27139  27140  26925  0
27141  26925  27140  0
26925  27142  26926  0
26927  26926  27142  0
26925  27141  27142  0
26719  27137  26535  0
26723  26724  27143  0
26927  27144  27145  0
26927  27145  27146  0
26927  27146  26729  0
26535  27137  27147  0
26535  27147  26730  0
26724  26922  27148  0
26724  27148  27143  0
26731  26928  27149  0
26731  27149  26922  0
27146  26933  26932  0
27146  27150  27151  0
27146  27151  26933  0
27146  26932  26733  0
27146  26733  26729  0
27149  26928  27152  0
26928  25972  26930  0
26928  26930  27153  0
26928  27153  27152  0
27154  26935  26931  0
27154  26931  26933  0
27154  26933  27151  0
27154  27155  26935  0
26920  26735  26743  0
27153  26930  26936  0
27153  26936  27156  0
26935  27155  27157  0
26935  27157  26741  0
26936  26934  27158  0
26936  27158  27159  0
26936  27159  27156  0
26934  26937  27158  0
26740  26741  27160  0
27158  27161  27162  0
27158  27162  27159  0
27158  26937  27163  0
27158  27163  27161  0
27161  27163  27164  0
27161  27164  27162  0
27163  26937  27165  0
26552  26739  27166  0
26552  27166  26744  0
26745  26940  26939  0
26940  26943  26942  0
26940  26942  27167  0
26940  27167  26939  0
26942  26941  27168  0
26942  27168  27167  0
26941  26944  27169  0
26941  27169  27168  0
26944  26945  27170  0
26944  27170  27171  0
26944  27171  27169  0
26945  27172  27170  0
26553  26744  27173  0
26744  27166  27173  0
27174  27175  27176  0
27174  27177  27178  0
27174  27178  27175  0
26945  26946  27179  0
26945  27179  27172  0
26553  27173  26748  0
26751  26947  26946  0
26946  26947  27180  0
26946  27180  27179  0
26748  27173  26949  0
26748  26949  26363  0
26947  26948  27180  0
26948  26752  26950  0
26948  26950  26952  0
26948  26952  27181  0
26949  27182  26755  0
27183  27184  26954  0
