#!ascii file
26751  27115  27114  0
26941  27116  26942  0
26942  27117  26753  0
26753  26943  26758  0
26764  26549  26949  0
26764  26949  27111  0
27111  26949  27118  0
27111  27118  27119  0
27117  27120  26753  0
26753  27120  26943  0
26765  26937  27121  0
26944  27122  26938  0
26944  26945  27123  0
26944  27123  27122  0
26945  27124  27123  0
26945  26946  27125  0
26945  27125  27124  0
26763  27126  26755  0
26949  26951  27127  0
26949  27127  27118  0
26765  27121  26947  0
26946  26948  27128  0
26946  27128  27125  0
26948  27129  27128  0
26767  27130  26546  0
26767  26755  27130  0
26768  27131  26948  0
26546  27132  26950  0
26546  27130  27132  0
26952  26947  27133  0
26952  27133  27134  0
26768  26953  27131  0
26952  27134  26771  0
26956  26958  26554  0
26956  27135  26958  0
27136  26958  27135  0
27137  26957  26771  0
27138  27139  27140  0
26958  27136  26959  0
26960  26959  27141  0
26961  27142  26772  0
27143  27140  27144  0
27140  27139  27144  0
27145  27144  27139  0
27146  27139  27138  0
27139  27146  27145  0
27143  27144  27147  0
27148  27147  27144  0
27144  27145  27149  0
27150  27149  27145  0
27145  27151  27150  0
26968  27150  27151  0
27152  27151  27145  0
26966  26968  27151  0
26969  26966  27151  0
27153  27151  27152  0
27151  27153  26969  0
27154  26969  27153  0
26774  27155  26970  0
27156  26970  27155  0
26565  26962  26963  0
26964  26776  26963  0
27157  27147  27148  0
27148  27144  27158  0
26972  27158  27144  0
27148  27158  27157  0
27159  27157  27158  0
27144  27149  26972  0
26973  26972  27149  0
27149  27150  26973  0
26975  26973  27150  0
27150  26968  26975  0
26967  26975  26968  0
26969  27154  26778  0
27160  26970  27156  0
26970  27160  26962  0
27161  26962  27160  0
26962  27161  26963  0
27162  26963  27161  0
26963  27162  26964  0
26965  26964  27162  0
27163  26978  27164  0
27165  27164  26978  0
26978  27163  26782  0
26981  26980  27166  0
27159  27166  27167  0
27166  26980  27167  0
27168  27167  26980  0
27166  27158  26981  0
26974  26981  27158  0
27166  27159  27158  0
27158  26972  26974  0
26977  27165  26978  0
26977  26788  27165  0
27169  27165  26788  0
26782  27163  26979  0
27168  26980  26979  0
26977  26781  26788  0
27170  27169  26788  0
27171  26790  26982  0
26788  26983  27170  0
27172  26983  26791  0
26791  26792  27172  0
27173  26792  26793  0
27174  26985  26789  0
26789  26790  27174  0
27171  27174  26790  0
27175  27173  26793  0
26793  26794  27175  0
26794  26984  27175  0
26579  26795  27176  0
26795  26796  27176  0
26581  26985  26800  0
26991  26800  26985  0
26986  27176  26796  0
26798  26986  26582  0
26989  26802  27177  0
26994  27177  26802  0
26805  26988  26382  0
26995  26588  26992  0
27178  27179  27180  0
27181  27180  27179  0
27179  27182  27181  0
27001  26806  26997  0
27178  27180  27183  0
27180  27181  27184  0
27180  27185  27183  0
27181  27186  27187  0
27181  27187  27184  0
27181  27182  27188  0
27181  27188  27186  0
27180  27184  27189  0
27180  27189  27190  0
27180  27190  27191  0
27180  27191  27185  0
27184  27187  27192  0
27184  27192  27189  0
27187  27186  27193  0
27187  27193  27192  0
26592  27000  26998  0
27190  27189  27194  0
27189  27192  27195  0
27189  27195  27194  0
27192  27196  27195  0
27192  27193  27197  0
27192  27197  27196  0
27196  27197  27198  0
26999  26811  27199  0
27194  27195  27200  0
27194  27200  27201  0
27194  27201  27190  0
27195  27196  27202  0
27195  27202  27200  0
27196  27198  27203  0
27196  27203  27202  0
26811  27002  27204  0
26811  27204  27199  0
27200  27205  27201  0
26812  27005  27206  0
26812  27206  27003  0
26599  26813  27207  0
26599  27207  27005  0
26398  27004  27208  0
26398  27208  26399  0
27006  27207  26813  0
26399  27208  27209  0
26399  27209  27011  0
27007  27006  26815  0
27009  27008  27210  0
27009  27210  27211  0
27008  27011  27209  0
27008  27209  27210  0
27017  27016  27212  0
27017  27212  27213  0
27017  27012  26819  0
27017  27213  27012  0
27012  27213  27214  0
27012  27214  26818  0
26818  27214  27007  0
27010  27009  27215  0
27010  27215  26822  0
27013  27216  27014  0
27014  27216  27217  0
27014  27217  27015  0
27015  27217  27218  0
27015  27218  27212  0
27015  27212  27016  0
26822  27215  27018  0
26825  27019  27219  0
27018  27215  27220  0
27018  27220  27021  0
27019  27020  27219  0
27026  27221  26835  0
27222  27034  27030  0
27222  27030  27223  0
27222  27224  27225  0
27222  27225  27034  0
27223  27030  27032  0
27032  27031  27226  0
27032  27226  27227  0
27032  27227  27223  0
27226  27031  27228  0
27022  27021  27220  0
27022  27220  27229  0
27020  27023  27230  0
27023  27024  27231  0
27023  27231  27230  0
27024  27025  27232  0
27024  27232  27231  0
27025  26835  27221  0
27025  27221  27232  0
27028  27029  27233  0
27225  27234  27235  0
27225  27235  27035  0
27225  27035  27034  0
27031  27038  27040  0
27031  27040  27228  0
27035  27235  27236  0
27228  27040  27049  0
27049  27050  27237  0
27049  27237  27228  0
27041  27238  26857  0
26626  27042  27239  0
27022  27240  27043  0
27043  27240  27241  0
27043  27241  27044  0
27029  27033  27242  0
27236  27243  27045  0
27236  27045  27035  0
27236  27244  27243  0
27050  26640  27054  0
27044  27241  27245  0
27044  27245  26843  0
26843  27245  27246  0
27052  27247  27033  0
27033  27248  27242  0
27033  27247  27248  0
27243  27249  27056  0
27243  27056  27045  0
27243  27244  27250  0
27243  27250  27249  0
27051  26851  27251  0
26843  27246  27060  0
27052  27252  27247  0
27056  27249  27062  0
27056  27062  27055  0
26851  27253  27251  0
27059  26859  27254  0
26859  26864  27254  0
27060  27255  26864  0
27052  26865  27252  0
27064  27252  26865  0
27252  27064  27247  0
27256  27247  27064  0
27250  27257  27249  0
27250  27258  27257  0
27249  27257  27062  0
27259  27062  27257  0
27062  27259  27061  0
27067  27061  27259  0
27061  27067  27063  0
27255  27254  26864  0
27064  27065  27256  0
27065  26871  27256  0
27068  27256  26871  0
27256  27068  27260  0
27261  27257  27069  0
27257  27258  27069  0
27260  27069  27258  0
27257  27261  27259  0
27262  27259  27261  0
27259  27262  27067  0
27071  27067  27262  0
27068  27069  27260  0
27069  27070  27261  0
27261  27070  27262  0
27072  27262  27070  0
27262  27072  27071  0
26889  27074  27263  0
27263  27264  26889  0
26890  26889  27264  0
27265  26890  27264  0
27266  27073  27267  0
27073  27266  27074  0
26890  27265  27075  0
27268  27073  26892  0
26891  26892  27073  0
27267  27073  27268  0
27269  27268  26892  0
27269  26892  27077  0
26894  27076  27078  0
26893  27270  27077  0
26893  26906  27270  0
27271  27270  26906  0
26704  27078  27082  0
27272  26896  27079  0
26896  27272  26898  0
27081  26898  27272  0
27081  27273  27084  0
27274  27271  26906  0
27083  27275  27080  0
27276  26902  27084  0
26902  27276  27085  0
27277  26907  26904  0
27278  27275  27083  0
27279  27278  27083  0
27085  27280  26706  0
26905  26706  27280  0
26919  27274  26906  0
27281  27274  26919  0
27083  27086  27279  0
27282  27279  27086  0
27283  27092  26905  0
27088  27284  27090  0
27090  27284  26917  0
26917  27284  27095  0
27285  27095  27284  0
27086  27091  27282  0
27286  27282  27091  0
26919  27093  27281  0
27087  27287  26911  0
27288  26911  27287  0
27098  27089  27094  0
27089  27098  27088  0
27289  27088  27098  0
27096  27095  27285  0
27091  26910  27286  0
26923  26911  27288  0
27290  26923  27288  0
27098  27097  27289  0
27285  27289  27097  0
27097  27101  27103  0
27097  27103  27285  0
27104  27285  27103  0
27285  27104  27096  0
27291  26910  27099  0
26923  27290  27100  0
27105  27100  27290  0
27099  26934  27291  0
27292  27291  26934  0
26934  27109  27292  0
27293  27292  27109  0
27110  27293  27109  0
27293  27110  27294  0
27295  27294  27110  0
27108  27296  27106  0
27297  27106  27296  0
27110  27111  27295  0
27106  27298  27107  0
27106  27297  27298  0
27111  27119  27295  0
26935  27112  27115  0
27112  27107  27299  0
27107  27298  27299  0
26937  26752  27113  0
27115  27112  27300  0
27115  27300  27114  0
27112  27299  27300  0
27116  27301  27117  0
27116  27117  26942  0
26937  27113  27302  0
26939  26938  27303  0
27117  27301  27304  0
27117  27304  27120  0
27120  27304  27305  0
27120  27305  27306  0
27120  27306  26943  0
26943  27306  27307  0
26943  27307  26763  0
27121  26937  27308  0
26937  27302  27308  0
26938  27122  27303  0
26763  27307  27126  0
27121  27308  26947  0
27126  27130  26755  0
26947  27308  27309  0
26947  27309  27310  0
26947  27310  27133  0
27129  26948  27131  0
27127  26951  27311  0
27133  27310  27134  0
27134  27137  26771  0
26950  27132  27312  0
26950  26956  26770  0
26950  27312  26956  0
26955  27313  27311  0
26955  27311  26951  0
27135  27314  27136  0
27136  27314  27315  0
27136  27315  27316  0
27316  27141  26959  0
27316  26959  27136  0
27316  27315  27317  0
27316  27317  27141  0
27141  27318  26960  0
27141  27317  27318  0
27318  26961  26960  0
27143  27319  27140  0
27140  27319  27138  0
26961  27318  27320  0
26961  27320  27142  0
26772  27142  27313  0
26772  27313  26955  0
27137  27321  26957  0
27143  27147  27157  0
27143  27157  27322  0
27143  27322  27319  0
27138  27323  27324  0
27138  27324  27146  0
27138  27319  27325  0
27138  27325  27323  0
27146  27326  27152  0
27146  27152  27145  0
27146  27324  27326  0
27326  27324  27327  0
27157  27159  27322  0
27322  27328  27325  0
27322  27325  27319  0
27322  27159  27328  0
27152  27326  27153  0
26957  27155  26774  0
27155  27329  27156  0
27159  27330  27328  0
27156  27329  27160  0
27161  27331  27162  0
26965  27162  27332  0
26965  27332  26971  0
27164  27165  27333  0
27164  27333  27334  0
27163  27168  26979  0
27163  27164  27335  0
27163  27335  27168  0
27168  27335  27336  0
27168  27336  27167  0
27167  27336  27337  0
27167  27337  27159  0
27159  27337  27330  0
26971  27332  26976  0
27165  27169  27338  0
27165  27338  27333  0
26982  26976  27339  0
27169  27170  27340  0
27169  27340  27338  0
26982  27339  27171  0
26983  27172  27341  0
26983  27341  27170  0
27172  26792  27173  0
27171  27339  27342  0
27171  27342  27343  0
27171  27343  27174  0
27172  27173  27344  0
27172  27344  27341  0
26985  27174  27345  0
26985  27345  27346  0
27174  27343  27345  0
27175  26984  27347  0
27175  27347  27348  0
26984  26579  27176  0
26985  27346  26991  0
26984  27176  27349  0
26984  27349  27347  0
27176  27350  27349  0
27176  26986  27350  0
26797  26987  26379  0
26993  26991  27346  0
27351  27352  27347  0
27347  27352  27348  0
27347  27349  27351  0
26798  27350  26986  0
27353  26804  26799  0
26987  27353  26799  0
27352  27351  27354  0
27355  27354  27351  0
27351  27349  27355  0
27356  27355  27349  0
27349  27350  27357  0
27349  27357  27356  0
26989  27177  27358  0
27177  26994  27359  0
26994  26990  27359  0
26804  27359  26990  0
26993  27360  26992  0
27352  27354  27361  0
27352  27361  27362  0
27363  27362  27361  0
27350  26798  27364  0
27365  27364  26798  0
26798  26989  27365  0
27358  27365  26989  0
26993  27366  27360  0
27367  27360  27366  0
27360  27367  26992  0
26995  26992  27367  0
27368  27361  27354  0
27369  27363  27361  0
27354  27355  27368  0
27355  27356  27368  0
27182  27368  27356  0
27356  27357  27182  0
27370  27182  27357  0
27361  27368  27178  0
27179  27178  27368  0
27361  27178  27369  0
27371  27369  27178  0
27182  27179  27368  0
27182  27370  27188  0
27372  27188  27370  0
27373  27372  27370  0
26995  27374  26997  0
27178  27183  27371  0
27375  27372  27373  0
27376  26996  26998  0
27188  27372  27186  0
27377  27186  27372  0
27372  27375  27377  0
27378  27377  27375  0
27379  27185  27191  0
27380  27379  27191  0
27186  27377  27193  0
27197  27193  27377  0
27377  27378  27197  0
26999  27199  27000  0
27000  27376  26998  0
27000  27199  27376  0
27381  27376  27199  0
27001  27382  26810  0
27191  27190  27380  0
27383  27380  27190  0
27384  27198  27197  0
27198  27384  27203  0
27385  27199  27204  0
27190  27201  27383  0
27386  27383  27201  0
27387  27203  27384  0
27204  27002  27385  0
27002  27003  27385  0
27201  27205  27386  0
27387  27388  27203  0
27203  27388  27202  0
27389  27202  27388  0
26810  27390  27004  0
27391  27205  27200  0
27200  27202  27391  0
27389  27391  27202  0
27392  27206  27005  0
27005  27207  27392  0
27004  27393  27208  0
27394  27208  27393  0
27006  27392  27207  0
27395  27210  27208  0
27209  27208  27210  0
27395  27208  27396  0
27394  27396  27208  0
27395  27396  27210  0
27006  27007  27397  0
27211  27210  27398  0
27396  27398  27210  0
27399  27213  27400  0
27213  27212  27400  0
27213  27399  27214  0
27401  27214  27399  0
27214  27401  27007  0
27397  27007  27401  0
27211  27402  27009  0
27009  27402  27215  0
27403  27215  27402  0
27404  27013  26825  0
27216  27405  27217  0
27217  27405  27218  0
27406  27218  27405  0
27218  27406  27212  0
27400  27212  27406  0
26825  27219  27404  0
27216  27407  27405  0
27408  27405  27407  0
27220  27215  27409  0
27403  27409  27215  0
27229  27220  27409  0
27219  27020  27410  0
27026  27027  27411  0
27026  27411  27221  0
27027  27028  27412  0
27027  27412  27413  0
27414  27413  27412  0
27412  27028  27233  0
27412  27233  27414  0
27414  27233  27415  0
27224  27416  27234  0
27224  27234  27225  0
27224  27222  27417  0
27224  27417  27416  0
27222  27223  27418  0
27222  27418  27417  0
27226  27228  27419  0
27226  27419  27227  0
27420  27229  27421  0
27020  27230  27422  0
27020  27422  27410  0
27230  27423  27422  0
27231  27232  27424  0
27232  27425  27424  0
27232  27221  27426  0
27232  27426  27425  0
27221  27411  27426  0
27233  27029  27427  0
27233  27427  27415  0
27234  27428  27429  0
27234  27429  27235  0
27228  27430  27431  0
27228  27431  27419  0
27430  27228  27237  0
27230  27231  27432  0
27230  27432  27423  0
27231  27424  27432  0
27029  27433  27427  0
27427  27433  27244  0
27427  27244  27235  0
27427  27235  27429  0
27235  27244  27236  0
27237  27050  27434  0
27237  27434  27430  0
27434  27050  27435  0
27041  26626  27239  0
27041  27239  27238  0
27022  27229  27240  0
27241  27240  27436  0
27029  27242  27433  0
27437  26857  27238  0
27437  27238  27438  0
27241  27436  27245  0
27245  27439  27246  0
27242  27440  27433  0
27433  27440  27250  0
27433  27250  27244  0
27042  27441  27239  0
27042  27051  27251  0
27042  27251  27441  0
27242  27248  27258  0
27242  27258  27440  0
27440  27258  27250  0
27251  27253  27442  0
27254  27443  27444  0
27060  27246  27255  0
27247  27256  27248  0
27248  27256  27260  0
27248  27260  27258  0
27254  27255  27443  0
27266  27263  27074  0
27266  27445  27446  0
27266  27446  27263  0
27263  27446  27447  0
27263  27447  27264  0
27267  27448  27449  0
27267  27268  27450  0
27267  27450  27448  0
27267  27449  27445  0
27267  27445  27266  0
27269  27451  27450  0
27269  27450  27268  0
27075  27265  27452  0
27075  27452  27076  0
27270  27269  27077  0
27078  27076  27452  0
27078  27452  27453  0
27078  27453  27454  0
27271  27455  27270  0
27271  27456  27455  0
27454  26904  27082  0
27082  27078  27454  0
27079  27457  27458  0
27079  27458  27272  0
27079  27080  27459  0
27079  27459  27457  0
27272  27458  27460  0
27272  27460  27081  0
27081  27460  27273  0
27271  27274  27456  0
26904  27454  27277  0
27080  27275  27459  0
27084  27273  27461  0
27084  27461  27276  0
27276  27462  27085  0
27276  27461  27462  0
26907  27277  27087  0
27463  27278  27279  0
27085  27462  27464  0
27085  27464  27280  0
26905  27280  27283  0
27087  27465  27287  0
27282  27466  27279  0
27279  27466  27463  0
27088  27289  27284  0
27285  27284  27289  0
27467  27466  27282  0
27282  27286  27467  0
27287  27465  27288  0
27465  27468  27288  0
27290  27288  27468  0
27291  27286  26910  0
27286  27291  27469  0
27292  27469  27291  0
27290  27470  27105  0
27296  27105  27470  0
27293  27294  27292  0
27471  27472  27294  0
27105  27296  27108  0
27473  27296  27474  0
27294  27295  27471  0
27296  27473  27297  0
27119  27475  27295  0
27298  27297  27476  0
27297  27473  27476  0
27477  27298  27476  0
27298  27477  27299  0
27113  27114  27478  0
27114  27300  27478  0
27479  27478  27300  0
27300  27299  27479  0
27480  27479  27299  0
27299  27477  27480  0
27481  27480  27477  0
27482  26941  26939  0
26941  27482  27116  0
27483  27116  27482  0
27116  27483  27301  0
27304  27301  27483  0
27119  27118  27484  0
27485  27302  27113  0
27113  27478  27485  0
27478  27479  27486  0
27487  27479  27480  0
27488  26939  27303  0
27489  27488  27303  0
27490  27484  27118  0
27302  27485  27308  0
27491  27308  27485  0
27485  27478  27491  0
27486  27491  27478  0
27487  27486  27479  0
27303  27122  27489  0
27122  27123  27489  0
27492  27489  27123  0
27123  27124  27493  0
27125  27493  27124  0
27123  27493  27492  0
27494  27493  27125  0
27307  27495  27126  0
27118  27127  27490  0
27496  27309  27308  0
27308  27491  27496  0
27497  27496  27491  0
27125  27128  27494  0
27498  27494  27128  0
27128  27129  27498  0
27499  27498  27129  0
27311  27490  27127  0
27500  27310  27309  0
27309  27496  27500  0
27129  27131  27499  0
27501  27130  27502  0
27132  27130  27501  0
27310  27500  27503  0
27310  27503  27134  0
27504  27134  27503  0
27505  27499  27131  0
27131  26953  27505  0
27312  27132  27501  0
27501  27506  27312  0
27507  27490  27311  0
27137  27134  27504  0
26954  27505  26953  0
27312  27135  26956  0
27312  27506  27135  0
27508  27135  27506  0
27135  27508  27314  0
27509  27314  27508  0
27314  27509  27315  0
27510  27315  27509  0
27315  27510  27317  0
27511  27317  27510  0
27511  27318  27317  0
27512  27318  27511  0
27513  27318  27512  0
27507  27311  27313  0
27318  27513  27320  0
27313  27514  27507  0
27321  27137  27515  0
26954  26778  27516  0
27313  27142  27320  0
27323  27325  27517  0
27323  27517  27324  0
27324  27517  27518  0
27324  27519  27327  0
27520  27327  27519  0
27324  27518  27519  0
27521  27326  27327  0
27154  27153  26778  0
27516  26778  27153  0
27329  26957  27321  0
27325  27328  27522  0
27325  27522  27517  0
27326  27521  27153  0
26957  27329  27155  0
27328  27523  27522  0
27329  27524  27160  0
27160  27525  27161  0
27331  27161  27526  0
27162  27331  27527  0
27162  27527  27332  0
27164  27334  27528  0
27164  27528  27335  0
27335  27528  27529  0
27335  27529  27336  0
27336  27530  27531  0
27336  27531  27337  0
27336  27529  27532  0
27336  27532  27530  0
27337  27531  27533  0
27337  27533  27330  0
27330  27533  27534  0
27330  27534  27328  0
27328  27534  27523  0
27523  27535  27536  0
27535  27537  27538  0
27538  27539  27535  0
27160  27524  27525  0
27525  27526  27161  0
27332  27540  26976  0
27333  27541  27334  0
27531  27542  27543  0
27531  27543  27533  0
27531  27530  27544  0
27531  27544  27542  0
27533  27543  27545  0
27533  27545  27534  0
27534  27545  27546  0
27534  27546  27547  0
27534  27547  27523  0
27523  27547  27537  0
27523  27537  27535  0
27537  27548  27549  0
27537  27549  27538  0
26976  27540  27550  0
26976  27550  27339  0
27338  27541  27333  0
27338  27340  27551  0
27542  27544  27552  0
27542  27552  27543  0
27543  27552  27545  0
27546  27553  27547  0
27537  27547  27548  0
27340  27170  27554  0
27340  27554  27551  0
27170  27341  27555  0
27170  27555  27556  0
27170  27556  27554  0
27547  27553  27557  0
27547  27557  27548  0
27339  27550  27342  0
27341  27344  27558  0
27341  27558  27555  0
27344  27173  27175  0
27344  27175  27559  0
27344  27559  27558  0
27559  27175  27348  0
27559  27560  27558  0
27346  27345  27561  0
27345  27343  27561  0
27348  27562  27559  0
27346  27563  26993  0
27348  27352  27562  0
26987  26797  27353  0
26797  26988  27564  0
27362  27562  27352  0
27362  27363  27565  0
27362  27565  27562  0
27357  27350  27364  0
27358  27177  27566  0
27177  27359  27566  0
26804  27567  27359  0
26804  27353  27567  0
26988  26805  27568  0
26993  27569  27366  0
26993  27563  27569  0
27363  27570  27565  0
27357  27364  27370  0
27365  27358  27571  0
27358  27566  27571  0
26805  26996  27568  0
27366  27572  27367  0
27366  27569  27572  0
27367  27374  26995  0
27570  27363  27369  0
27364  27365  27573  0
27364  27573  27370  0
27365  27571  27573  0
27571  27566  27574  0
27570  27369  27575  0
27369  27371  27575  0
27370  27576  27373  0
27370  27573  27576  0
27573  27571  27574  0
27573  27574  27577  0
27371  27578  27575  0
27371  27183  27579  0
27371  27579  27578  0
27373  27576  27580  0
27373  27580  27375  0
27576  27573  27577  0
27576  27577  27581  0
27576  27581  27580  0
26997  27374  27001  0
27183  27185  27579  0
27379  27579  27185  0
27579  27379  27582  0
27583  27378  27375  0
27584  27379  27380  0
27380  27585  27584  0
27378  27583  27197  0
27384  27197  27583  0
27583  27586  27384  0
27587  27384  27586  0
27588  27376  27381  0
27380  27383  27585  0
27589  27585  27383  0
27590  27384  27587  0
27199  27385  27381  0
27381  27591  27588  0
27381  27385  27591  0
27592  27591  27385  0
27205  27383  27386  0
27383  27205  27589  0
27391  27589  27205  0
27384  27590  27387  0
27385  27003  27592  0
26810  27382  27390  0
27388  27387  27389  0
27004  27390  27393  0
27396  27394  27398  0
27006  27397  27401  0
27211  27398  27593  0
27211  27593  27402  0
27594  27402  27593  0
27403  27402  27594  0
27013  27595  27216  0
27407  27216  27595  0
27013  27404  27595  0
27405  27408  27406  0
27596  27400  27406  0
27597  27404  27219  0
27598  27408  27407  0
27417  27418  27599  0
27229  27409  27421  0
27403  27421  27409  0
27219  27410  27597  0
27600  27597  27410  0
27027  27426  27411  0
27413  27414  27601  0
27414  27415  27602  0
27414  27602  27603  0
27604  27602  27415  0
27602  27604  27605  0
27606  27605  27604  0
27604  27428  27416  0
27234  27416  27428  0
27604  27416  27606  0
27223  27227  27418  0
27419  27418  27227  0
27607  27420  27421  0
27410  27422  27600  0
27423  27600  27422  0
27608  27424  27425  0
27609  27425  27426  0
27415  27427  27604  0
27429  27604  27427  0
27604  27429  27428  0
27610  27420  27611  0
27420  27610  27229  0
27612  27423  27432  0
27432  27424  27612  0
27613  27612  27424  0
27424  27608  27613  0
27430  27434  27614  0
27615  27614  27434  0
27434  27435  27615  0
27229  27610  27240  0
27616  27240  27610  0
27436  27240  27616  0
27617  27238  27239  0
27436  27618  27245  0
27439  27245  27618  0
27239  27441  27617  0
27439  27619  27246  0
27620  27246  27619  0
27441  27251  27617  0
27621  27617  27251  0
27251  27442  27621  0
27622  27623  27444  0
27444  27443  27622  0
27624  27622  27443  0
27246  27620  27255  0
27443  27255  27624  0
27620  27624  27255  0
27445  27625  27446  0
27626  27446  27625  0
27446  27626  27447  0
27447  27626  27264  0
27627  27449  27448  0
27449  27627  27445  0
27628  27265  27264  0
27451  27269  27629  0
27265  27628  27452  0
27455  27269  27270  0
27455  27629  27269  0
27453  27630  27454  0
27455  27456  27631  0
27457  27632  27458  0
27458  27632  27633  0
27458  27633  27460  0
27273  27634  27461  0
27273  27460  27634  0
27634  27635  27461  0
27459  27275  27636  0
27459  27636  27457  0
27461  27635  27462  0
27462  27635  27637  0
27462  27637  27464  0
27274  27638  27456  0
27275  27278  27463  0
27275  27463  27636  0
27464  27639  27280  0
27280  27639  27283  0
27281  27638  27274  0
27087  27277  27465  0
27636  27463  27640  0
27463  27466  27467  0
27463  27467  27641  0
27463  27641  27640  0
27283  27642  27092  0
27465  27643  27468  0
27465  27277  27643  0
27467  27286  27469  0
27467  27469  27644  0
27467  27644  27641  0
27469  27292  27645  0
27469  27645  27644  0
27645  27292  27472  0
27092  27642  27638  0
27092  27638  27093  0
27093  27638  27281  0
27468  27646  27470  0
27468  27470  27290  0
27292  27294  27472  0
27470  27647  27474  0
27470  27474  27296  0
27470  27646  27647  0
27647  27648  27474  0
27474  27648  27649  0
27474  27649  27473  0
27471  27295  27475  0
27473  27649  27650  0
27650  27476  27473  0
27650  27651  27476  0
27476  27652  27477  0
27476  27651  27652  0
27119  27484  27653  0
27477  27652  27654  0
27477  27654  27481  0
26939  27488  27482  0
27482  27655  27656  0
27482  27656  27483  0
27482  27488  27657  0
27482  27657  27655  0
27483  27656  27658  0
27483  27658  27304  0
27304  27658  27659  0
27304  27659  27305  0
27305  27659  27660  0
27305  27660  27306  0
27306  27660  27661  0
27484  27662  27653  0
27480  27481  27663  0
27480  27663  27487  0
27488  27489  27664  0
27488  27664  27657  0
27306  27661  27665  0
27306  27665  27307  0
27307  27665  27495  0
27484  27490  27666  0
27484  27666  27662  0
27491  27486  27497  0
27489  27492  27667  0
27489  27667  27664  0
27493  27494  27492  0
27495  27668  27126  0
27126  27668  27130  0
27496  27497  27669  0
27496  27669  27670  0
27497  27486  27671  0
27486  27487  27671  0
27130  27668  27502  0
27500  27496  27670  0
27499  27672  27498  0
27499  27505  27672  0
27501  27502  27673  0
27674  27675  27676  0
27674  27677  27675  0
27678  27675  27677  0
27676  27679  27512  0
27676  27512  27674  0
27679  27680  27681  0
27679  27681  27512  0
27503  27500  27670  0
27503  27670  27682  0
27503  27682  27504  0
27678  27510  27509  0
27678  27509  27683  0
27511  27510  27677  0
27510  27678  27677  0
27677  27674  27511  0
27674  27512  27511  0
27512  27681  27684  0
27512  27684  27513  0
27505  26954  27516  0
27513  27684  27685  0
27513  27685  27320  0
27137  27504  27515  0
27518  27517  27519  0
27517  27686  27519  0
27522  27686  27517  0
27519  27686  27520  0
27687  27520  27686  0
27520  27687  27327  0
27688  27327  27687  0
27327  27688  27521  0
27516  27153  27521  0
27321  27689  27329  0
27690  27329  27689  0
27691  27329  27690  0
27692  27522  27523  0
27523  27536  27692  0
27693  27692  27536  0
27536  27535  27693  0
27694  27693  27535  0
27535  27539  27694  0
27524  27329  27691  0
27527  27331  27526  0
27532  27529  27528  0
27538  27549  27695  0
27696  27524  27691  0
27524  27696  27525  0
27697  27525  27696  0
27525  27697  27526  0
27698  27527  27526  0
27527  27699  27332  0
27540  27332  27699  0
27700  27334  27541  0
27334  27700  27528  0
27701  27528  27700  0
27528  27701  27532  0
27702  27532  27701  0
27532  27702  27530  0
27544  27530  27702  0
27695  27549  27703  0
27704  27703  27549  0
27705  27696  27691  0
27698  27526  27697  0
27706  27550  27540  0
27338  27551  27541  0
27554  27541  27551  0
27541  27707  27700  0
27708  27700  27707  0
27541  27554  27707  0
27709  27707  27554  0
27700  27708  27701  0
27710  27701  27708  0
27701  27710  27702  0
27711  27702  27710  0
27702  27711  27544  0
27712  27544  27711  0
27544  27712  27552  0
27713  27545  27552  0
27545  27713  27546  0
27553  27546  27713  0
27704  27549  27548  0
27714  27550  27706  0
27554  27556  27709  0
27713  27552  27712  0
27713  27715  27553  0
27553  27715  27557  0
27557  27716  27548  0
27548  27716  27704  0
27717  27704  27716  0
27550  27714  27342  0
27718  27342  27714  0
27556  27555  27719  0
27720  27719  27555  0
27555  27558  27720  0
27721  27343  27342  0
27342  27718  27721  0
27720  27558  27722  0
27560  27722  27558  0
27561  27343  27723  0
27721  27723  27343  0
27561  27723  27346  0
27724  27722  27560  0
27560  27559  27725  0
27562  27725  27559  0
27560  27725  27724  0
27726  27724  27725  0
27723  27563  27346  0
27725  27562  27726  0
27727  27726  27562  0
27564  27353  26797  0
27562  27565  27727  0
27728  27727  27565  0
27359  27567  27729  0
27730  27564  26988  0
27565  27570  27728  0
27566  27359  27731  0
27729  27731  27359  0
26988  27568  27730  0
27570  27575  27728  0
27728  27575  27732  0
27728  27732  27733  0
27728  27733  27734  0
27574  27566  27731  0
27574  27731  27735  0
27568  26996  27736  0
27569  27737  27738  0
27569  27738  27572  0
27572  27738  27374  0
27572  27374  27367  0
27575  27578  27732  0
27732  27578  27739  0
27732  27739  27733  0
27574  27735  27577  0
27738  27740  27374  0
27741  27740  27738  0
27578  27579  27582  0
27578  27582  27739  0
26996  27376  27736  0
27742  27740  27741  0
27740  27742  27374  0
27001  27374  27742  0
27582  27379  27584  0
27582  27584  27743  0
27582  27743  27739  0
27743  27584  27744  0
27580  27583  27375  0
27580  27745  27746  0
27580  27746  27583  0
27580  27581  27745  0
27376  27588  27736  0
27001  27747  27382  0
27584  27585  27748  0
27584  27748  27744  0
27583  27746  27586  0
27585  27589  27749  0
27585  27749  27748  0
27586  27750  27587  0
27382  27747  27390  0
27589  27391  27751  0
27589  27751  27749  0
27587  27750  27752  0
27587  27752  27753  0
27391  27389  27754  0
27391  27754  27751  0
27389  27387  27755  0
27389  27755  27754  0
27590  27587  27387  0
27756  27003  27206  0
27756  27592  27003  0
27393  27390  27757  0
27393  27757  27758  0
27393  27758  27759  0
27760  27206  27392  0
27760  27392  27006  0
27394  27393  27759  0
27394  27759  27761  0
27394  27761  27762  0
27394  27762  27398  0
27763  27006  27401  0
27006  27763  27760  0
27398  27764  27765  0
27398  27765  27593  0
27398  27762  27764  0
27766  27767  27768  0
27766  27399  27769  0
27766  27769  27767  0
27766  27401  27399  0
27401  27766  27763  0
27596  27770  27767  0
27596  27767  27400  0
27400  27767  27769  0
27400  27769  27399  0
27594  27593  27771  0
27595  27772  27773  0
27595  27773  27407  0
27595  27404  27774  0
27595  27774  27772  0
27407  27773  27775  0
27407  27775  27598  0
27598  27775  27408  0
27408  27775  27776  0
27408  27776  27406  0
27406  27776  27596  0
27594  27771  27421  0
27594  27421  27403  0
27404  27597  27777  0
27404  27777  27774  0
27601  27414  27603  0
27601  27603  27778  0
27603  27602  27605  0
27603  27605  27779  0
27416  27417  27780  0
27416  27780  27606  0
27417  27599  27781  0
27607  27782  27611  0
27607  27611  27420  0
27426  27027  27413  0
27426  27413  27783  0
27426  27783  27609  0
27600  27423  27784  0
27600  27784  27597  0
27423  27612  27785  0
27423  27785  27786  0
27423  27786  27784  0
27785  27612  27787  0
27785  27787  27786  0
27425  27609  27788  0
27425  27788  27608  0
27419  27431  27789  0
27431  27430  27614  0
27431  27614  27790  0
27431  27790  27789  0
27612  27613  27791  0
27612  27791  27787  0
27613  27608  27791  0
27610  27792  27616  0
27436  27616  27618  0
27238  27617  27438  0
27618  27793  27439  0
27439  27793  27619  0
27617  27794  27438  0
27619  27793  27620  0
27794  27617  27795  0
27796  27617  27621  0
27797  27623  27622  0
27622  27624  27797  0
27620  27797  27624  0
27621  27798  27796  0
27445  27627  27625  0
27799  27625  27627  0
27625  27800  27626  0
27450  27801  27448  0
27802  27448  27801  0
27448  27802  27627  0
27799  27627  27802  0
27626  27628  27264  0
27451  27803  27450  0
27801  27450  27803  0
27451  27629  27803  0
27628  27804  27452  0
27631  27629  27455  0
27453  27452  27630  0
27804  27630  27452  0
27805  27632  27457  0
27632  27805  27633  0
27806  27633  27805  0
27633  27806  27460  0
27807  27460  27806  0
27460  27807  27634  0
27808  27634  27807  0
27634  27808  27635  0
27809  27631  27456  0
27810  27277  27454  0
27457  27636  27811  0
27635  27812  27637  0
27813  27637  27812  0
27639  27464  27637  0
27814  27637  27813  0
27637  27814  27639  0
27456  27638  27809  0
27640  27811  27636  0
27811  27640  27815  0
27642  27283  27639  0
27639  27816  27642  0
27277  27810  27643  0
27817  27643  27810  0
27640  27641  27818  0
27819  27818  27641  0
27641  27644  27819  0
27645  27819  27644  0
27643  27817  27468  0
27646  27468  27817  0
27817  27820  27646  0
27821  27645  27472  0
27822  27821  27472  0
27647  27646  27820  0
27820  27823  27647  0
27824  27647  27823  0
27647  27824  27648  0
27472  27471  27822  0
27825  27649  27648  0
27471  27475  27822  0
27650  27649  27825  0
27826  27650  27825  0
27653  27475  27119  0
27650  27826  27651  0
27827  27651  27826  0
27658  27656  27828  0
27829  27828  27830  0
27828  27656  27830  0
27831  27830  27656  0
27828  27832  27658  0
27659  27658  27832  0
27828  27829  27832  0
27833  27832  27829  0
27832  27833  27659  0
27834  27659  27833  0
27659  27834  27660  0
27651  27827  27652  0
27831  27656  27655  0
27835  27661  27660  0
27665  27661  27835  0
27652  27827  27654  0
27836  27654  27827  0
27654  27836  27481  0
27837  27663  27481  0
27838  27657  27664  0
27664  27667  27838  0
27839  27838  27667  0
27840  27487  27663  0
27663  27837  27840  0
27667  27492  27839  0
27492  27494  27841  0
27492  27841  27839  0
27842  27843  27675  0
27679  27675  27843  0
27680  27679  27843  0
27662  27666  27844  0
27845  27670  27669  0
27846  27669  27497  0
27497  27671  27846  0
27840  27671  27487  0
27494  27498  27841  0
27498  27672  27841  0
27673  27502  27668  0
27847  27848  27842  0
27842  27675  27847  0
27675  27679  27676  0
27666  27490  27507  0
27666  27507  27844  0
27682  27670  27845  0
27673  27849  27506  0
27673  27506  27501  0
27508  27506  27849  0
27847  27683  27850  0
27683  27508  27850  0
27683  27847  27678  0
27847  27675  27678  0
27680  27851  27681  0
27852  27681  27851  0
27853  27504  27682  0
27508  27683  27509  0
27681  27852  27854  0
27681  27854  27684  0
27504  27853  27515  0
27684  27854  27855  0
27684  27855  27685  0
27514  27856  27507  0
27685  27855  27857  0
27685  27857  27320  0
27515  27689  27321  0
27688  27516  27521  0
27688  27687  27516  0
27320  27857  27858  0
27320  27858  27313  0
27313  27858  27514  0
27686  27522  27692  0
27686  27859  27860  0
27686  27860  27687  0
27686  27692  27861  0
27686  27861  27859  0
27692  27693  27862  0
27692  27862  27861  0
27694  27539  27863  0
27539  27538  27863  0
27538  27695  27864  0
27538  27864  27863  0
27691  27690  27865  0
27695  27703  27864  0
27691  27866  27867  0
27691  27865  27866  0
27527  27698  27699  0
27691  27867  27705  0
27696  27705  27868  0
27696  27868  27697  0
27697  27868  27869  0
27697  27869  27698  0
27698  27869  27870  0
27698  27870  27699  0
27699  27870  27706  0
27699  27706  27540  0
27707  27709  27871  0
27707  27871  27708  0
27708  27872  27873  0
27708  27873  27710  0
27708  27871  27872  0
27710  27873  27874  0
27710  27874  27711  0
27867  27875  27705  0
27867  27866  27876  0
27867  27876  27875  0
27868  27877  27869  0
27869  27877  27878  0
27869  27878  27870  0
27870  27878  27879  0
27870  27879  27706  0
27706  27879  27880  0
27706  27880  27714  0
27709  27881  27871  0
27709  27556  27881  0
27711  27882  27712  0
27712  27882  27883  0
27712  27883  27713  0
27713  27883  27884  0
27713  27884  27715  0
27557  27885  27716  0
27716  27885  27717  0
27704  27717  27886  0
27875  27887  27705  0
27705  27887  27868  0
27714  27880  27888  0
27714  27888  27718  0
27556  27719  27889  0
27556  27889  27881  0
27719  27720  27722  0
27719  27722  27890  0
27719  27890  27889  0
27721  27718  27891  0
27721  27891  27723  0
27722  27724  27726  0
27722  27726  27890  0
27723  27891  27892  0
27890  27726  27893  0
27890  27893  27894  0
27726  27727  27893  0
27727  27728  27734  0
27727  27734  27895  0
27727  27895  27893  0
27895  27734  27896  0
27895  27896  27897  0
27567  27353  27898  0
27353  27564  27898  0
27733  27896  27734  0
27896  27733  27897  0
27899  27897  27733  0
27731  27729  27900  0
27898  27729  27567  0
27900  27735  27731  0
27736  27730  27568  0
27733  27739  27899  0
27901  27899  27739  0
27745  27581  27577  0
27577  27735  27745  0
27900  27745  27735  0
27741  27738  27737  0
27743  27901  27739  0
27902  27901  27743  0
27745  27903  27746  0
27737  27904  27741  0
27741  27905  27742  0
27747  27742  27905  0
27742  27747  27001  0
27743  27744  27902  0
27906  27902  27744  0
27902  27906  27907  0
27741  27904  27905  0
27744  27748  27906  0
27750  27586  27746  0
27746  27908  27750  0
27752  27750  27908  0
27909  27588  27591  0
27748  27910  27906  0
27748  27749  27910  0
27747  27911  27390  0
27387  27912  27755  0
27912  27913  27755  0
27914  27755  27913  0
27912  27387  27753  0
27587  27753  27387  0
27591  27592  27909  0
27914  27754  27755  0
27206  27760  27756  0
27915  27756  27760  0
27759  27758  27761  0
27764  27761  27758  0
27916  27760  27763  0
27916  27915  27760  0
27765  27764  27917  0
27764  27762  27761  0
27768  27916  27766  0
27763  27766  27916  0
27768  27918  27916  0
27765  27919  27593  0
27596  27776  27770  0
27770  27920  27767  0
27921  27767  27920  0
27593  27919  27771  0
27922  27775  27773  0
27923  27775  27922  0
27775  27923  27776  0
27770  27776  27923  0
27778  27603  27779  0
27778  27779  27924  0
27779  27605  27925  0
27779  27925  27926  0
27782  27607  27771  0
27421  27771  27607  0
27927  27774  27777  0
27925  27605  27780  0
27606  27780  27605  0
27928  27780  27417  0
27929  27928  27417  0
27417  27781  27929  0
27777  27597  27927  0
27418  27419  27599  0
27930  27599  27419  0
27597  27784  27927  0
27931  27786  27787  0
27783  27788  27609  0
27932  27608  27788  0
27419  27789  27930  0
27792  27610  27611  0
27787  27791  27931  0
27933  27931  27791  0
27791  27608  27933  0
27932  27933  27608  0
27789  27790  27934  0
27790  27614  27934  0
27935  27934  27614  0
27936  27616  27792  0
27616  27936  27618  0
27937  27618  27936  0
27938  27939  27438  0
27618  27937  27793  0
27793  27940  27620  0
27795  27617  27796  0
27795  27941  27794  0
27623  27797  27942  0
27797  27620  27942  0
27625  27799  27800  0
27800  27628  27626  0
27801  27943  27802  0
27801  27944  27943  0
27802  27943  27799  0
27799  27943  27945  0
27799  27945  27800  0
27800  27945  27946  0
27800  27946  27628  0
27628  27946  27804  0
27803  27947  27944  0
27803  27944  27801  0
27803  27629  27948  0
27803  27948  27947  0
27629  27631  27948  0
27630  27804  27949  0
27631  27950  27948  0
27457  27811  27951  0
27457  27951  27805  0
27805  27952  27953  0
27805  27953  27806  0
27805  27951  27952  0
27806  27953  27954  0
27806  27954  27807  0
27807  27954  27955  0
27807  27955  27808  0
27808  27812  27635  0
27808  27955  27812  0
27812  27955  27956  0
27812  27956  27813  0
27631  27809  27957  0
27631  27957  27950  0
27454  27630  27949  0
27454  27949  27958  0
27454  27958  27810  0
27811  27815  27951  0
27813  27959  27814  0
27814  27960  27816  0
27814  27816  27639  0
27814  27959  27961  0
27814  27961  27960  0
27809  27962  27957  0
27815  27640  27818  0
27815  27818  27963  0
27815  27963  27951  0
27818  27819  27964  0
27818  27964  27963  0
27816  27965  27642  0
27816  27960  27965  0
27810  27966  27817  0
27819  27645  27821  0
27819  27821  27967  0
27819  27967  27964  0
27821  27968  27967  0
27968  27821  27969  0
27642  27970  27638  0
27642  27965  27971  0
27642  27971  27970  0
27970  27971  27972  0
27970  27972  27638  0
27638  27972  27962  0
27638  27962  27809  0
27817  27966  27820  0
27820  27966  27823  0
27821  27822  27969  0
27823  27973  27824  0
27825  27648  27824  0
27825  27824  27974  0
27825  27974  27975  0
27822  27475  27976  0
27977  27978  27826  0
27977  27826  27825  0
27977  27825  27975  0
27475  27979  27976  0
27980  27833  27829  0
27980  27981  27982  0
27980  27829  27983  0
27980  27983  27981  0
27980  27982  27833  0
27475  27653  27979  0
27826  27978  27984  0
27826  27984  27827  0
27830  27983  27829  0
27833  27982  27985  0
27833  27985  27834  0
27834  27986  27835  0
27834  27835  27660  0
27834  27985  27986  0
27655  27657  27831  0
27831  27657  27838  0
27831  27838  27987  0
27831  27987  27830  0
27835  27986  27988  0
27835  27988  27665  0
27653  27662  27989  0
27653  27989  27979  0
27827  27990  27836  0
27837  27836  27990  0
27836  27837  27481  0
27838  27839  27991  0
27838  27991  27992  0
27838  27992  27987  0
27993  27495  27665  0
27662  27844  27989  0
27839  27841  27991  0
27994  27991  27841  0
27495  27993  27668  0
27668  27993  27673  0
27995  27673  27993  0
27842  27848  27843  0
27996  27843  27848  0
27843  27996  27680  0
27997  27998  27669  0
27669  27998  27845  0
27669  27846  27997  0
27999  27846  27671  0
27671  27840  27999  0
27841  27672  27994  0
28000  27994  27672  0
27849  27673  28001  0
28001  28002  27849  0
27850  28003  28004  0
28004  27848  27850  0
27847  27850  27848  0
28004  28005  27848  0
28006  27848  28005  0
27851  27996  28007  0
27996  27851  27680  0
27856  27844  27507  0
27672  27505  28000  0
28008  28000  27505  0
27849  28003  27508  0
28003  27850  27508  0
28009  28007  28010  0
28007  28009  27851  0
28011  27851  28009  0
27852  27851  28011  0
27845  28012  27682  0
27682  28012  27853  0
28009  28013  28011  0
28014  27515  27853  0
28008  27505  27516  0
28010  28015  28009  0
28013  28009  28015  0
28016  28011  28013  0
28011  28016  27852  0
27852  28016  27854  0
28017  27854  28016  0
27854  28017  27855  0
28008  27516  28018  0
28013  28019  28016  0
28020  28016  28019  0
27859  28021  27860  0
28022  27860  28021  0
27860  28022  27687  0
28023  27687  28022  0
27687  28023  27516  0
28018  27516  28023  0
28015  28024  28013  0
28015  28025  28024  0
28013  28024  28019  0
28019  28026  28020  0
27856  27514  27858  0
28027  28019  28024  0
28019  28027  28026  0
27862  27693  27694  0
28028  28029  27863  0
28024  28030  28027  0
28031  28026  28027  0
27863  27864  28028  0
28032  28028  27864  0
28033  28032  27864  0
27864  27703  28033  0
27865  28034  27866  0
27703  27886  28033  0
28035  27866  28034  0
28036  27873  27872  0
27873  28036  27874  0
28037  27874  28036  0
27874  28037  27711  0
27882  27711  28037  0
27704  27886  27703  0
28038  27866  28035  0
27876  27866  28038  0
28039  27877  27868  0
27877  28039  27878  0
28040  27878  28039  0
27878  28040  27879  0
27880  27879  28040  0
27871  27881  27872  0
28041  27872  27881  0
27882  28042  27883  0
28043  27883  28042  0
27883  28043  27884  0
28044  27715  27884  0
27715  28044  27557  0
28045  27557  28044  0
27557  28045  27885  0
27885  28045  27717  0
28046  27717  28045  0
28047  27717  28046  0
27717  28047  27886  0
27887  27875  27876  0
28048  27868  27887  0
27868  28048  28039  0
28049  28039  28048  0
28039  28049  28040  0
28050  28040  28049  0
28040  28050  28051  0
28040  28051  27880  0
27880  28051  28052  0
27880  28052  27888  0
27881  27889  28041  0
28047  28053  27886  0
27876  28054  27887  0
28055  28056  28057  0
28055  28057  28058  0
28058  28057  28059  0
28058  28059  28060  0
28059  28061  28062  0
28059  28062  28060  0
28061  28063  28062  0
28061  28064  28063  0
27718  27888  28065  0
27889  27890  27894  0
28066  28056  28055  0
28066  28055  28067  0
28066  28067  27893  0
28059  28068  28061  0
28061  28068  28069  0
28061  28069  28064  0
28069  28070  28064  0
27723  27892  27563  0
27891  27718  28065  0
27891  28071  27892  0
27894  27893  28067  0
27893  27895  28066  0
28066  27895  27897  0
28066  27897  28056  0
28056  27897  28072  0
28056  28072  28057  0
28057  28072  28073  0
28057  28073  28059  0
28059  28073  28068  0
27563  27892  28074  0
27563  28074  27569  0
27892  28071  28074  0
28068  28073  28075  0
28068  28075  28076  0
28068  28076  28069  0
28069  28076  28070  0
27898  27564  28077  0
27564  27730  28077  0
27897  27899  28072  0
28072  27899  28078  0
28072  28078  28073  0
28073  28078  28075  0
27729  28079  27900  0
27729  27898  28079  0
27898  28080  28079  0
27898  28077  28080  0
27730  28081  28077  0
27899  27901  28082  0
27899  28082  28078  0
28078  28082  28075  0
27730  27736  28081  0
27745  27900  27903  0
27737  28083  27904  0
27901  27902  27907  0
27901  27907  28082  0
27736  27588  28084  0
27907  27906  28085  0
27746  27903  27908  0
27903  28086  27908  0
27904  28087  27905  0
27905  28087  27747  0
27906  28088  28085  0
27588  27909  28084  0
28083  28089  27904  0
27904  28089  28090  0
27904  28090  28087  0
28087  28090  27911  0
28087  27911  27747  0
27910  28088  27906  0
27752  27908  28086  0
27752  28086  28091  0
27752  28091  27753  0
27913  28092  27914  0
27909  28093  28084  0
27909  27592  28093  0
28090  28089  28094  0
28090  28094  27390  0
28090  27390  27911  0
27751  27754  28095  0
27751  28095  27749  0
27754  27914  28095  0
28094  28089  27758  0
28094  27757  27390  0
27756  28096  27592  0
27756  28097  28096  0
27758  28098  27764  0
28094  27758  27757  0
28099  28100  28101  0
28099  28102  28100  0
27915  28097  27756  0
27917  27764  28098  0
27918  27915  27916  0
27917  28103  27765  0
27921  27768  27767  0
27921  28104  27768  0
27918  27768  28104  0
27765  28105  27919  0
28106  27919  28105  0
28107  27919  28106  0
28108  27770  27923  0
27770  28108  27920  0
27924  27779  27926  0
28109  27924  27926  0
27926  27925  28109  0
27925  27928  28109  0
28110  28109  27928  0
28111  27782  28107  0
27782  27771  27919  0
27782  27919  28107  0
27772  28112  27773  0
28113  27773  28112  0
27772  27774  28112  0
28114  28112  27774  0
27773  28113  27922  0
27925  27780  27928  0
28115  27928  27929  0
27929  27781  28116  0
27929  28116  28115  0
27611  27782  28111  0
27774  27927  28114  0
28117  28114  27927  0
28118  27413  27601  0
28119  27611  28111  0
27783  27413  28118  0
28120  27783  28118  0
27927  27784  28117  0
28121  28117  27784  0
27784  27786  28121  0
27786  27931  28121  0
27933  28121  27931  0
27788  27783  28122  0
28120  28122  27783  0
27788  28122  27932  0
28123  27930  27789  0
27611  28119  27792  0
27933  27932  28124  0
27789  27934  28123  0
28125  28123  27934  0
27935  28126  27934  0
27792  28127  27936  0
27937  27936  28127  0
27934  28126  28125  0
28128  27939  28129  0
27937  28130  27793  0
27940  27793  28130  0
28128  28129  28131  0
27438  27794  27938  0
28132  28133  28134  0
27942  28133  27623  0
27942  27620  27940  0
27942  27940  28135  0
27943  27944  28136  0
28137  28136  27944  0
27945  27943  28136  0
27945  28138  27946  0
28137  27944  27947  0
28139  27947  27948  0
27804  27946  28138  0
28140  27804  28138  0
28139  27948  27950  0
27804  28140  27949  0
28141  27949  28140  0
27953  27952  28142  0
27953  28142  27954  0
27954  28143  27955  0
28144  27955  28143  0
28145  27955  28144  0
27955  28145  27956  0
27956  28146  27959  0
27956  27959  27813  0
27956  28145  28146  0
28147  27959  28146  0
27950  27957  28148  0
27950  28148  28149  0
27949  28141  27958  0
27952  27951  27963  0
27959  28147  28150  0
27959  28150  27961  0
27961  28150  28151  0
27961  28151  27960  0
27957  27962  28148  0
27958  27966  27810  0
27963  27964  28152  0
27963  28152  27952  0
27964  27967  28153  0
27964  28153  28152  0
27960  28151  28154  0
27960  28154  27965  0
27965  28155  27971  0
27965  28154  28155  0
28155  28154  28156  0
28155  28156  27971  0
27962  28157  28148  0
27962  27972  28157  0
27966  27958  28158  0
27967  27968  28159  0
27967  28159  28153  0
27968  27969  28160  0
27968  28160  28159  0
27971  28156  28161  0
27971  28161  27972  0
27972  28161  28162  0
27972  28162  28157  0
27966  28158  28163  0
27966  28163  27823  0
27823  28163  27973  0
28164  28165  28166  0
27974  27824  27973  0
27974  27973  28167  0
27822  27976  28168  0
27822  28168  27969  0
28165  28164  28169  0
28166  28165  28170  0
28165  28169  28170  0
27976  28171  28168  0
27976  27979  28171  0
28169  28172  28170  0
27981  27983  28173  0
