#!ascii file
29105  29286  29292  0
29293  29292  29286  0
29106  29111  29288  0
29107  29289  28938  0
29114  28941  28938  0
29294  28933  28942  0
28933  29295  29290  0
28933  29294  29295  0
29296  28939  29112  0
29099  29113  29283  0
29297  29283  29113  0
29283  29297  29291  0
29298  29291  29297  0
29299  29291  29298  0
29291  29299  29284  0
29300  29284  29299  0
29284  29300  29301  0
29302  29301  29300  0
29292  29115  29110  0
29292  29293  29115  0
29116  29115  29293  0
29303  29288  29111  0
29111  28541  29303  0
29304  28942  29114  0
29294  28942  29304  0
28939  29296  28948  0
29117  29113  28943  0
29113  29117  29297  0
29305  29297  29117  0
29298  29297  29305  0
29300  29306  29302  0
29307  29302  29306  0
29119  29303  28541  0
28948  29296  28951  0
29308  29298  29305  0
29298  29308  29299  0
29309  29299  29308  0
29299  29309  29300  0
29306  29300  29309  0
29117  29120  29305  0
29308  29305  29120  0
29309  29310  29306  0
29118  29311  29121  0
29119  28764  29312  0
28951  29313  28956  0
29314  29123  29124  0
29123  29314  29120  0
29135  29120  29314  0
29120  29135  29130  0
29120  29130  29308  0
29308  29130  29129  0
29308  29129  29309  0
29309  29129  29315  0
29309  29315  29310  0
29310  29315  29316  0
29317  29121  29311  0
28956  29318  29126  0
28956  29313  29319  0
28956  29319  29318  0
29124  29127  29135  0
29124  29135  29314  0
29129  29128  29315  0
29315  29128  29136  0
29315  29136  29320  0
29315  29320  29316  0
29121  29317  29131  0
29321  29131  29317  0
29322  29139  29138  0
29323  29139  29322  0
29322  29138  29324  0
29139  29323  29141  0
28764  28765  29325  0
29132  29126  29326  0
29126  29318  29327  0
29126  29327  29326  0
29127  29133  29135  0
29136  29137  29320  0
29131  29321  28973  0
29138  29140  29328  0
29138  29328  29324  0
28765  28569  29325  0
29132  29326  29329  0
29132  29329  29330  0
29132  29330  29144  0
29140  28980  29328  0
29146  29149  28778  0
29146  29331  29149  0
29149  29331  29332  0
29149  29332  28779  0
28779  29332  29147  0
29147  29325  28569  0
28978  29144  29150  0
29321  29333  28973  0
28973  29333  29152  0
29328  28980  29334  0
28980  28982  29334  0
29150  29144  29335  0
28982  29154  29334  0
29336  29155  29151  0
29151  29150  29335  0
29151  29335  29336  0
28984  29153  29337  0
28984  29337  29148  0
29152  29156  28781  0
29152  29333  29338  0
29152  29338  29156  0
29154  28783  29339  0
29155  29336  29340  0
29155  29340  28985  0
29156  29341  28782  0
28783  29157  29342  0
29160  28985  29340  0
29153  28983  29158  0
28782  29341  28785  0
28785  29341  29162  0
28794  28986  28987  0
29158  28784  28789  0
28989  29162  29343  0
29159  29344  29157  0
29158  28789  29345  0
28789  28991  29345  0
28989  29343  29163  0
29159  29165  29344  0
29161  29346  28791  0
28791  29346  28994  0
28991  29167  29347  0
28991  29347  29345  0
29169  29348  28995  0
28995  29348  29170  0
29349  29350  29351  0
29349  29351  29352  0
29349  29352  29353  0
29349  29353  29354  0
29349  29354  29355  0
29349  29355  29350  0
29355  29356  29350  0
29355  29354  29177  0
29355  29177  29357  0
29355  29357  29356  0
29177  29002  28999  0
29177  28999  29357  0
29001  29179  28814  0
29003  29358  29174  0
29352  29359  29184  0
29352  29360  29361  0
29352  29361  29359  0
29352  29184  29353  0
29353  29184  29186  0
29353  29186  29362  0
29353  29362  29354  0
29354  29362  29176  0
29354  29176  29177  0
29175  29178  29363  0
29179  29364  29365  0
29179  29365  28814  0
28814  29365  29003  0
29359  29185  29184  0
29186  29187  29362  0
29362  29187  29366  0
29362  29366  29176  0
29180  29367  29368  0
29180  29368  29178  0
29180  29181  29367  0
29178  29368  29363  0
29359  29369  29185  0
29366  29182  29176  0
29183  29370  29181  0
29185  29371  29187  0
29372  29366  29187  0
29366  29372  29182  0
29188  29182  29372  0
29183  29006  29373  0
29183  29373  29370  0
29369  29374  29185  0
29371  29185  29374  0
29372  29187  29371  0
29375  29373  29006  0
29374  29376  29371  0
29377  29371  29376  0
29378  29371  29377  0
29371  29378  29372  0
29379  29372  29378  0
29372  29379  29188  0
29189  29188  29379  0
29010  29192  29375  0
29375  29192  29380  0
29375  29006  29010  0
29379  29381  29189  0
29189  29381  29191  0
29382  29383  29384  0
29384  29385  29386  0
29203  29386  29385  0
29384  29383  29385  0
29385  29380  29203  0
29196  29203  29380  0
29385  29387  29380  0
29380  29192  29196  0
29013  29196  29192  0
29382  29384  29200  0
29202  29200  29384  0
29384  29386  29202  0
29203  29202  29386  0
28841  29193  29204  0
29197  29204  29193  0
29014  29194  29388  0
29195  29388  29194  0
29191  29381  29205  0
29200  29201  29382  0
29018  29204  29389  0
29390  29389  29204  0
29391  29390  29204  0
29204  29197  29391  0
29388  29391  29197  0
29197  29014  29388  0
29392  29201  29022  0
29023  29018  29393  0
29389  29393  29018  0
29206  29394  29195  0
29195  29198  29206  0
29205  29395  29207  0
29022  29026  29392  0
29396  29392  29026  0
29027  29028  29397  0
29028  29023  29398  0
29393  29398  29023  0
29208  29399  29394  0
29394  29206  29208  0
29400  29210  29401  0
29401  29210  29211  0
29395  29401  29211  0
29211  29207  29395  0
29026  29030  29396  0
29402  29396  29030  0
29030  29027  29402  0
29397  29402  29027  0
29209  29213  29399  0
29399  29208  29209  0
29400  29214  29210  0
29400  29403  29214  0
29404  29214  29403  0
29212  29215  29213  0
29405  29213  29215  0
29214  29404  29034  0
29406  29034  29404  0
29215  29216  29405  0
29034  29406  29037  0
29221  29037  29406  0
29407  29216  29217  0
29218  29219  29408  0
29220  29219  28852  0
29409  29220  28853  0
28853  29035  29409  0
29217  29039  29407  0
29222  29218  29408  0
29035  29223  29410  0
29411  29223  29042  0
29221  29412  29038  0
29044  29038  29412  0
29412  29413  29044  0
29414  29044  29413  0
29041  29222  29415  0
29042  29224  29411  0
29044  29414  28863  0
29052  28863  29414  0
29226  29052  29414  0
29039  29225  29407  0
29046  29041  29416  0
29417  29416  29041  0
29041  29415  29417  0
29411  29224  29418  0
29045  29419  29040  0
29040  29419  29225  0
29048  29046  29416  0
29048  29416  29049  0
29050  29228  29224  0
29228  29420  29224  0
29418  29224  29420  0
29045  29421  29419  0
29045  29047  29421  0
29416  29422  29049  0
29049  29422  29054  0
29229  29420  29228  0
29423  29047  29053  0
29424  29054  29422  0
29420  29229  29425  0
29426  29425  29229  0
29229  29231  29426  0
29426  29231  29427  0
29426  29427  29428  0
29426  29428  29429  0
29428  29427  29430  0
29428  29430  29429  0
29430  29427  29431  0
29430  29431  29432  0
29433  29241  29234  0
29232  29233  29434  0
29233  29235  29435  0
29233  29435  29434  0
29235  29236  29435  0
29236  29243  29436  0
29236  29436  29435  0
29230  29437  29064  0
29243  29064  29437  0
29053  29438  29439  0
29053  29439  29423  0
29053  29237  29438  0
29440  29237  29054  0
29231  29239  29427  0
29427  29239  29247  0
29427  29247  29441  0
29427  29441  29431  0
29431  29441  29442  0
29431  29442  29443  0
29431  29443  29432  0
29241  29433  29242  0
29243  28875  29064  0
29237  29440  29438  0
29247  29248  29441  0
29441  29248  29442  0
29442  29248  29444  0
29059  29240  29445  0
29240  28874  29445  0
28874  29249  29445  0
29248  29246  29446  0
29248  29446  29447  0
29252  29448  29253  0
29246  29072  29256  0
29246  29256  29446  0
29446  29256  29447  0
29069  29250  29449  0
29069  29449  29255  0
29256  29255  29447  0
29257  29259  29258  0
29258  29259  29450  0
29258  29450  29076  0
29259  29260  29451  0
29259  29451  29450  0
29450  29451  29261  0
29450  29261  29076  0
29264  29452  29265  0
29260  29267  29451  0
29451  29267  29268  0
29451  29268  29261  0
29086  29269  29453  0
29086  29453  29262  0
29265  29452  29454  0
29265  29454  29088  0
29088  29454  29270  0
29267  29266  29455  0
29267  29455  29268  0
29269  28931  29456  0
29269  29456  29453  0
29266  29281  29455  0
29455  29457  29268  0
29268  29457  29273  0
29268  29273  29090  0
28931  29097  29456  0
29272  29458  29274  0
29274  29458  29279  0
29455  29281  29459  0
29273  29457  29460  0
29273  29460  29275  0
29277  29276  29461  0
29277  29461  29278  0
29104  29278  29285  0
29279  29462  29280  0
28926  29290  29281  0
29275  29460  29463  0
29275  29463  29282  0
29276  29284  29301  0
29276  29301  29461  0
29461  29301  29464  0
29287  29288  29465  0
29280  29466  29289  0
29464  29301  29467  0
29464  29467  29468  0
29464  29468  29461  0
29293  29286  29469  0
29293  29469  29470  0
29289  29466  29471  0
29289  29471  28938  0
29112  29282  29472  0
29112  29472  29296  0
29301  29302  29467  0
29473  29467  29302  0
29467  29473  29470  0
29474  29470  29473  0
29467  29470  29468  0
29470  29474  29293  0
29116  29293  29474  0
28938  29471  29475  0
28938  29475  29114  0
29114  29475  29476  0
29114  29476  29304  0
29302  29307  29473  0
29477  29473  29307  0
29473  29477  29474  0
29474  29478  29116  0
29118  29116  29478  0
29474  29477  29479  0
29474  29479  29478  0
29303  29119  29480  0
29312  29480  29119  0
29296  29481  28951  0
29306  29310  29307  0
29482  29307  29310  0
29307  29482  29477  0
29118  29478  29311  0
28951  29481  29313  0
29310  29316  29482  0
29483  29482  29316  0
29319  29313  29484  0
29316  29485  29483  0
29486  29485  29316  0
29323  29322  29487  0
29487  29322  29488  0
29324  29488  29322  0
29312  28764  29489  0
29325  29489  28764  0
29318  29319  29327  0
29316  29320  29486  0
29141  29490  29142  0
29142  29490  29491  0
29142  29491  29143  0
29492  29329  29327  0
29326  29327  29329  0
29319  29492  29327  0
29493  29486  29320  0
29324  29328  29494  0
29143  29491  29146  0
29325  29147  29495  0
29332  29495  29147  0
29330  29329  29496  0
29492  29496  29329  0
29320  29137  29493  0
29145  29493  29137  0
29328  29334  29494  0
29497  29494  29334  0
29144  29330  29498  0
29144  29498  29499  0
29148  29493  29145  0
29500  29333  29321  0
29334  29154  29497  0
29499  29335  29144  0
29493  29148  29501  0
29336  29335  29502  0
29148  29337  29501  0
29503  29501  29337  0
29333  29500  29338  0
29504  29338  29500  0
29342  29339  28783  0
29337  29153  29503  0
29338  29504  29156  0
29505  29156  29504  0
29156  29505  29341  0
29506  29341  29505  0
29341  29506  29162  0
29507  29161  29160  0
29162  29506  29343  0
29157  29344  29508  0
29346  29161  29509  0
29346  29510  28994  0
29166  28994  29510  0
29166  29511  29169  0
29348  29169  29511  0
29348  29512  29170  0
29513  29170  29512  0
29170  29513  29171  0
29514  29171  29513  0
29171  29514  29172  0
29515  29172  29514  0
29172  29515  29173  0
29173  29515  28999  0
29347  29167  29516  0
29516  29167  29168  0
29356  29357  29517  0
29515  29517  29357  0
29357  28999  29515  0
29518  29516  29168  0
29519  29361  29360  0
29352  29351  29360  0
29351  29350  29520  0
29356  29520  29350  0
29168  29174  29518  0
29519  29521  29361  0
29522  29361  29521  0
29175  29363  29179  0
29364  29179  29363  0
29358  29518  29174  0
29523  29518  29358  0
29361  29522  29359  0
29524  29525  29526  0
29525  29367  29370  0
29181  29370  29367  0
29525  29524  29367  0
29368  29367  29524  0
29363  29527  29364  0
29528  29364  29527  0
29365  29364  29528  0
29365  29529  29003  0
29003  29529  29358  0
29522  29530  29359  0
29369  29359  29530  0
29522  29531  29530  0
29532  29533  29534  0
29526  29533  29532  0
29373  29533  29525  0
29533  29526  29525  0
29525  29370  29373  0
29535  29536  29537  0
29534  29536  29535  0
29536  29534  29538  0
29536  29538  29537  0
29534  29533  29539  0
29534  29539  29538  0
29533  29373  29375  0
29530  29540  29369  0
29537  29538  29541  0
29538  29539  29542  0
29538  29542  29541  0
29539  29533  29380  0
29539  29380  29387  0
29539  29387  29542  0
29533  29375  29380  0
29540  29543  29544  0
29540  29544  29369  0
29540  29545  29543  0
29546  29543  29545  0
29369  29544  29374  0
29387  29547  29542  0
29548  29543  29546  0
29544  29376  29374  0
29378  29549  29379  0
29379  29549  29381  0
29383  29382  29550  0
29383  29550  29551  0
29383  29551  29385  0
29547  29385  29551  0
29385  29547  29387  0
29543  29548  29544  0
29544  29552  29376  0
29376  29552  29553  0
29376  29553  29377  0
29377  29553  29378  0
29378  29553  29549  0
29382  29554  29550  0
29555  29553  29552  0
29553  29555  29556  0
29553  29556  29549  0
29549  29556  29205  0
29549  29205  29381  0
29382  29201  29557  0
29390  29391  29558  0
29390  29558  29559  0
29391  29388  29558  0
29556  29555  29395  0
29556  29395  29205  0
29201  29392  29557  0
29389  29390  29560  0
29390  29559  29560  0
29559  29558  29561  0
29558  29562  29561  0
29558  29388  29562  0
29388  29394  29562  0
29388  29195  29394  0
29563  29400  29401  0
29563  29564  29400  0
29563  29401  29555  0
29555  29401  29395  0
29392  29396  29565  0
29028  29398  29397  0
29393  29389  29566  0
29389  29560  29566  0
29561  29562  29567  0
29562  29394  29399  0
29403  29400  29568  0
29403  29568  29404  0
29402  29397  29569  0
29402  29569  29396  0
29397  29398  29569  0
29562  29213  29570  0
29562  29570  29567  0
29562  29399  29213  0
29570  29213  29405  0
29406  29404  29571  0
29406  29571  29221  0
29216  29407  29572  0
29216  29572  29405  0
29219  29573  29408  0
29219  29220  29574  0
29219  29574  29573  0
29220  29409  29574  0
29035  29410  29575  0
29035  29575  29409  0
29221  29571  29412  0
29407  29576  29572  0
29223  29411  29577  0
29223  29577  29410  0
29222  29408  29415  0
29407  29578  29576  0
29416  29417  29579  0
29418  29580  29411  0
29226  29581  29051  0
29051  29582  29227  0
29051  29581  29582  0
29225  29578  29407  0
29225  29419  29583  0
29225  29583  29578  0
29420  29584  29580  0
29420  29580  29418  0
29420  29585  29584  0
29227  29582  29586  0
29227  29586  29230  0
29421  29587  29419  0
29421  29047  29588  0
29421  29588  29587  0
29419  29587  29583  0
29422  29416  29589  0
29589  29416  29579  0
29420  29425  29585  0
29590  29430  29591  0
29591  29430  29432  0
29592  29234  29232  0
29592  29232  29434  0
29434  29435  29593  0
29434  29593  29592  0
29435  29594  29593  0
29435  29595  29594  0
29435  29436  29595  0
29230  29586  29596  0
29230  29596  29437  0
29047  29423  29588  0
29422  29589  29424  0
29425  29426  29597  0
29425  29597  29585  0
29426  29429  29597  0
29429  29598  29597  0
29429  29430  29590  0
29429  29590  29598  0
29432  29443  29599  0
29436  29243  29437  0
29436  29437  29600  0
29596  29600  29437  0
29054  29424  29440  0
29424  29601  29440  0
29602  29443  29442  0
29433  29603  29242  0
29604  29439  29438  0
29438  29440  29605  0
29438  29605  29604  0
29440  29606  29605  0
29442  29444  29602  0
29059  29445  29607  0
29242  29603  29608  0
29242  29608  29252  0
29252  29608  29609  0
29248  29447  29444  0
29249  29251  29610  0
29252  29609  29448  0
29611  29444  29447  0
29612  29251  28890  0
29448  29613  29614  0
29447  29255  29611  0
28890  29615  29612  0
29615  29616  29612  0
29617  29612  29616  0
29614  29613  29618  0
29262  29619  29264  0
29452  29264  29619  0
29262  29453  29619  0
29620  29452  29619  0
29456  29619  29453  0
29452  29620  29454  0
29621  29454  29620  0
29271  29270  29454  0
29622  29272  29271  0
29458  29272  29622  0
29456  29097  29623  0
29287  29623  29097  0
29458  29624  29279  0
29462  29279  29624  0
29625  29455  29459  0
29455  29625  29457  0
29460  29457  29625  0
29287  29465  29623  0
29626  29623  29465  0
29466  29280  29462  0
29627  29459  29281  0
29459  29628  29625  0
29629  29625  29628  0
29459  29627  29628  0
29625  29629  29460  0
29630  29460  29629  0
29460  29630  29463  0
29468  29278  29461  0
29469  29278  29468  0
29278  29469  29285  0
29286  29285  29469  0
29290  29295  29281  0
29627  29281  29295  0
29631  29282  29463  0
29470  29469  29468  0
29632  29465  29288  0
29288  29303  29632  0
29633  29632  29303  0
29466  29634  29471  0
29295  29635  29627  0
29636  29635  29295  0
29282  29631  29472  0
29303  29480  29633  0
29294  29637  29295  0
29636  29295  29637  0
29294  29304  29637  0
29638  29637  29304  0
29639  29296  29472  0
29489  29480  29312  0
29296  29639  29481  0
29640  29477  29482  0
29477  29640  29479  0
29641  29479  29640  0
29479  29641  29478  0
29642  29311  29478  0
29643  29484  29481  0
29313  29481  29484  0
29482  29483  29640  0
29311  29642  29317  0
29485  29486  29644  0
29645  29487  29488  0
29488  29324  29646  0
29487  29645  29323  0
29647  29323  29645  0
29323  29647  29141  0
29490  29141  29647  0
29489  29648  29649  0
29489  29325  29648  0
29650  29496  29492  0
29650  29651  29496  0
29650  29492  29319  0
29650  29319  29484  0
29650  29484  29652  0
29486  29653  29644  0
29324  29494  29646  0
29648  29325  29495  0
29486  29493  29653  0
29654  29321  29317  0
29655  29321  29654  0
29491  29331  29146  0
29656  29331  29491  0
29331  29656  29332  0
29657  29332  29656  0
29332  29657  29495  0
29496  29658  29330  0
29498  29330  29658  0
29497  29659  29494  0
29655  29500  29321  0
29660  29500  29655  0
29497  29154  29339  0
29497  29339  29659  0
29336  29502  29661  0
29662  29336  29661  0
29335  29499  29502  0
29660  29663  29500  0
29500  29663  29504  0
29664  29504  29663  0
29339  29342  29665  0
29340  29336  29662  0
29503  29153  29666  0
29504  29664  29505  0
29667  29505  29664  0
29160  29340  29662  0
29160  29662  29507  0
29153  29158  29666  0
29505  29667  29506  0
29668  29506  29667  0
29669  29506  29668  0
29161  29507  29670  0
29161  29670  29509  0
29158  29345  29671  0
29158  29671  29666  0
29506  29672  29343  0
29506  29669  29672  0
29673  29343  29672  0
29674  29346  29509  0
29343  29673  29163  0
29163  29673  29164  0
29675  29164  29673  0
29164  29675  29165  0
29345  29347  29676  0
29347  29516  29676  0
29166  29510  29677  0
29166  29677  29511  0
29511  29677  29678  0
29511  29678  29348  0
29348  29678  29679  0
29348  29679  29512  0
29512  29679  29680  0
29512  29680  29513  0
29513  29680  29514  0
29514  29517  29515  0
29514  29680  29517  0
29516  29681  29676  0
29682  29360  29351  0
29682  29351  29520  0
29682  29520  29683  0
29520  29356  29680  0
29520  29680  29683  0
29356  29517  29680  0
29516  29518  29684  0
29516  29684  29681  0
29519  29360  29682  0
29521  29685  29522  0
29518  29523  29684  0
29522  29685  29686  0
29522  29686  29531  0
29687  29532  29534  0
29687  29688  29689  0
29687  29689  29532  0
29687  29690  29688  0
29532  29689  29691  0
29532  29691  29526  0
29526  29691  29524  0
29524  29692  29368  0
29368  29692  29693  0
29368  29693  29363  0
29363  29693  29527  0
29528  29694  29365  0
29529  29695  29358  0
29358  29695  29523  0
29696  29687  29534  0
29696  29534  29535  0
29696  29690  29687  0
29530  29531  29697  0
29530  29697  29540  0
29535  29537  29698  0
29535  29698  29696  0
29540  29697  29545  0
29537  29541  29699  0
29537  29699  29698  0
29541  29542  29700  0
29541  29700  29699  0
29542  29701  29700  0
29542  29547  29702  0
29542  29702  29701  0
29551  29550  29547  0
29548  29552  29544  0
29550  29554  29703  0
29550  29703  29547  0
29547  29703  29702  0
29704  29702  29703  0
29563  29552  29705  0
29552  29548  29705  0
29552  29563  29555  0
29382  29557  29554  0
29706  29554  29557  0
29554  29706  29703  0
29707  29703  29706  0
29703  29707  29708  0
29703  29708  29704  0
29709  29568  29705  0
29564  29705  29568  0
29709  29705  29548  0
29705  29564  29563  0
29706  29557  29710  0
29706  29710  29707  0
29400  29564  29568  0
29560  29559  29711  0
29561  29711  29559  0
29568  29712  29404  0
29396  29569  29713  0
29396  29713  29565  0
29569  29714  29713  0
29569  29398  29714  0
29715  29714  29398  0
29398  29393  29715  0
29393  29566  29715  0
29560  29715  29566  0
29567  29711  29561  0
29404  29712  29716  0
29717  29711  29567  0
29404  29716  29571  0
29718  29717  29567  0
29567  29570  29572  0
29405  29572  29570  0
29567  29572  29718  0
29571  29719  29412  0
29572  29576  29720  0
29721  29722  29408  0
29573  29721  29408  0
29723  29575  29410  0
29410  29577  29723  0
29724  29723  29577  0
29412  29725  29413  0
29413  29726  29414  0
29413  29725  29726  0
29415  29408  29722  0
29577  29411  29724  0
29727  29724  29411  0
29414  29726  29226  0
29226  29726  29728  0
29729  29576  29578  0
29417  29415  29730  0
29722  29730  29415  0
29580  29727  29411  0
29731  29727  29580  0
29578  29583  29729  0
29584  29731  29580  0
29597  29584  29585  0
29587  29732  29583  0
29733  29589  29579  0
29591  29432  29599  0
29433  29234  29592  0
29595  29436  29734  0
29735  29734  29436  0
29436  29600  29735  0
29586  29736  29596  0
29737  29588  29423  0
29589  29733  29738  0
29739  29599  29443  0
29740  29739  29443  0
29596  29736  29600  0
29423  29439  29737  0
29424  29589  29601  0
29589  29738  29601  0
29443  29602  29740  0
29439  29604  29737  0
29604  29605  29741  0
29742  29741  29605  0
29440  29601  29606  0
29601  29738  29743  0
29605  29606  29742  0
29744  29742  29606  0
29606  29601  29745  0
29606  29745  29744  0
29601  29743  29745  0
29746  29745  29743  0
29747  29607  29445  0
29445  29249  29747  0
29610  29747  29249  0
29746  29744  29745  0
29619  29456  29748  0
29619  29748  29620  0
29620  29748  29749  0
29620  29749  29621  0
29622  29454  29621  0
29454  29622  29271  0
29456  29623  29748  0
29622  29750  29458  0
29751  29458  29750  0
29458  29751  29624  0
29752  29624  29751  0
29753  29462  29624  0
29623  29754  29748  0
29755  29462  29753  0
29626  29756  29623  0
29462  29755  29466  0
29628  29627  29757  0
29628  29757  29629  0
29758  29463  29630  0
29626  29465  29632  0
29626  29632  29759  0
29626  29759  29756  0
29466  29755  29634  0
29463  29758  29631  0
29639  29472  29631  0
29760  29475  29471  0
29761  29475  29760  0
29480  29489  29762  0
29480  29762  29633  0
29475  29761  29476  0
29638  29304  29476  0
29636  29637  29638  0
29639  29763  29481  0
29764  29640  29765  0
29640  29483  29766  0
29640  29766  29765  0
29640  29764  29641  0
29642  29641  29764  0
29641  29642  29478  0
29489  29649  29762  0
29643  29763  29767  0
29643  29767  29484  0
29652  29484  29767  0
29643  29481  29763  0
29768  29483  29485  0
29768  29766  29483  0
29642  29769  29317  0
29770  29771  29645  0
29770  29645  29488  0
29770  29772  29771  0
29771  29647  29645  0
29651  29650  29652  0
29651  29652  29767  0
29651  29767  29773  0
29651  29773  29774  0
29485  29644  29768  0
29654  29317  29769  0
29654  29769  29775  0
29654  29775  29776  0
29647  29777  29490  0
29647  29771  29777  0
29648  29778  29649  0
29651  29774  29779  0
29651  29779  29496  0
29646  29494  29780  0
29490  29656  29491  0
29490  29777  29656  0
29657  29781  29495  0
29495  29781  29648  0
29496  29779  29658  0
29653  29782  29783  0
29784  29655  29654  0
29784  29654  29776  0
29494  29659  29785  0
29494  29785  29780  0
29658  29786  29498  0
29782  29653  29493  0
29782  29493  29787  0
29655  29784  29788  0
29498  29786  29789  0
29787  29493  29501  0
29788  29660  29655  0
29659  29339  29790  0
29499  29498  29789  0
29499  29789  29791  0
29787  29501  29792  0
29339  29665  29790  0
29502  29499  29791  0
29792  29501  29503  0
29792  29503  29793  0
29663  29794  29664  0
29503  29666  29793  0
29664  29794  29795  0
29664  29795  29667  0
29507  29662  29796  0
29668  29667  29797  0
29668  29797  29669  0
29798  29342  29157  0
29157  29508  29798  0
29799  29798  29508  0
29671  29345  29800  0
29165  29675  29801  0
29165  29801  29344  0
29344  29801  29799  0
29344  29799  29508  0
29346  29674  29802  0
29346  29802  29510  0
29510  29802  29677  0
29345  29676  29800  0
29677  29803  29678  0
29682  29678  29803  0
29677  29804  29803  0
29683  29678  29682  0
29678  29683  29679  0
29679  29683  29680  0
29803  29519  29682  0
29521  29519  29805  0
29805  29519  29804  0
29803  29804  29519  0
29805  29804  29806  0
29805  29685  29521  0
29805  29806  29807  0
29805  29807  29685  0
29689  29688  29808  0
29808  29688  29809  0
29810  29809  29688  0
29691  29689  29808  0
29808  29811  29691  0
29691  29811  29524  0
29524  29811  29812  0
29524  29812  29692  0
29692  29812  29693  0
29693  29812  29813  0
29814  29684  29523  0
29685  29815  29686  0
29688  29690  29810  0
29816  29810  29690  0
29693  29813  29527  0
29527  29813  29817  0
29527  29817  29528  0
29528  29817  29694  0
29529  29365  29694  0
29695  29814  29523  0
29698  29690  29696  0
29690  29698  29816  0
29699  29816  29698  0
29816  29699  29818  0
29816  29818  29819  0
29818  29820  29819  0
29821  29819  29820  0
29822  29821  29820  0
29820  29823  29822  0
29694  29824  29529  0
29529  29824  29695  0
29531  29825  29697  0
29531  29686  29826  0
29531  29826  29825  0
29700  29818  29699  0
29818  29700  29820  0
29820  29700  29823  0
29701  29823  29700  0
29827  29823  29701  0
29823  29827  29828  0
29697  29825  29545  0
29829  29545  29825  0
29701  29702  29827  0
29830  29827  29702  0
29827  29830  29831  0
29832  29831  29830  0
29546  29545  29833  0
29829  29833  29545  0
29830  29702  29704  0
29834  29546  29833  0
29704  29708  29830  0
29835  29830  29708  0
29830  29835  29832  0
29546  29836  29548  0
29546  29834  29836  0
29837  29707  29710  0
29707  29837  29708  0
29708  29837  29835  0
29838  29835  29837  0
29709  29548  29836  0
29839  29557  29392  0
29557  29839  29710  0
29840  29710  29839  0
29710  29840  29837  0
29841  29837  29840  0
29838  29837  29841  0
29392  29565  29839  0
29839  29842  29840  0
29839  29565  29842  0
29843  29842  29565  0
29840  29844  29841  0
29845  29841  29844  0
29709  29712  29568  0
29565  29713  29843  0
29714  29715  29846  0
29715  29560  29847  0
29560  29711  29847  0
29712  29848  29716  0
29846  29713  29714  0
29847  29846  29715  0
29847  29711  29717  0
29716  29848  29571  0
29719  29571  29848  0
29849  29850  29717  0
29718  29849  29717  0
29718  29572  29720  0
29573  29574  29851  0
29852  29851  29574  0
29574  29409  29852  0
29853  29852  29409  0
29409  29575  29853  0
29719  29725  29412  0
29854  29718  29720  0
29855  29722  29721  0
29721  29573  29855  0
29851  29855  29573  0
29726  29856  29728  0
29720  29576  29854  0
29722  29855  29857  0
29724  29727  29858  0
29728  29581  29226  0
29728  29859  29581  0
29854  29576  29729  0
29729  29583  29860  0
29727  29731  29861  0
29727  29861  29858  0
29581  29859  29582  0
29862  29582  29859  0
29582  29862  29586  0
29736  29586  29862  0
29583  29863  29860  0
29417  29730  29864  0
29417  29864  29579  0
29865  29579  29864  0
29584  29597  29866  0
29584  29866  29731  0
29867  29593  29594  0
29867  29594  29595  0
29867  29868  29593  0
29592  29593  29868  0
29595  29869  29867  0
29595  29734  29870  0
29595  29870  29869  0
29587  29588  29871  0
29587  29871  29732  0
29863  29583  29732  0
29579  29865  29733  0
29866  29597  29598  0
29598  29590  29872  0
29598  29872  29866  0
29590  29591  29873  0
29590  29873  29872  0
29591  29599  29874  0
29591  29874  29873  0
29599  29739  29875  0
29599  29875  29874  0
29592  29876  29433  0
29877  29433  29876  0
29588  29737  29871  0
29433  29877  29603  0
29608  29603  29877  0
29738  29733  29878  0
29737  29604  29879  0
29604  29741  29880  0
29604  29880  29879  0
29741  29742  29881  0
29741  29881  29880  0
29738  29878  29882  0
29738  29882  29743  0
29609  29608  29883  0
29742  29744  29884  0
29742  29884  29881  0
29743  29882  29746  0
29610  29885  29747  0
29610  29251  29886  0
29610  29886  29885  0
29744  29746  29887  0
29744  29887  29884  0
29746  29882  29888  0
29251  29612  29889  0
29251  29889  29886  0
29448  29609  29890  0
29448  29890  29613  0
29887  29746  29888  0
29612  29617  29891  0
29612  29891  29889  0
29613  29892  29618  0
29618  29892  29893  0
29617  29894  29891  0
29621  29749  29895  0
29621  29895  29622  0
29622  29895  29750  0
29749  29748  29754  0
29749  29754  29895  0
29750  29895  29896  0
29750  29896  29751  0
29624  29752  29897  0
29624  29897  29753  0
29754  29623  29756  0
29754  29756  29895  0
29895  29756  29898  0
29895  29898  29896  0
29896  29898  29899  0
29896  29899  29751  0
29753  29900  29755  0
29900  29901  29755  0
29756  29759  29898  0
29898  29759  29902  0
29898  29902  29899  0
29629  29757  29903  0
29629  29903  29630  0
29630  29903  29758  0
29759  29632  29902  0
29632  29904  29902  0
29627  29905  29757  0
29757  29906  29903  0
29903  29906  29907  0
29903  29907  29758  0
29758  29907  29908  0
29758  29908  29631  0
29632  29633  29904  0
29634  29760  29471  0
29634  29755  29760  0
29627  29635  29905  0
29631  29908  29909  0
29631  29909  29639  0
29910  29904  29633  0
29636  29911  29912  0
29636  29912  29635  0
29913  29911  29636  0
29639  29909  29914  0
29639  29914  29763  0
29633  29762  29910  0
29476  29761  29915  0
29476  29915  29638  0
29638  29913  29636  0
29914  29916  29763  0
29917  29765  29766  0
29917  29918  29765  0
29765  29918  29764  0
29764  29919  29642  0
29642  29919  29920  0
29642  29920  29769  0
29921  29772  29770  0
29922  29921  29770  0
29771  29772  29923  0
29924  29773  29767  0
29767  29763  29924  0
29916  29924  29763  0
29768  29925  29766  0
29766  29925  29917  0
29769  29920  29926  0
29769  29926  29775  0
29770  29488  29922  0
29771  29923  29927  0
29771  29927  29777  0
29925  29768  29783  0
29644  29783  29768  0
29928  29925  29783  0
29926  29929  29775  0
29776  29775  29929  0
29488  29646  29922  0
29780  29922  29646  0
29922  29780  29930  0
29656  29777  29931  0
29777  29927  29931  0
29648  29781  29778  0
29928  29783  29932  0
29653  29783  29644  0
29933  29776  29929  0
29780  29785  29930  0
29656  29934  29657  0
29779  29935  29658  0
29782  29932  29783  0
29776  29933  29784  0
29936  29784  29933  0
29658  29935  29786  0
29937  29786  29935  0
29932  29782  29938  0
29787  29938  29782  0
29932  29938  29939  0
29788  29784  29936  0
29790  29785  29659  0
29785  29790  29940  0
29941  29940  29790  0
29786  29937  29789  0
29942  29789  29937  0
29943  29660  29788  0
29665  29941  29790  0
29942  29791  29789  0
29939  29938  29944  0
29938  29787  29944  0
29792  29944  29787  0
29660  29943  29663  0
29945  29663  29943  0
29946  29947  29665  0
29661  29502  29948  0
29502  29791  29948  0
29949  29948  29791  0
29791  29942  29949  0
29944  29792  29950  0
29663  29945  29794  0
29951  29794  29945  0
29794  29951  29795  0
29952  29795  29951  0
29953  29665  29342  0
29665  29953  29946  0
29662  29661  29954  0
29662  29954  29955  0
29793  29950  29792  0
29795  29952  29667  0
29797  29667  29952  0
29952  29956  29797  0
29662  29955  29796  0
29669  29797  29957  0
29342  29798  29953  0
29799  29953  29798  0
29507  29796  29670  0
29671  29958  29666  0
29959  29673  29672  0
29960  29673  29959  0
29673  29960  29675  0
29802  29674  29509  0
29961  29800  29676  0
29802  29962  29677  0
29677  29962  29804  0
29963  29804  29962  0
29676  29681  29961  0
29681  29684  29964  0
29804  29963  29806  0
29809  29965  29808  0
29809  29966  29965  0
29965  29967  29808  0
29811  29808  29967  0
29968  29967  29965  0
29969  29967  29968  0
29967  29969  29811  0
29814  29964  29684  0
29811  29969  29812  0
29970  29812  29969  0
29812  29970  29813  0
29971  29813  29970  0
29806  29972  29807  0
29973  29807  29972  0
29807  29973  29815  0
29807  29815  29685  0
29810  29816  29819  0
29819  29821  29974  0
29819  29974  29810  0
29813  29971  29817  0
29975  29815  29973  0
29815  29826  29686  0
29815  29975  29826  0
29822  29823  29828  0
29822  29976  29821  0
29824  29694  29817  0
29695  29824  29977  0
29826  29978  29825  0
29979  29825  29978  0
29828  29980  29822  0
29827  29831  29981  0
29827  29981  29828  0
29825  29979  29982  0
29825  29982  29829  0
29832  29983  29831  0
29984  29985  29986  0
29984  29986  29987  0
29986  29988  29987  0
29986  29989  29988  0
29989  29990  29988  0
29984  29991  29985  0
29985  29992  29986  0
29986  29992  29993  0
29986  29993  29989  0
29835  29983  29832  0
29835  29838  29983  0
29991  29994  29995  0
29991  29992  29985  0
29992  29996  29993  0
29836  29834  29709  0
29841  29845  29838  0
29991  29995  29997  0
29991  29997  29992  0
29709  29834  29998  0
29709  29998  29712  0
29840  29842  29999  0
29840  29999  29844  0
30000  30001  29995  0
30000  29995  29994  0
30000  29994  30002  0
29997  30003  29992  0
29992  30003  29996  0
29996  30003  30004  0
29712  29998  30005  0
29712  30005  29848  0
30001  30006  29995  0
29995  30006  29997  0
30003  30007  30004  0
29848  30005  30008  0
29713  29846  30009  0
29713  30009  30010  0
29713  30010  30011  0
29713  30011  29843  0
29846  29847  30012  0
29847  29850  30012  0
29847  29717  29850  0
29997  30006  30003  0
30003  30013  30007  0
30003  30006  30013  0
29848  30008  30014  0
29848  30014  29719  0
29846  30012  30009  0
29850  29849  30015  0
29719  30014  29725  0
30015  30016  30017  0
30015  30017  29850  0
29849  29718  30015  0
29725  29856  29726  0
30015  29718  29854  0
30015  29854  30016  0
29575  29723  30018  0
29575  30018  29853  0
29723  29724  30019  0
29723  30019  30018  0
29728  29856  29859  0
29854  29729  30020  0
29854  30020  30016  0
29722  29857  29730  0
29724  29858  30019  0
29729  29860  30020  0
29730  29857  29864  0
29858  29861  30021  0
29867  30022  30023  0
29867  30023  29868  0
29867  29869  30022  0
29862  30024  29736  0
29860  29863  30025  0
29860  30025  30026  0
29861  29731  29866  0
29861  29866  30027  0
29861  30027  30021  0
30028  29876  30029  0
29592  29868  29876  0
29876  29868  30023  0
29876  30023  30029  0
29870  29734  29735  0
29600  30030  29735  0
30030  29600  29736  0
30030  29736  30024  0
29732  30031  29863  0
30032  29863  30031  0
29732  29871  30031  0
29863  30032  30025  0
30025  30032  30033  0
30025  30033  30026  0
29866  29872  30027  0
30034  30027  29872  0
30035  29874  29875  0
30028  29877  29876  0
30036  30032  30031  0
30037  30032  30036  0
30032  30037  30033  0
30038  30033  30037  0
30033  30038  30039  0
29733  29865  29878  0
30040  29878  29865  0
29877  30041  30042  0
29877  30042  29608  0
29879  29871  29737  0
30031  29879  30036  0
29880  30036  29879  0
30036  29880  30037  0
29881  30037  29880  0
30037  29881  30038  0
29878  30040  30043  0
29739  29740  30044  0
30045  30044  29740  0
29883  29608  30042  0
30046  30038  29881  0
30038  30046  30047  0
29878  30043  30048  0
29878  30048  29882  0
30049  29882  30048  0
29881  29884  30046  0
29888  30047  30046  0
30050  30051  29607  0
29884  29887  30046  0
29888  30046  29887  0
29882  30049  29888  0
30050  30052  30051  0
30053  29885  29886  0
29889  30053  29886  0
29892  29613  29890  0
29889  29891  30054  0
29751  30055  29752  0
30056  29752  30055  0
29751  29899  30055  0
30057  30055  29899  0
29752  30056  29897  0
29897  29900  29753  0
29899  29902  30057  0
30058  30057  29902  0
29901  30059  29755  0
30060  29755  30059  0
29902  29904  30058  0
30061  29907  29906  0
29907  30062  29908  0
30063  29908  30062  0
29907  30061  30062  0
30064  30062  30061  0
30062  30064  30063  0
30060  29760  29755  0
30065  29760  30060  0
29635  29912  29905  0
29908  30063  29909  0
29761  29760  30065  0
29919  29764  29918  0
29921  30066  29772  0
30067  29910  29762  0
29913  29638  29915  0
29918  29917  30068  0
29921  29922  30069  0
30070  30069  29922  0
29772  30066  29923  0
30071  29923  30066  0
29923  30071  29927  0
29649  30067  29762  0
29649  29778  30067  0
30072  30067  29778  0
29924  29916  30073  0
30068  29917  29928  0
29925  29928  29917  0
30068  29928  30074  0
29926  29920  30075  0
30076  29926  30075  0
29922  29930  30070  0
30072  29778  29781  0
30077  29773  30078  0
30076  29929  29926  0
29933  29929  30076  0
29930  30079  30070  0
29927  30080  29931  0
29931  29934  29656  0
29934  29781  29657  0
29774  29773  30077  0
30081  29779  29774  0
30082  29928  29932  0
30082  30074  29928  0
29933  30083  30084  0
29930  29785  30079  0
30079  29785  29940  0
29779  30081  29935  0
30082  29932  29939  0
30082  29939  30085  0
30084  29936  29933  0
29935  30081  30086  0
29935  30086  29937  0
30085  29939  30087  0
29936  30088  29788  0
29937  30089  30090  0
29937  30090  29942  0
29937  30086  30089  0
30087  29939  29944  0
29941  29665  29947  0
29944  29950  30087  0
29943  30091  29945  0
29942  30090  29949  0
29945  30092  29951  0
29951  30092  30093  0
29951  30093  30094  0
29951  30094  29952  0
29952  30094  30095  0
30095  30096  29956  0
30095  29956  29952  0
30095  30094  30096  0
29956  30097  29957  0
29956  29957  29797  0
29956  30096  30097  0
30097  30098  29957  0
29953  30099  29946  0
29793  29666  29958  0
29957  30100  29672  0
29957  29672  29669  0
29957  30098  30101  0
29957  30101  30100  0
29953  29799  30099  0
29958  29671  30102  0
29672  30103  29959  0
29672  30100  30103  0
30104  30105  30106  0
29675  29960  29801  0
29801  30107  29799  0
29509  29670  30108  0
29509  30108  29802  0
29671  30109  30102  0
29671  29800  30109  0
30106  30110  30111  0
30106  30111  30104  0
30106  30112  30113  0
30106  30113  30110  0
30104  30111  30114  0
30104  30114  30115  0
30104  30115  30116  0
29802  30108  30117  0
29802  30117  29962  0
29800  29961  30109  0
29962  30117  29963  0
30110  30118  30119  0
30110  30119  30111  0
30110  30113  30118  0
30111  30119  30120  0
30111  30120  30114  0
30115  30114  30121  0
30115  30121  30122  0
30115  30122  30123  0
29963  30117  30124  0
29963  30124  29806  0
29681  29964  29961  0
30121  30114  30125  0
30121  30125  30126  0
30121  30126  30122  0
29809  29810  30127  0
29809  30127  29966  0
29965  29966  29968  0
29968  30128  29969  0
30119  30118  30129  0
30119  30130  30120  0
30114  30120  30131  0
30114  30131  30125  0
29806  30124  29972  0
29969  30132  29970  0
29814  30133  29964  0
30129  30134  30119  0
30119  30134  30130  0
30120  30130  30131  0
30131  30135  30125  0
30136  30135  30131  0
29810  29974  30137  0
29810  30137  30127  0
29821  30138  29974  0
29971  30139  29817  0
30133  29814  29695  0
29977  30133  29695  0
30129  30140  30141  0
30129  30141  30134  0
30142  30130  30134  0
30130  30142  30131  0
30131  30142  30136  0
29973  30143  29975  0
29826  29975  29978  0
29821  29976  30138  0
30144  30138  29976  0
29980  29976  29822  0
29817  30139  30145  0
29817  30145  29824  0
29824  30145  29977  0
30134  30146  30142  0
29981  29980  29828  0
30147  29980  29981  0
29981  30148  30147  0
30149  29829  29982  0
29981  29831  30148  0
30150  29984  30151  0
30151  29984  29987  0
30151  29987  30152  0
30153  30152  29987  0
29987  29988  30153  0
30154  30153  29988  0
29988  30155  30154  0
29990  30155  29988  0
29833  29829  30149  0
29833  30149  29834  0
30156  29834  30149  0
29831  29983  30148  0
30157  30148  29983  0
30150  30158  29984  0
30150  30159  30158  0
30160  29990  29989  0
30002  30157  29983  0
29994  29984  30158  0
29984  29994  29991  0
29989  29993  30160  0
30161  30160  29993  0
29998  29834  30156  0
30162  29983  29838  0
30002  29983  30162  0
30161  29993  29996  0
30163  29838  29845  0
29838  30163  30162  0
30164  30162  30163  0
29994  30158  30002  0
30165  29996  30004  0
29996  30165  30161  0
29842  30166  29999  0
29842  30167  30166  0
30168  29844  29999  0
29844  30168  29845  0
30163  29845  30168  0
30000  30002  30169  0
30004  30170  30165  0
29842  29843  30167  0
30011  30167  29843  0
30000  30169  30171  0
30172  30004  30007  0
30004  30173  30170  0
30004  30172  30173  0
30174  30000  30171  0
30000  30174  30001  0
30175  30007  30013  0
30007  30175  30172  0
30176  30172  30175  0
30008  30177  30014  0
30178  30010  30009  0
30009  30012  30178  0
29850  30178  30012  0
30179  30001  30174  0
30180  30001  30179  0
30001  30180  30006  0
30181  30006  30180  0
30006  30181  30013  0
30182  30013  30181  0
30013  30182  30175  0
30183  30176  30175  0
30014  30184  29725  0
30184  30185  29725  0
29856  29725  30185  0
30017  30178  29850  0
30174  30186  30179  0
30182  30183  30175  0
29851  29852  30187  0
29853  30187  29852  0
30188  30189  29856  0
29855  29851  30190  0
29855  30190  29857  0
30191  29857  30190  0
29851  30187  30190  0
30192  30187  29853  0
30193  30192  29853  0
29853  30018  30193  0
29856  30189  29859  0
30194  29859  30189  0
30195  30194  30196  0
30020  30197  30017  0
30017  30016  30020  0
30198  30019  29858  0
29862  29859  30194  0
30194  30195  29862  0
30024  29862  30195  0
30199  30197  30020  0
30200  30199  30020  0
30020  29860  30026  0
30020  30026  30201  0
30020  30201  30200  0
30201  30026  30202  0
30203  30200  30201  0
30201  30202  30203  0
30203  30202  30204  0
30205  29857  30206  0
29858  30021  30198  0
30023  30207  30029  0
30022  29869  30208  0
29869  29870  30208  0
29870  30209  30208  0
30026  30033  30202  0
30202  30033  30210  0
30202  30210  30211  0
30202  30211  30204  0
29864  29857  30205  0
30021  30027  30212  0
30021  30212  30198  0
30028  30029  30213  0
30214  30028  30213  0
29870  29735  30209  0
29735  30030  30209  0
30033  30039  30215  0
30033  30215  30210  0
30210  30215  30216  0
30210  30216  30211  0
30211  30216  30217  0
29865  29864  30218  0
29864  30205  30219  0
29864  30219  30218  0
30027  30034  30220  0
30027  30220  30212  0
29872  29873  30221  0
29872  30221  30034  0
29875  29739  30044  0
29875  30044  30222  0
29875  30222  30035  0
30028  30214  29877  0
30215  30039  30223  0
30215  30223  30216  0
30216  30223  30224  0
30216  30224  30217  0
29865  30218  30040  0
30220  30034  30225  0
29877  30214  30041  0
29871  29879  30031  0
30038  30047  30039  0
30039  30047  30048  0
30039  30048  30223  0
30223  30048  30226  0
30223  30226  30224  0
30047  30049  30048  0
30048  30043  30227  0
30048  30227  30226  0
30045  30052  30228  0
29883  30229  29609  0
30047  29888  30049  0
29607  29747  30050  0
29747  29885  30050  0
29609  30229  29890  0
30229  30230  29890  0
30052  30050  30231  0
29885  30053  30232  0
29885  30232  30050  0
29889  30054  30053  0
29892  29890  30233  0
29892  30233  29893  0
29891  29894  30234  0
29891  30234  30054  0
29893  30233  30235  0
29894  30236  30234  0
30056  30237  30238  0
30056  30238  29897  0
30056  30055  30239  0
30056  30239  30237  0
29897  30238  30240  0
29897  30240  29900  0
29900  30240  30241  0
29900  30241  29901  0
30055  30057  30242  0
30055  30242  30239  0
29901  30241  30059  0
30057  30058  30243  0
30057  30243  30242  0
29906  30244  30061  0
29906  29757  30245  0
29906  30245  30244  0
29904  29910  30058  0
30058  29910  30243  0
29905  30246  30245  0
29905  30245  29757  0
29905  29912  30246  0
29911  29913  30247  0
29912  29911  30246  0
29909  30063  30248  0
29909  30248  29914  0
29918  30249  29919  0
29921  30069  30250  0
29921  30250  30066  0
30066  30250  30251  0
30066  30251  30252  0
30067  30253  29910  0
30072  30253  30067  0
29761  30065  29915  0
29915  30254  29913  0
29916  29914  30255  0
30068  30256  29918  0
29919  30075  29920  0
29919  30249  30075  0
30069  30070  30257  0
30066  30252  30071  0
30071  30080  29927  0
29924  30073  30258  0
29924  30258  29773  0
30073  29916  30255  0
30068  30074  30256  0
30259  30256  30074  0
30260  30076  30075  0
30260  30075  30249  0
30079  30261  30070  0
30070  30261  30257  0
30080  29934  29931  0
30080  30262  29934  0
29781  29934  30072  0
30258  30078  29773  0
30074  30263  30259  0
30264  30083  30076  0
29933  30076  30083  0
30264  30076  30260  0
30265  30261  30079  0
30074  30082  30263  0
30084  30083  30266  0
30266  30083  30264  0
30266  30264  30267  0
30079  29940  30265  0
30268  30265  29940  0
30082  30085  30263  0
30269  30263  30085  0
29936  30084  30266  0
30088  29936  30266  0
30270  30266  30267  0
29940  29941  30268  0
30271  30089  30086  0
30272  30089  30271  0
30266  30270  30088  0
30273  30088  30270  0
29943  29788  30088  0
29941  29947  30268  0
30274  30268  29947  0
30089  30275  30090  0
30089  30272  30275  0
30276  30088  30273  0
30088  30276  29943  0
30091  29943  30276  0
30091  30277  29945  0
30092  29945  30277  0
30277  30278  30092  0
29947  29946  30274  0
30279  29954  29661  0
29661  29948  30279  0
30280  30279  29948  0
29948  29949  30280  0
30281  30280  29949  0
29949  30090  30281  0
30275  30281  30090  0
30282  30087  29950  0
30093  30283  30094  0
30284  30094  30283  0
30285  30283  30093  0
30094  30284  30096  0
30286  29955  29954  0
30284  30287  30096  0
30288  30096  30287  0
30096  30288  30097  0
30098  30097  30288  0
30289  29796  29955  0
29950  29793  30290  0
30283  30291  30284  0
30283  30285  30291  0
30292  30098  30288  0
30098  30292  30101  0
30293  30100  30101  0
29796  30289  30294  0
29793  29958  30290  0
30112  30284  30291  0
30284  30112  30287  0
30105  30287  30112  0
30287  30105  30288  0
30288  30105  30292  0
30295  30292  30105  0
30103  30100  30293  0
30296  30099  29799  0
29796  30294  29670  0
30291  30297  30298  0
30299  30298  30297  0
30291  30298  30112  0
30106  30105  30112  0
30105  30104  30295  0
30116  30295  30104  0
30103  30300  29959  0
30301  29959  30300  0
29959  30301  29960  0
30302  29960  30301  0
29960  30302  29801  0
30296  29799  30107  0
29670  30294  30108  0
30102  30109  30303  0
30113  30298  30299  0
30298  30113  30112  0
30123  30304  30116  0
30305  30117  30108  0
30123  30116  30115  0
30113  30306  30118  0
30122  30126  30307  0
30117  30305  30124  0
30308  30118  30306  0
29966  30309  29968  0
30128  29968  30309  0
30128  30310  29969  0
30125  30135  30311  0
30125  30311  30126  0
30124  30312  29972  0
30143  29972  30312  0
29969  30310  30132  0
30132  29971  29970  0
30118  30140  30129  0
30135  30136  30313  0
30135  30313  30314  0
29972  30143  29973  0
30137  29974  30315  0
30138  30315  29974  0
30132  30316  29971  0
29971  30316  30139  0
30317  30139  30316  0
30145  30139  30317  0
29977  30318  30133  0
30141  30146  30134  0
30313  30136  30319  0
30143  30320  29975  0
30138  30144  30321  0
30138  30321  30315  0
29976  29980  30322  0
29976  30322  30144  0
30323  30146  30141  0
30142  30324  30136  0
30319  30136  30324  0
29978  30325  29979  0
29980  30147  30326  0
29980  30326  30327  0
29980  30327  30322  0
30326  30328  30327  0
29979  30325  30329  0
29979  30329  29982  0
30147  30148  30159  0
30147  30159  30150  0
30147  30150  30326  0
30326  30150  30151  0
30326  30151  30152  0
30326  30152  30328  0
30152  30153  30328  0
30153  30154  30330  0
30153  30330  30328  0
30330  30154  30331  0
29982  30332  30149  0
30148  30157  30158  0
30148  30158  30159  0
30154  30155  30331  0
30155  30333  30331  0
30155  29990  30334  0
30155  30334  30333  0
29990  30160  30334  0
30157  30002  30158  0
30160  30335  30334  0
30156  30336  29998  0
30162  30164  30169  0
30162  30169  30002  0
29998  30336  30337  0
29998  30337  30005  0
30168  30338  30339  0
30168  30339  30163  0
30168  29999  30338  0
30163  30339  30164  0
30164  30171  30169  0
30170  30340  30165  0
30165  30340  30341  0
30005  30337  30008  0
30167  30011  30342  0
30167  30342  30343  0
30167  30343  30166  0
30164  30339  30171  0
30173  30340  30170  0
30008  30337  30177  0
