#!ascii file
10632  10637  10947  0
11252  10947  10637  0
10955  10943  11253  0
11253  11254  10955  0
11259  11255  10956  0
11255  11259  11256  0
11260  11256  11259  0
11256  11260  11261  0
11256  11261  11257  0
10128  11258  10968  0
10637  10960  11252  0
10970  11252  10960  0
11252  10970  11262  0
11263  11262  10970  0
10956  10658  11259  0
10972  11259  10658  0
11259  10972  11260  0
10957  10965  10974  0
10966  10974  10965  0
10971  10961  10962  0
11264  10962  10955  0
11265  10972  10973  0
10973  10963  11266  0
11267  11266  10963  0
10973  11266  11265  0
10963  10964  11267  0
10974  11267  10964  0
10974  10966  11268  0
10966  10967  11269  0
10661  10967  10395  0
10959  11270  10970  0
10970  11270  11263  0
10962  11264  10971  0
10974  11268  11271  0
10974  11271  11267  0
10966  11269  11272  0
10966  11272  11268  0
10967  10661  11273  0
10967  11273  11269  0
11274  10983  10975  0
10976  10979  10980  0
10980  10977  10652  0
10959  10978  11270  0
10661  10675  11273  0
10975  10983  9906  0
10980  11275  11276  0
10980  11276  10977  0
10978  11277  11270  0
10399  11278  10670  0
11279  10670  11278  0
10981  10670  11279  0
10675  11280  11273  0
11281  10983  11274  0
10665  10669  11282  0
10665  11282  10979  0
10979  11282  11283  0
10979  11283  10980  0
10980  11283  11275  0
10977  11276  11284  0
10977  11284  10978  0
10978  11284  11285  0
10981  11286  10982  0
11287  10982  11286  0
10982  11288  10984  0
10982  10984  10673  0
10982  11287  11288  0
10986  11288  11287  0
11288  10986  10984  0
10983  11281  10676  0
10669  10676  11282  0
10988  11289  11290  0
10988  11290  10680  0
11289  10988  10989  0
10989  10990  11291  0
10989  11291  11289  0
10990  10991  11292  0
10990  11292  11291  0
10991  11293  11292  0
10986  11294  10987  0
11295  10987  11294  0
10675  11296  11280  0
11297  10676  11281  0
11290  10994  10680  0
11298  10994  11290  0
10991  10992  11299  0
10992  10682  10995  0
10992  10995  11300  0
10992  11300  11299  0
10995  10677  10987  0
10995  10987  11295  0
10995  11295  11300  0
10675  10996  11296  0
10676  11297  11301  0
10676  11301  11282  0
10994  11298  11302  0
10994  10997  10993  0
10994  11302  10997  0
10998  11303  10999  0
10998  11005  11303  0
11304  11303  11005  0
11002  11305  11003  0
11003  11305  11306  0
11003  11306  11004  0
10424  11009  10996  0
11010  10997  11307  0
11308  11304  11005  0
11004  11309  11008  0
11008  11309  11310  0
11008  11310  10693  0
10693  11310  11015  0
11009  10690  11015  0
11307  11311  11010  0
11005  11007  11308  0
11013  11308  11007  0
11013  11014  11312  0
11011  11313  11016  0
11314  11016  11315  0
11014  11017  11316  0
11018  10701  10702  0
11016  11313  11315  0
11314  11315  11317  0
11017  10710  11318  0
11319  11318  10710  0
10710  10711  11319  0
11033  10451  10700  0
10700  10701  11033  0
11320  11033  10701  0
10701  11018  11320  0
11321  11320  11018  0
11018  11019  11321  0
11019  11020  11321  0
11027  11321  11020  0
11024  11317  11322  0
11024  11322  11323  0
11024  11323  11022  0
11033  11320  11324  0
11325  11324  11320  0
11320  11321  11325  0
11326  11325  11321  0
11027  11326  11321  0
11027  11026  11327  0
11028  11327  11026  0
11026  10714  11028  0
10711  10450  11328  0
11326  11027  11329  0
11330  11329  11027  0
11327  11330  11027  0
11031  11030  10713  0
11331  10450  11036  0
11033  11324  11332  0
11033  11332  10453  0
11324  11325  11332  0
11325  11333  11332  0
11030  11334  11029  0
11030  11031  11335  0
11030  11335  11334  0
11031  11032  11336  0
11037  10723  11337  0
11037  11338  11040  0
11036  11040  11338  0
11040  11036  11034  0
10453  11332  10719  0
11332  11041  10719  0
10723  10722  11337  0
10722  11339  11337  0
11041  11340  11042  0
10722  10472  11339  0
11043  11341  10727  0
11043  10727  10726  0
10727  11050  11044  0
10727  11341  11050  0
11342  11046  11047  0
11046  11343  10732  0
11046  11342  11344  0
11046  11344  11343  0
10730  11345  11045  0
11344  11346  11343  0
10738  11347  11048  0
10730  11051  11348  0
10730  11348  11345  0
11051  11052  11349  0
11052  11053  11349  0
11350  11351  11346  0
11346  11351  11343  0
10738  10489  11347  0
11051  11349  11348  0
11349  11053  11352  0
11053  10748  11353  0
11351  11350  11354  0
11056  10732  11343  0
11355  11347  10489  0
11055  11057  10746  0
11356  10746  11057  0
11064  10746  11356  0
11058  11353  10748  0
11058  11059  11357  0
11358  11357  11059  0
11359  11358  11059  0
11358  11359  11360  0
11354  11360  11359  0
11354  11359  11351  0
11361  11351  11359  0
11351  11361  11343  0
11362  11343  11361  0
11343  11362  11056  0
11065  11056  11362  0
10489  11060  11355  0
11359  11363  11361  0
11061  11071  11062  0
10760  11068  10755  0
11063  10755  11068  0
11364  11057  11063  0
10757  11064  11365  0
10757  11365  11069  0
11059  11070  11359  0
11359  11070  11363  0
11363  11366  11361  0
11367  11361  11366  0
11361  11367  11362  0
11368  11362  11367  0
11362  11368  11065  0
11071  11369  11066  0
11067  11370  11068  0
11063  11068  11364  0
11069  11365  11371  0
11372  11363  11070  0
11363  11372  11366  0
11366  11373  11367  0
11072  11065  11368  0
11066  11374  11375  0
11066  11375  11074  0
11076  11376  11077  0
11377  11077  11376  0
11077  11377  11067  0
11067  11377  11370  0
11069  11371  11078  0
11371  11378  11078  0
11070  11379  11380  0
11070  11380  11372  0
11070  11080  11379  0
11366  11372  11373  0
11375  11381  11074  0
11074  11382  11075  0
11075  11382  11076  0
11076  11382  11376  0
11376  11382  11383  0
11376  11383  11377  0
11080  11081  11379  0
11072  11368  11082  0
11074  11381  11384  0
11074  11384  11382  0
11382  11384  11383  0
11385  11078  11386  0
11385  11386  11387  0
11387  11386  11388  0
10768  11082  11084  0
10520  11090  11086  0
11081  10776  11389  0
11081  11389  11390  0
11082  11391  11084  0
11084  11391  11092  0
11084  11092  10770  0
11096  11098  11392  0
10775  11088  11100  0
11389  10776  11101  0
11389  11101  11393  0
11391  11394  11395  0
11391  11395  11092  0
11092  11395  11093  0
11097  11102  11396  0
11097  11396  11098  0
11397  11099  11100  0
11101  11104  11398  0
11101  11398  11393  0
11104  10530  11399  0
11104  11399  11400  0
11104  11400  11401  0
11104  11401  11398  0
10530  10782  11399  0
10782  10527  11402  0
11093  11395  11095  0
11102  11403  11396  0
10532  10779  11109  0
10779  11103  11109  0
11103  11099  11404  0
11099  11397  11404  0
11399  10782  11405  0
10782  11402  11406  0
10782  11406  11405  0
10527  10783  11402  0
11395  11407  11095  0
11403  11095  11407  0
11095  11403  11102  0
11406  11402  11408  0
11409  11408  11402  0
11107  10785  11108  0
11402  10783  11409  0
11410  11409  10783  0
11411  11410  10783  0
10783  11107  11411  0
10535  11412  11108  0
11413  11411  11107  0
11107  11108  11413  0
11412  11413  11108  0
11110  11414  10790  0
11415  11416  11417  0
11415  11417  11418  0
11419  11416  11415  0
11420  11418  11421  0
11418  11417  11422  0
11418  11422  11421  0
11421  11423  11420  0
11421  11422  11424  0
11421  11424  11423  0
10787  11412  10535  0
11111  10788  11112  0
11113  11425  11112  0
11113  11114  11426  0
10790  11414  11118  0
11415  11418  11419  0
11418  11420  11419  0
11427  11419  11420  0
11420  11423  11427  0
11428  11427  11423  0
11423  11424  11429  0
11423  11429  11428  0
11428  11429  11430  0
11428  11430  11431  0
11115  11111  11432  0
11115  11432  11116  0
11114  11117  11426  0
11433  11426  11117  0
11419  11427  11434  0
11435  11434  11427  0
11431  11427  11428  0
11431  11435  11427  0
11431  11430  11436  0
11116  11432  11437  0
11117  11120  11438  0
11439  11438  11120  0
10792  11440  10795  0
11436  11441  11431  0
11123  11119  10793  0
11116  11437  11442  0
11116  11442  11121  0
11120  11124  11439  0
10799  11443  11125  0
11126  10803  11125  0
10804  10550  11126  0
10796  11127  11123  0
10802  10807  11124  0
11126  11125  11444  0
11126  11444  10804  0
11127  11445  11123  0
11127  11129  11445  0
11133  11134  11446  0
11133  11446  11447  0
11134  11130  11446  0
10814  11132  11136  0
11136  11132  11448  0
10816  10817  11449  0
10817  10815  11450  0
10817  11450  11449  0
10815  11136  11450  0
11451  11138  11452  0
11453  11451  11452  0
10819  11454  11455  0
10819  11455  10821  0
10821  11452  11138  0
10821  11455  11452  0
11138  11451  11456  0
11138  11456  11137  0
10828  11457  10819  0
10819  11457  11454  0
11454  11457  11458  0
11137  11456  11139  0
11456  11451  11459  0
10828  11142  11460  0
10828  11460  11457  0
11457  11461  11458  0
11139  11456  11146  0
11456  11462  11146  0
11463  11146  11462  0
10832  11141  11464  0
10832  11464  10838  0
11460  11465  11457  0
11457  11465  11461  0
11147  11146  11466  0
11146  11463  11466  0
11144  10846  11467  0
11144  11467  11141  0
11141  11467  11167  0
11141  11167  11468  0
11141  11468  11464  0
10838  11464  11148  0
10838  11148  10839  0
11145  11151  11469  0
11145  11469  11142  0
11142  11469  11460  0
11460  11469  11470  0
11460  11470  11465  0
11147  11466  11471  0
11466  11463  11471  0
10846  11157  11472  0
10846  11472  11467  0
11468  11167  11165  0
11468  11165  11464  0
11464  11165  11148  0
11149  11161  11473  0
11149  11473  11151  0
11151  11473  11474  0
11151  11474  11469  0
11470  11469  11475  0
11469  11474  11476  0
11469  11476  11475  0
11147  11471  11164  0
11467  11472  11176  0
11467  11176  11167  0
11169  11180  11477  0
11169  11477  11161  0
11161  11477  11473  0
11478  11164  11471  0
11157  11175  11177  0
11157  11177  11472  0
11472  11177  11176  0
11163  11164  11478  0
11178  11189  11180  0
11479  11477  11180  0
11163  11478  11182  0
11480  11186  11185  0
11186  11480  11187  0
11481  11187  11480  0
11187  11481  10869  0
11188  10869  11481  0
11482  11180  11189  0
11180  11482  11479  0
11182  11478  11483  0
11478  11197  11483  0
11185  11191  11480  0
11480  11484  11481  0
11485  11481  11484  0
11486  11481  11485  0
11481  11486  11188  0
11487  11188  11486  0
11182  11483  10894  0
11197  10894  11483  0
11484  11480  11191  0
10877  11488  11194  0
11189  11196  11482  0
11482  11196  11479  0
11489  11479  11196  0
11193  11490  11191  0
11491  11191  11490  0
11191  11491  11484  0
11486  11485  11484  0
11197  11492  10902  0
11490  11193  10885  0
11491  11493  11484  0
10892  11198  11203  0
11494  11203  11198  0
11198  11194  11494  0
11488  11494  11194  0
11196  10893  11489  0
11495  11489  10893  0
10902  11492  11206  0
10890  11201  10885  0
11490  10885  11201  0
11202  11203  11209  0
11496  11209  11203  0
11203  11494  11497  0
11203  11497  11496  0
10893  11204  11495  0
11498  11495  11204  0
11204  11205  11498  0
11499  11498  11205  0
11200  11500  11201  0
11209  11496  11501  0
11209  11501  11210  0
11205  10901  11502  0
11205  11502  11499  0
11503  11499  11502  0
10614  11206  11213  0
11504  11208  11211  0
11208  11504  10889  0
11505  10889  11504  0
10889  11505  11200  0
11500  11200  11505  0
10904  11210  11506  0
11210  11507  11506  0
11212  11502  10901  0
11227  11503  11502  0
11207  11215  11211  0
11508  11211  11215  0
11504  11211  11508  0
10904  11506  11509  0
11510  11511  11227  0
11227  11502  11224  0
11225  11224  11502  0
11502  11212  11225  0
11229  11225  11212  0
11212  10344  11229  0
11219  11229  10344  0
11504  11508  11505  0
11216  11512  10909  0
10904  11509  11216  0
11227  11228  11510  0
10907  11214  10908  0
10909  11512  11222  0
11513  11514  11515  0
11515  11514  11516  0
11515  11516  11517  0
11515  11517  11518  0
11517  11516  11519  0
11517  11519  11520  0
11520  11521  11517  0
10911  11221  11234  0
11236  11235  11522  0
11236  11522  11237  0
11236  11237  11231  0
11228  11240  11523  0
11228  11523  11524  0
11523  11240  11243  0
11523  11243  11514  0
11523  11514  11513  0
11523  11513  11524  0
11514  11243  11244  0
11514  11244  11245  0
11514  11245  11516  0
11516  11245  11519  0
11520  11525  11526  0
11520  11526  11521  0
10934  11234  11527  0
11235  11528  11522  0
11522  11528  11529  0
11522  11529  11237  0
11237  11529  11241  0
11245  11250  11519  0
11519  11250  11525  0
11519  11525  11520  0
10934  11527  10939  0
11235  11246  11530  0
11235  11530  11528  0
11531  11529  11528  0
11529  11248  11241  0
11250  11257  11525  0
11525  11257  11532  0
11525  11532  11526  0
11246  11251  11533  0
11529  11254  11248  0
11529  11531  11254  0
11257  11261  11532  0
11532  11534  11526  0
10939  11535  11258  0
11536  11258  11535  0
11252  11262  11537  0
11252  11537  11251  0
11251  11537  11533  0
11538  10955  11254  0
11261  11539  11532  0
11532  11539  11540  0
11532  11540  11534  0
11541  10955  11538  0
10972  11265  11260  0
11260  11265  11261  0
11261  11542  11539  0
11258  11536  10968  0
10955  11541  11264  0
11543  11264  11541  0
11265  11542  11261  0
11265  11544  11542  0
10975  10968  11545  0
11274  10975  11545  0
11266  11546  11265  0
11544  11265  11546  0
11266  11267  11547  0
11271  11547  11267  0
11548  11271  11268  0
11268  11272  11548  0
11264  11543  11278  0
11549  11278  11543  0
11279  11278  11549  0
11550  11551  11552  0
11553  11552  11551  0
11554  11551  11546  0
11551  11550  11546  0
11546  11266  11554  0
11547  11554  11266  0
11547  11271  11555  0
11548  11556  11271  0
11548  11272  11557  0
11272  11269  11557  0
11273  11557  11269  0
11270  11277  11263  0
11279  11558  10981  0
11559  10981  11558  0
10981  11559  11286  0
11560  11286  11559  0
11286  11561  11287  0
10986  11287  11561  0
11286  11560  11561  0
11562  10986  11561  0
10986  11562  11294  0
11554  11553  11551  0
11554  11547  11563  0
11555  11563  11547  0
11280  11564  11273  0
11274  11565  11281  0
10978  11285  11277  0
11566  11567  11289  0
11291  11566  11289  0
11294  11562  11568  0
11285  11569  11277  0
11290  11289  11567  0
11293  10991  11299  0
11570  11293  11299  0
11300  11570  11299  0
11294  11568  11295  0
11282  11571  11283  0
11283  11571  11275  0
11276  11275  11571  0
11572  11276  11573  0
11276  11572  11284  0
11284  11572  11574  0
11284  11574  11285  0
11290  11575  11298  0
11301  11576  11282  0
11571  11282  11576  0
11573  11276  11571  0
11573  11577  11572  0
11572  11577  11578  0
11302  11579  10997  0
11303  11580  11581  0
11303  11581  10999  0
11303  11304  11582  0
11303  11582  11580  0
10999  11581  11002  0
11002  11583  11305  0
11305  11583  11584  0
11305  11584  11306  0
11306  11585  11309  0
11306  11309  11004  0
11306  11584  11585  0
10997  11579  11307  0
11304  11308  11582  0
11310  11309  11586  0
11310  11586  11587  0
11310  11587  11015  0
11015  11587  11009  0
11307  11579  11311  0
11308  11013  11312  0
11308  11312  11588  0
11308  11588  11589  0
11308  11589  11582  0
11579  11590  11311  0
11311  11591  11010  0
11312  11014  11316  0
11312  11316  11588  0
11311  11590  11591  0
11010  11591  11592  0
11010  11592  11011  0
11011  11592  11313  0
11588  11316  11593  0
11316  11017  11318  0
11316  11318  11594  0
11316  11594  11593  0
11313  11595  11315  0
11319  10711  11328  0
11315  11595  11317  0
11322  11317  11595  0
11322  11596  11323  0
11325  11326  11333  0
11326  11329  11333  0
11327  11028  11597  0
11028  11029  11597  0
11025  11598  10709  0
11599  10709  11598  0
11600  11331  11036  0
11600  11036  11338  0
11601  11331  11600  0
11602  11331  11601  0
11331  11602  10450  0
11328  10450  11602  0
11333  11329  11603  0
11329  11330  11603  0
11330  11327  11604  0
11327  11605  11604  0
11327  11597  11606  0
11327  11606  11605  0
11029  11334  11607  0
11335  11608  11334  0
11031  11336  11335  0
10709  11599  11032  0
11332  11333  11041  0
11603  11330  11609  0
11604  11609  11330  0
11610  11335  11336  0
11336  11032  11610  0
11599  11610  11032  0
11609  11041  11333  0
11333  11603  11609  0
11609  11604  11611  0
11041  11609  11340  0
11612  11340  11609  0
11609  11611  11612  0
11042  11340  11613  0
11042  11613  11043  0
11339  10472  11614  0
10472  11045  11614  0
11043  11615  11341  0
11050  11341  11615  0
11049  11050  10745  0
11050  11616  10745  0
11342  11346  11344  0
11342  11047  11617  0
11047  11048  11617  0
11618  11617  11048  0
10745  11616  10744  0
11619  11350  11346  0
11048  11347  11618  0
11620  11621  11619  0
11350  11619  11621  0
11620  11622  11621  0
11623  11618  11347  0
11624  11348  11349  0
11349  11352  11624  0
11053  11353  11352  0
11625  11357  11358  0
11626  11625  11358  0
11360  11627  11358  0
11358  11627  11626  0
11622  11626  11627  0
11627  11360  11621  0
11354  11621  11360  0
11627  11621  11622  0
11621  11354  11350  0
11347  11355  11623  0
11353  11058  11628  0
11629  11628  11058  0
11058  11357  11629  0
11625  11629  11357  0
11630  11356  11057  0
11064  11356  11630  0
11631  11355  11060  0
11057  11364  11630  0
11365  11064  11630  0
11632  11631  11060  0
11369  11071  11633  0
11068  11370  11634  0
11068  11634  11364  0
11365  11630  11635  0
11365  11635  11371  0
11060  11073  11636  0
11060  11636  11632  0
11369  11633  11637  0
11369  11374  11066  0
11377  11638  11370  0
11370  11639  11634  0
11371  11635  11640  0
11371  11640  11378  0
11372  11380  11641  0
11372  11641  11373  0
11373  11641  11367  0
11073  11083  11642  0
11369  11637  11374  0
11375  11374  11381  0
11377  11383  11638  0
11638  11643  11639  0
11638  11639  11370  0
11378  11644  11386  0
11378  11386  11078  0
11378  11640  11644  0
11379  11081  11645  0
11379  11645  11646  0
11379  11646  11380  0
11380  11646  11641  0
11641  11646  11367  0
11642  11083  11647  0
11637  11648  11374  0
11381  11374  11649  0
11381  11649  11384  0
11384  11650  11383  0
11638  11383  11651  0
11638  11651  11643  0
11386  11644  11652  0
11386  11652  11388  0
11081  11390  11645  0
11645  11653  11654  0
11645  11654  11646  0
11645  11390  11653  0
11646  11655  11367  0
11367  11655  11368  0
11368  11656  11657  0
11368  11655  11658  0
11368  11658  11656  0
11368  11657  11659  0
11368  11659  11082  0
11083  11085  11096  0
11083  11096  11647  0
11374  11648  11649  0
11384  11649  11650  0
11086  11090  11660  0
11086  11660  11661  0
11086  11661  11087  0
11090  11091  11662  0
11090  11662  11660  0
11091  11663  11664  0
11091  11664  11662  0
11663  11652  11665  0
11663  11665  11664  0
11652  11666  11388  0
11390  11389  11667  0
11656  11658  11657  0
11659  11657  11658  0
11082  11659  11391  0
11096  11392  11647  0
11392  11098  11668  0
11088  11087  11669  0
11088  11669  11100  0
11659  11670  11391  0
11394  11391  11670  0
11668  11098  11396  0
11100  11671  11397  0
11100  11669  11671  0
11672  11671  11669  0
11389  11393  11673  0
11389  11673  11667  0
11398  11401  11393  0
11396  11403  11674  0
11675  11396  11674  0
11103  11404  11109  0
11401  11673  11393  0
11401  11400  11676  0
11405  11400  11399  0
11677  11674  11403  0
11678  11404  11397  0
11397  11671  11678  0
11676  11400  11679  0
11680  11679  11400  0
11400  11405  11680  0
11681  11405  11406  0
11408  11409  11682  0
11683  11682  11409  0
11395  11684  11407  0
11685  11110  11109  0
11109  11404  11685  0
11404  11678  11686  0
11404  11686  11685  0
11406  11408  11681  0
11687  11681  11408  0
11408  11682  11688  0
11408  11688  11687  0
11682  11683  11688  0
11417  11688  11683  0
11683  11409  11417  0
11689  11417  11409  0
11409  11410  11689  0
11110  11685  11414  0
11686  11414  11685  0
11416  11690  11688  0
11688  11690  11687  0
11691  11687  11690  0
11688  11417  11416  0
11422  11417  11689  0
11689  11410  11422  0
11424  11422  11410  0
11429  11424  11410  0
11410  11411  11429  0
11413  11429  11411  0
11416  11691  11690  0
11430  11429  11413  0
11692  11430  11413  0
11413  11412  11692  0
11693  11692  11412  0
11412  10787  11693  0
11119  11693  10787  0
11425  11694  11112  0
11112  11694  11111  0
11695  11425  11113  0
11113  11426  11695  0
11414  11696  11118  0
11691  11416  11697  0
11691  11697  11698  0
11416  11419  11697  0
11434  11697  11419  0
11692  11693  11699  0
11694  11700  11111  0
11111  11700  11432  0
11433  11701  11426  0
11438  11433  11117  0
11697  11434  11702  0
11435  11702  11434  0
11435  11431  11703  0
11703  11431  11441  0
11703  11441  11704  0
11705  11704  11441  0
11430  11692  11436  0
11706  11436  11692  0
11692  11699  11706  0
11432  11707  11437  0
11432  11708  11707  0
11438  11439  11709  0
10792  11118  11710  0
10792  11710  11440  0
11441  11436  11711  0
11436  11706  11711  0
11707  11442  11437  0
10795  11440  11122  0
11442  11712  11121  0
11122  11440  11713  0
11122  11713  11714  0
11712  11128  11121  0
11122  11714  10799  0
10799  11714  11443  0
11445  11129  11715  0
11445  11715  11716  0
11128  11712  11717  0
11128  11717  11130  0
11129  11718  11715  0
11446  11130  11717  0
11446  11717  11719  0
11446  11719  11447  0
10808  10804  11720  0
10808  11720  11132  0
11129  11133  11721  0
11129  11721  11718  0
11133  11447  11721  0
10816  11722  11135  0
11448  11132  11720  0
10816  11449  11722  0
11450  11136  11723  0
11136  11448  11723  0
11453  11724  11725  0
11452  11724  11453  0
11453  11726  11727  0
11453  11727  11451  0
11452  11455  11728  0
11452  11728  11724  0
11451  11727  11459  0
11454  11458  11455  0
11455  11458  11729  0
11455  11729  11728  0
11728  11729  11730  0
11456  11459  11731  0
11456  11731  11462  0
11459  11727  11732  0
11459  11732  11731  0
11730  11729  11458  0
11462  11731  11733  0
11462  11733  11463  0
11461  11465  11734  0
11461  11734  11735  0
11461  11735  11458  0
11458  11735  11736  0
11737  11463  11733  0
11465  11470  11738  0
11465  11738  11734  0
11471  11463  11739  0
11463  11737  11739  0
11475  11476  11740  0
11475  11740  11470  0
11470  11740  11738  0
11738  11741  11734  0
11471  11739  11742  0
11743  11742  11739  0
11473  11477  11744  0
11473  11744  11474  0
11474  11744  11745  0
11474  11745  11476  0
11476  11745  11740  0
11746  11738  11740  0
11738  11746  11741  0
11471  11742  11478  0
11745  11747  11740  0
11748  11740  11747  0
11740  11748  11746  0
11478  11742  11749  0
11750  11749  11742  0
11742  11743  11750  0
11477  11479  11744  0
11751  11744  11479  0
11744  11751  11745  0
11747  11745  11751  0
11747  11752  11748  0
11753  11748  11752  0
11748  11753  11746  0
11754  11746  11753  0
11478  11749  11197  0
11755  11749  11750  0
11756  11747  11751  0
11747  11756  11752  0
11757  11752  11756  0
11752  11757  11753  0
11749  11755  11197  0
11492  11197  11755  0
11188  11487  10877  0
11488  10877  11487  0
11758  11757  11756  0
11757  11758  11753  0
11759  11753  11758  0
11753  11759  11754  0
11486  11760  11487  0
11761  11487  11760  0
11762  11487  11761  0
11479  11489  11751  0
11763  11751  11489  0
11751  11763  11756  0
11764  11756  11763  0
11756  11764  11758  0
11484  11493  11486  0
11765  11486  11493  0
11486  11765  11760  0
11761  11760  11765  0
11766  11762  11761  0
11767  11764  11763  0
11764  11767  11758  0
11768  11758  11767  0
11758  11768  11759  0
11769  11754  11759  0
11770  11491  11490  0
11491  11770  11493  0
11771  11493  11770  0
11493  11772  11765  0
11493  11771  11772  0
11765  11772  11761  0
11773  11761  11772  0
11766  11761  11773  0
11774  11494  11488  0
11489  11495  11763  0
11498  11763  11495  0
11763  11498  11767  0
11775  11759  11768  0
11774  11776  11494  0
11494  11776  11497  0
11777  11497  11776  0
11498  11778  11767  0
11779  11767  11778  0
11498  11499  11778  0
11780  11778  11499  0
11767  11779  11768  0
11775  11768  11779  0
11781  11201  11500  0
11201  11781  11490  0
11490  11781  11770  0
11496  11497  11501  0
11782  11501  11497  0
11497  11777  11782  0
11499  11503  11780  0
11783  11780  11503  0
11206  11784  11213  0
11785  11500  11786  0
11500  11785  11781  0
11210  11501  11507  0
11501  11782  11787  0
11501  11787  11788  0
11501  11788  11507  0
11227  11511  11503  0
11511  11783  11503  0
11213  11784  11789  0
11213  11789  11214  0
11505  11786  11500  0
11790  11509  11506  0
11506  11507  11790  0
11791  11518  11792  0
11518  11793  11792  0
11793  11794  11795  0
11508  11796  11797  0
11508  11797  11505  0
11505  11798  11786  0
11505  11797  11798  0
11509  11790  11799  0
11509  11799  11216  0
11510  11228  11524  0
11510  11524  11800  0
11510  11800  11511  0
11800  11524  11513  0
11800  11513  11791  0
11791  11513  11515  0
11791  11515  11518  0
11518  11517  11793  0
11793  11517  11794  0
11794  11517  11521  0
11220  11796  11215  0
11215  11796  11508  0
11216  11799  11512  0
11521  11801  11802  0
11220  11803  11796  0
11222  11512  11804  0
11222  11804  11221  0
11234  11221  11805  0
11234  11805  11527  0
11221  11804  11805  0
11521  11806  11801  0
10939  11527  11807  0
10939  11807  11535  0
11530  11246  11533  0
11530  11533  11808  0
11528  11530  11531  0
11526  11806  11521  0
11526  11809  11806  0
11533  11537  11810  0
11534  11809  11526  0
11534  11811  11809  0
11537  11262  11812  0
11537  11812  11810  0
11539  11542  11813  0
11539  11813  11540  0
11540  11811  11534  0
11540  11813  11814  0
11540  11814  11811  0
11815  10968  11536  0
11262  11263  11816  0
11262  11816  11812  0
11541  11817  11543  0
11542  11544  11818  0
11542  11819  11813  0
11814  11813  11819  0
11542  11818  11820  0
11542  11820  11819  0
10968  11815  11545  0
11821  11545  11815  0
11546  11822  11544  0
11820  11544  11822  0
11546  11550  11822  0
11544  11820  11818  0
11821  11274  11545  0
11263  11823  11816  0
11263  11824  11823  0
11825  11279  11549  0
11279  11825  11558  0
11559  11558  11825  0
11559  11826  11560  0
11561  11560  11826  0
11826  11827  11561  0
11562  11561  11827  0
11828  11552  11829  0
11830  11829  11552  0
11552  11828  11550  0
11822  11550  11828  0
11271  11556  11555  0
11831  11555  11556  0
11556  11548  11831  0
11832  11831  11548  0
11548  11557  11832  0
11557  11273  11833  0
11564  11833  11273  0
11274  11821  11565  0
11263  11277  11824  0
11834  11823  11824  0
11552  11553  11835  0
11552  11835  11830  0
11553  11554  11835  0
11563  11835  11554  0
11563  11555  11836  0
11555  11837  11836  0
11838  11836  11837  0
11555  11831  11837  0
11839  11831  11832  0
11832  11557  11839  0
11833  11839  11557  0
11277  11569  11824  0
11840  11291  11292  0
11292  11293  11840  0
11840  11293  11570  0
11835  11563  11841  0
11842  11841  11563  0
11563  11836  11842  0
11838  11842  11836  0
11281  11565  11821  0
11821  11843  11281  0
11290  11567  11575  0
11844  11575  11567  0
11845  11570  11300  0
11300  11295  11568  0
11300  11568  11845  0
11281  11843  11297  0
11846  11574  11572  0
11574  11847  11285  0
11569  11285  11847  0
11574  11846  11847  0
11848  11298  11575  0
11280  11296  11849  0
11850  11297  11843  0
11851  11301  11297  0
11846  11572  11578  0
11301  11851  11576  0
11852  11576  11851  0
11853  11576  11852  0
11576  11853  11571  0
11571  11853  11573  0
11577  11573  11853  0
11577  11854  11578  0
11855  11578  11854  0
11578  11855  11846  0
11298  11856  11857  0
11853  11858  11577  0
11577  11858  11854  0
11859  11860  11302  0
11859  11302  11298  0
11859  11298  11857  0
11002  11581  11583  0
11584  11861  11585  0
11584  11583  11861  0
11009  11862  10996  0
11860  11579  11302  0
11582  11863  11580  0
11585  11861  11864  0
11585  11864  11309  0
11309  11864  11586  0
11587  11586  11865  0
11587  11865  11862  0
11587  11862  11009  0
11860  11866  11867  0
11860  11867  11579  0
11860  11868  11866  0
11582  11589  11869  0
11582  11869  11863  0
11579  11867  11590  0
11589  11588  11870  0
11589  11870  11869  0
11866  11871  11867  0
11867  11872  11590  0
11588  11593  11870  0
11593  11594  11873  0
11594  11318  11319  0
11594  11319  11874  0
11594  11874  11873  0
11319  11875  11874  0
11591  11590  11876  0
11591  11876  11592  0
11319  11328  11875  0
11871  11877  11867  0
11867  11877  11872  0
11872  11878  11590  0
11592  11876  11313  0
11313  11879  11595  0
11322  11595  11596  0
11313  11876  11879  0
11595  11879  11880  0
11323  11596  11022  0
11022  11598  11025  0
11022  11596  11881  0
11022  11881  11598  0
11882  11338  11037  0
11338  11882  11883  0
11338  11883  11600  0
11600  11883  11602  0
11600  11602  11601  0
11597  11029  11884  0
11597  11884  11606  0
11029  11607  11884  0
11885  11599  11598  0
11037  11337  11882  0
11605  11606  11886  0
11605  11886  11604  0
11606  11884  11886  0
11334  11608  11607  0
11608  11335  11887  0
11888  11335  11610  0
11599  11885  11610  0
11889  11612  11611  0
11611  11604  11889  0
11604  11886  11889  0
11340  11612  11613  0
11890  11613  11612  0
11612  11889  11891  0
11892  11891  11889  0
11612  11891  11890  0
11889  11886  11892  0
11893  11892  11886  0
11894  11043  11613  0
11613  11895  11894  0
11896  11895  11613  0
11613  11890  11896  0
11043  11894  11615  0
11616  11050  11615  0
11345  11614  11045  0
11346  11342  11897  0
11617  11897  11342  0
11898  11620  11619  0
11899  11898  11619  0
11619  11346  11899  0
11897  11899  11346  0
11900  11622  11620  0
11898  11900  11620  0
11901  11622  11900  0
11348  11624  11902  0
11903  11902  11624  0
11624  11352  11903  0
11904  11903  11352  0
11352  11353  11904  0
11905  11625  11626  0
11626  11622  11905  0
11901  11905  11622  0
11353  11628  11906  0
11628  11629  11907  0
11908  11907  11629  0
11628  11907  11906  0
11629  11625  11908  0
11623  11355  11631  0
11909  11623  11631  0
11061  11910  11071  0
11911  11909  11631  0
11071  11910  11633  0
11912  11364  11634  0
11364  11912  11630  0
11635  11630  11912  0
11631  11632  11911  0
11637  11633  11913  0
11639  11914  11915  0
11639  11915  11634  0
11634  11915  11916  0
11634  11916  11912  0
11912  11916  11635  0
11635  11917  11640  0
11635  11916  11917  0
11073  11642  11636  0
11643  11918  11639  0
11639  11918  11914  0
11640  11917  11919  0
11640  11919  11644  0
11643  11651  11918  0
11644  11919  11652  0
11646  11654  11655  0
11648  11920  11649  0
11383  11650  11651  0
11661  11660  11921  0
11660  11662  11921  0
11665  11652  11919  0
11390  11667  11653  0
11653  11922  11654  0
11654  11922  11655  0
11658  11670  11659  0
11658  11655  11923  0
11647  11392  11924  0
11669  11087  11925  0
11087  11661  11925  0
11658  11923  11670  0
11670  11926  11394  0
11396  11675  11668  0
11401  11676  11679  0
11401  11679  11927  0
11401  11927  11928  0
11401  11928  11673  0
11926  11929  11394  0
11394  11929  11684  0
11394  11684  11395  0
11674  11677  11930  0
11674  11930  11675  0
11671  11672  11931  0
11671  11931  11678  0
11672  11932  11931  0
11680  11405  11681  0
11680  11681  11933  0
11684  11934  11407  0
11403  11407  11677  0
11677  11934  11935  0
11677  11935  11930  0
11930  11935  11936  0
11930  11936  11675  0
11686  11678  11937  0
11938  11931  11932  0
11684  11939  11934  0
11407  11934  11677  0
11934  11940  11935  0
11936  11935  11940  0
11934  11941  11940  0
11414  11686  11942  0
11686  11937  11942  0
11678  11931  11938  0
11681  11687  11691  0
11681  11691  11933  0
11943  11933  11691  0
11414  11942  11696  0
11944  11696  11942  0
11691  11698  11943  0
11945  11943  11698  0
11946  11694  11425  0
11695  11426  11701  0
11698  11697  11945  0
11947  11945  11697  0
11700  11694  11948  0
11946  11948  11694  0
11701  11433  11949  0
11950  11949  11433  0
11438  11950  11433  0
11697  11702  11947  0
11702  11435  11951  0
11952  11951  11435  0
11435  11703  11952  0
11953  11952  11703  0
11703  11704  11953  0
11705  11953  11704  0
11705  11441  11711  0
11705  11711  11954  0
11955  11954  11711  0
11956  11955  11711  0
11957  11706  11699  0
11699  11693  11957  0
11693  11119  11957  0
11432  11700  11948  0
11432  11948  11708  0
11958  11708  11948  0
11959  11950  11438  0
11709  11959  11438  0
11711  11706  11956  0
11706  11957  11956  0
11123  11960  11119  0
11707  11708  11961  0
11707  11961  11442  0
11124  11962  11439  0
11442  11961  11963  0
11442  11963  11712  0
11964  11965  11124  0
11124  10807  11964  0
11714  11713  11966  0
11712  11963  11967  0
11712  11967  11717  0
11968  11964  10807  0
10807  11131  11968  0
11714  11969  11443  0
11443  11969  11970  0
11443  11970  11125  0
11125  11970  11444  0
11444  11971  10804  0
11718  11972  11715  0
11967  11719  11717  0
11719  11973  11447  0
11135  11974  11131  0
10804  11971  11975  0
10804  11975  11720  0
11718  11721  11976  0
11977  11976  11721  0
11721  11447  11977  0
11973  11977  11447  0
11974  11135  11722  0
11450  11722  11449  0
11723  11448  11978  0
11448  11720  11978  0
11722  11450  11979  0
11450  11723  11980  0
11450  11980  11979  0
11453  11981  11982  0
11453  11982  11726  0
11453  11725  11981  0
11724  11983  11725  0
11726  11982  11984  0
11726  11984  11727  0
11724  11728  11985  0
11724  11985  11983  0
11727  11984  11732  0
11984  11982  11986  0
11728  11730  11985  0
11731  11732  11987  0
11732  11984  11986  0
11732  11986  11988  0
11732  11988  11987  0
11458  11736  11730  0
11730  11736  11989  0
11731  11987  11990  0
11731  11990  11733  0
11987  11988  11986  0
11987  11986  11990  0
11733  11990  11737  0
11990  11991  11992  0
11990  11992  11737  0
11736  11735  11993  0
11737  11994  11739  0
11737  11992  11994  0
11734  11741  11995  0
11739  11994  11996  0
11739  11996  11743  0
11994  11992  11997  0
11994  11997  11996  0
11734  11993  11735  0
11734  11995  11993  0
11746  11998  11741  0
11741  11998  11995  0
11743  11996  11750  0
11996  11997  11750  0
11999  11750  11997  0
11746  11754  11998  0
11998  12000  11995  0
12001  11750  11999  0
11754  12002  11998  0
11998  12002  12000  0
11750  12001  11755  0
11492  11755  12003  0
11755  12001  12003  0
11487  11762  11488  0
12002  12004  12000  0
11762  11774  11488  0
11754  11769  12002  0
12002  11769  12004  0
11772  11771  12005  0
11772  12005  12006  0
11772  12006  11773  0
11773  12007  11766  0
11766  11776  11774  0
11766  11774  11762  0
11766  12007  11776  0
12008  11776  12007  0
11759  11775  12009  0
11759  12009  11769  0
11769  12010  12004  0
11492  12003  11784  0
11492  11784  11206  0
11776  12008  11777  0
12011  11777  12008  0
11778  11780  11779  0
12010  11769  12009  0
12012  11770  11781  0
11770  12012  11771  0
12005  11771  12012  0
11777  12011  11782  0
12013  11782  12011  0
11780  11783  11779  0
12014  11779  11783  0
11779  12014  11775  0
11775  12014  12009  0
11792  12009  12014  0
12009  11792  12010  0
12015  12010  11792  0
12010  12015  12016  0
12015  12017  12016  0
11784  12018  11789  0
12013  11787  11782  0
12013  11788  11787  0
11511  11800  11783  0
11791  11783  11800  0
11783  11791  12014  0
11792  12014  11791  0
11793  12015  11792  0
12015  11793  12017  0
11795  12017  11793  0
11785  11786  12019  0
11507  11788  11790  0
12020  11790  11788  0
11788  12013  12020  0
11795  11794  12021  0
11802  12021  11794  0
11789  10908  11214  0
11220  10908  11789  0
12019  11786  11798  0
11799  11790  12022  0
12023  12022  11790  0
11799  12022  12024  0
11790  12020  12023  0
11794  11521  11802  0
11512  11799  12025  0
12026  12025  11799  0
11799  12024  12026  0
11220  12027  11803  0
11796  11803  12028  0
11796  12028  11797  0
12025  11804  11512  0
11805  11804  12029  0
12030  11802  11801  0
12031  11807  11527  0
11530  11808  12032  0
11530  12032  11531  0
11254  11531  12033  0
11531  12032  12033  0
12033  12034  11254  0
12035  11806  11809  0
11806  12035  12030  0
11806  12030  11801  0
11533  11810  12036  0
11533  12036  11808  0
11254  12034  11538  0
11538  12034  12037  0
11538  12037  12038  0
11809  11811  12039  0
11809  12039  12035  0
11810  12040  12036  0
11538  12038  11817  0
11538  11817  11541  0
12038  12037  11817  0
12041  12042  12043  0
12041  12044  12042  0
11811  12045  12039  0
11811  11814  12046  0
11811  12046  12045  0
11536  11535  11815  0
11812  12047  12040  0
11812  12040  11810  0
11812  11816  12048  0
11812  12048  12047  0
11817  12049  12050  0
11817  12050  11543  0
11817  12037  12051  0
11817  12051  12049  0
12049  12052  12053  0
12049  12053  12050  0
12049  12051  12052  0
12044  11825  12053  0
12041  12054  11827  0
12041  11827  12044  0
12054  12055  11827  0
12056  11819  11820  0
12056  12057  12046  0
12056  12046  11819  0
11819  12046  11814  0
11815  11843  11821  0
12050  12053  11549  0
12050  11549  11543  0
12053  11825  11549  0
11825  12044  11559  0
12044  11827  11826  0
12044  11826  11559  0
11828  12058  12059  0
11828  12059  11822  0
11828  12060  12058  0
11822  12059  12061  0
11822  12061  12056  0
11822  12056  11820  0
11823  12062  12048  0
11823  12048  11816  0
11827  12055  12063  0
11827  12063  11562  0
11829  12064  12060  0
11829  12060  11828  0
11829  11830  12065  0
11829  12065  12064  0
11823  11834  12062  0
11830  11835  11841  0
11830  11841  12066  0
11830  12066  12067  0
11830  12067  12065  0
11837  12068  11838  0
11837  11831  12069  0
11837  12069  12068  0
11831  11839  12070  0
11831  12070  12069  0
11824  12071  11834  0
11567  11566  12072  0
11567  12072  11844  0
11566  11291  12073  0
11291  11840  12073  0
11840  11570  12074  0
11570  11845  12075  0
11570  12075  12074  0
11841  11842  12076  0
11841  12076  12066  0
11842  11838  12077  0
11842  12077  12076  0
11838  12078  12077  0
11838  12068  12079  0
11838  12079  12078  0
12069  12079  12068  0
11839  11833  12070  0
11833  11564  12070  0
11569  12071  11824  0
11569  12080  12071  0
11575  11844  12081  0
12069  12082  12079  0
12069  12070  12082  0
12070  11564  11849  0
12070  11849  12083  0
11564  11280  11849  0
11847  12080  11569  0
11849  11296  12084  0
11850  11851  11297  0
11846  12085  11847  0
11298  11848  11856  0
11296  10996  12084  0
11850  12086  11851  0
11852  11851  12086  0
11862  12084  10996  0
11852  12087  11853  0
11858  12088  11854  0
11855  11854  12088  0
12089  11859  11857  0
11858  11853  12090  0
12089  11860  11859  0
11868  11860  12089  0
11580  12091  11581  0
12092  11581  12091  0
11581  12092  11583  0
12093  11583  12092  0
12094  11583  12093  0
12095  11580  11863  0
11583  12094  11861  0
12096  11861  12094  0
11861  12096  11864  0
11586  11864  12096  0
11868  12097  11866  0
11869  11870  12098  0
12099  12098  11870  0
12100  12099  11870  0
11870  11593  12100  0
11873  12100  11593  0
12097  12101  11866  0
12102  11866  12101  0
11875  11328  12103  0
11877  11878  11872  0
11876  11590  11878  0
12102  12104  11866  0
12105  11866  12104  0
11866  12105  11871  0
11877  11871  12105  0
11878  12106  11876  0
12107  11595  11880  0
11595  12107  11596  0
12108  11596  12107  0
11881  11596  12108  0
12106  11878  11877  0
11876  12106  12109  0
11876  12109  11879  0
11879  12109  12110  0
11879  12110  11880  0
11881  12111  11598  0
11602  11883  12112  0
11602  12112  12103  0
11602  12103  11328  0
11877  12105  12113  0
11877  12113  12114  0
11877  12114  12106  0
11598  12111  12115  0
11598  12115  11885  0
11607  11608  12116  0
11608  11887  12116  0
11887  11335  11888  0
11886  11884  12117  0
11886  12117  11893  0
11884  12118  12117  0
11887  11888  12119  0
11887  12119  12116  0
11888  11610  12120  0
11610  11885  12121  0
11610  12121  12120  0
11890  11891  11896  0
11891  11892  12122  0
11892  11893  12122  0
11894  11895  12123  0
11894  12123  11615  0
11615  12124  11616  0
11614  11345  12125  0
11617  11618  12126  0
11345  11348  12127  0
11345  12127  12125  0
11899  11897  12128  0
11899  12128  11898  0
11897  11617  12128  0
11617  12126  12128  0
11348  11902  12127  0
12129  11903  11904  0
11900  11898  11901  0
11898  12128  11901  0
11618  11623  12126  0
10750  10744  12130  0
10750  12130  12131  0
10750  12131  11061  0
11353  11906  11904  0
11625  11905  11908  0
11901  12128  12132  0
12128  12126  12133  0
11909  12133  12126  0
12126  11623  11909  0
11061  12134  11910  0
11906  11907  12135  0
11905  11901  12136  0
12132  12136  11901  0
12128  12133  12137  0
12138  11907  11908  0
11908  11905  12138  0
12136  12138  11905  0
12137  12132  12128  0
12136  12132  12139  0
12137  12139  12132  0
12133  11909  12140  0
11911  12140  11909  0
11910  12141  11633  0
11913  11633  12141  0
11907  12138  12142  0
12143  12142  12138  0
12136  12139  12138  0
12144  12139  12137  0
12133  12144  12137  0
11636  11911  11632  0
12145  11915  11914  0
11915  12145  11916  0
12146  11916  12145  0
11916  12146  11917  0
12147  11917  12146  0
12138  12139  12143  0
12148  12143  12139  0
12139  12144  12148  0
12140  12144  12133  0
12140  11911  12149  0
11913  12150  11637  0
11918  12151  11914  0
12152  11914  12151  0
12153  12151  11918  0
11914  12152  12145  0
11917  12147  11919  0
12154  11919  12147  0
12143  12148  12155  0
12149  12144  12140  0
12156  11637  12150  0
11637  12156  11648  0
11651  12157  11918  0
11918  12157  12153  0
11919  12154  12158  0
11647  12159  11642  0
11649  11920  12160  0
11649  12160  11650  0
11650  12160  11651  0
11921  11662  12161  0
11662  11664  12162  0
11662  12162  12161  0
11664  11665  12158  0
11664  12158  12162  0
11665  11919  12158  0
11922  11923  11655  0
11647  11924  12159  0
11653  11667  12163  0
11653  12163  11922  0
11922  12163  12164  0
11922  12165  11923  0
11923  12166  11926  0
11923  11926  11670  0
11923  12165  12166  0
11669  11925  12167  0
11669  12167  11672  0
11667  11673  12163  0
12163  11673  12164  0
11926  12168  11929  0
11392  11668  12169  0
11668  11675  12169  0
11672  12167  12170  0
11672  12170  11932  0
11673  11928  12171  0
11673  12171  12164  0
11927  11679  11680  0
11927  11680  11928  0
11929  12172  12173  0
11929  12173  11684  0
11675  11936  12174  0
11675  12174  12175  0
11932  12170  12176  0
11932  12176  11938  0
12171  11928  12177  0
11928  11680  12178  0
11928  12178  12177  0
11680  11933  12179  0
11680  12179  12178  0
11684  12173  12180  0
11684  12180  11939  0
11936  11940  11941  0
11936  11941  12174  0
11678  11938  11937  0
11938  12176  12181  0
12179  11933  11943  0
12179  11943  12182  0
12179  12182  12178  0
12173  12172  12183  0
12173  12183  12180  0
12180  12183  12184  0
11938  12181  11937  0
12185  12182  11943  0
11934  11939  11941  0
11695  11946  11425  0
11943  11945  12185  0
12186  12185  11945  0
11953  11705  11954  0
11946  12187  11948  0
12188  11948  12187  0
12189  11946  11695  0
11695  11701  12189  0
11949  12189  11701  0
11696  12190  11118  0
11945  11947  12191  0
11945  12191  12186  0
12192  12186  12191  0
11947  11702  12191  0
12193  12191  11702  0
11702  11951  12193  0
12194  12193  11951  0
11951  11952  12194  0
11952  11953  12194  0
11955  11956  12195  0
11948  12188  11958  0
12196  11949  11950  0
11950  11959  12196  0
12197  12192  12191  0
12191  12193  12197  0
11956  12198  12195  0
11960  11956  11957  0
11957  11119  11960  0
12199  12196  11959  0
11959  11709  12199  0
11962  12199  11709  0
11709  11439  11962  0
11956  11960  12198  0
12200  12198  11960  0
12201  12200  11960  0
11960  11123  12201  0
11958  12202  11708  0
12203  11708  12202  0
11124  12204  11962  0
11710  12205  11440  0
11713  11440  12205  0
12200  12201  12206  0
12207  12206  12201  0
11716  12201  11123  0
11123  11445  11716  0
11708  12203  11961  0
11963  11961  12203  0
12201  11972  12207  0
12208  12207  11972  0
12201  11716  11972  0
11715  11972  11716  0
12209  11967  11963  0
11969  11714  11966  0
11719  11967  12210  0
12209  12210  11967  0
11719  12210  11973  0
12211  11973  12210  0
11974  11968  11131  0
11970  12212  11444  0
11971  11444  12212  0
11972  11718  12208  0
11718  11976  12208  0
12213  12208  11976  0
11976  11977  12213  0
11973  12213  11977  0
12214  11720  11975  0
11978  11720  12214  0
11974  11722  12215  0
11722  11979  12215  0
11723  11978  12216  0
11723  12216  11980  0
11978  12214  12216  0
11725  12217  11981  0
11725  12218  12217  0
11725  11983  12218  0
11981  12219  12220  0
11981  12220  11982  0
11983  11985  12218  0
11986  11982  12221  0
11982  12220  12221  0
11986  12221  12222  0
11986  12222  11990  0
12221  12223  12222  0
11989  11736  12224  0
11990  12222  12225  0
11990  12225  11991  0
12222  12223  12225  0
11992  11991  12226  0
11991  12225  12226  0
11736  11993  12227  0
11736  12227  12224  0
11992  12226  11997  0
12226  12225  12228  0
11997  12226  12229  0
12226  12230  12229  0
12226  12228  12230  0
11995  12231  11993  0
11997  12229  11999  0
12229  12230  11999  0
11999  12230  12232  0
12230  12228  12232  0
11995  12000  12231  0
11999  12232  12233  0
12232  12228  12234  0
12000  12235  12231  0
11999  12233  12001  0
12000  12004  12235  0
12001  12233  12003  0
12233  12232  12018  0
12232  12234  12018  0
12007  11773  12008  0
12004  12010  12236  0
12004  12236  12235  0
12003  12233  11784  0
12233  12018  11784  0
12018  12234  12237  0
12008  12238  12011  0
12010  12016  12236  0
12012  12239  12005  0
12016  12017  11795  0
12016  11795  12240  0
12016  12240  12241  0
12016  12241  12236  0
12018  12237  11789  0
11781  12242  12243  0
11781  11785  12242  0
11781  12243  12012  0
12013  12011  12244  0
12021  12240  11795  0
12019  12242  11785  0
12244  12245  12013  0
12013  12245  12020  0
12246  12021  11802  0
12247  12246  11802  0
11789  12237  11220  0
11798  12248  12019  0
12249  12022  12023  0
12023  12020  12250  0
12245  12250  12020  0
12023  12250  12249  0
11797  12251  11798  0
12248  11798  12251  0
12252  12024  12022  0
12022  12249  12252  0
12253  12252  12249  0
12254  12247  11802  0
11220  12255  12027  0
12256  12026  12024  0
12024  12252  12256  0
12257  12256  12252  0
12252  12253  12257  0
12258  12257  12253  0
12028  11803  12027  0
12259  12029  11804  0
11804  12025  12259  0
12260  12259  12025  0
12261  12260  12025  0
12025  12026  12261  0
12256  12261  12026  0
12262  12263  12264  0
12265  12264  12263  0
12262  12266  12263  0
12267  12263  12266  0
12263  12268  12265  0
12269  12265  12268  0
12263  12267  12268  0
12270  12268  12267  0
12268  12270  12269  0
12271  12269  12270  0
11802  12030  12254  0
11527  11805  12031  0
12029  12031  11805  0
12272  12029  12259  0
12256  12257  12273  0
12262  12264  11808  0
12032  11808  12264  0
12262  11808  12274  0
12264  12265  12032  0
12033  12032  12265  0
12265  12269  12033  0
12275  12033  12269  0
12269  12276  12275  0
12277  12275  12276  0
12269  12271  12276  0
12278  12276  12271  0
12276  12279  12277  0
12276  12278  12279  0
12280  12279  12278  0
12281  12279  12280  0
12280  12282  12281  0
12283  12281  12282  0
12030  12284  12254  0
12031  12029  12285  0
12272  12285  12029  0
11808  12036  12274  0
12286  12274  12036  0
12033  12275  12034  0
12275  12277  12034  0
12287  12277  12279  0
12279  12281  12287  0
12042  12287  12281  0
12281  12288  12042  0
12289  12042  12288  0
12281  12283  12288  0
12284  12030  12035  0
12034  12277  12037  0
12051  12037  12277  0
12277  12287  12051  0
12287  12042  12051  0
12043  12042  12289  0
12289  12288  12043  0
12290  12035  12291  0
12035  12039  12291  0
12284  12035  12290  0
12292  11535  11807  0
11807  12031  12292  0
12286  12036  12293  0
12036  12040  12293  0
12051  12042  12052  0
12044  12052  12042  0
12043  12054  12041  0
12045  12046  12294  0
12045  12294  12295  0
12045  12295  12039  0
12291  12039  12295  0
