#!ascii file
5310  5592  5593  0
5310  5593  5312  0
5313  5594  5314  0
5314  5594  5586  0
5587  5324  5315  0
5315  5324  5014  0
5315  5014  5316  0
5592  5591  5595  0
5592  5595  5593  0
5593  5596  5312  0
5312  5596  5313  0
5313  5596  5594  0
4384  5018  5307  0
5319  5328  5317  0
5320  5322  5597  0
5598  5597  5322  0
5322  5323  5598  0
5599  5598  5323  0
5323  5324  5600  0
5323  5600  5599  0
4702  5016  5331  0
5601  5331  5016  0
5016  5326  5601  0
5602  5601  5326  0
5327  5602  5326  0
5327  5320  5603  0
5597  5603  5320  0
5597  5598  5604  0
5605  5604  5598  0
5598  5599  5605  0
5606  5602  5327  0
5603  5606  5327  0
5604  5603  5597  0
5332  5336  5333  0
5333  5607  5022  0
5333  5336  5607  0
5608  5607  5336  0
5329  5019  4719  0
5019  5329  5020  0
5330  5331  5609  0
5610  5336  5337  0
4720  5330  5341  0
5609  5341  5330  0
5611  5337  5339  0
5337  5611  5610  0
5342  5612  5343  0
5613  5343  5612  0
5343  5614  5344  0
5343  5613  5614  0
5615  5614  5613  0
5032  5345  5339  0
5339  5345  5616  0
5339  5616  5611  0
5042  5033  5617  0
5618  5617  5033  0
5034  5340  5619  0
5620  5352  5341  0
5621  5356  5614  0
5621  5614  5615  0
5614  5356  5048  0
5614  5048  5344  0
5345  5622  5616  0
5345  5349  5623  0
5345  5623  5622  0
5350  5042  5624  0
5625  5047  5350  0
5346  5354  5626  0
5346  5626  5347  0
5347  5627  5348  0
5347  5626  5628  0
5347  5628  5627  0
5348  5629  5355  0
5355  5629  5630  0
5349  5052  5359  0
5349  5359  5631  0
5349  5631  5623  0
5351  5047  5625  0
5054  5340  4732  0
5054  5632  5340  0
5620  5633  5352  0
5627  5629  5348  0
5359  5358  5634  0
5359  5634  5631  0
5054  5053  5632  0
5635  5636  5637  0
5638  5365  5060  0
5638  5060  5356  0
5358  5357  5634  0
5053  5363  5632  0
5639  5632  5363  0
5055  5640  4767  0
4755  5360  5055  0
5364  5361  5641  0
5369  5637  5636  0
5637  5369  5365  0
5061  5365  5369  0
5363  5642  5639  0
5363  5367  5642  0
5360  5362  5643  0
5364  5643  5362  0
5641  5361  5644  0
5361  5058  5644  0
5368  5644  5058  0
5636  5645  5646  0
5636  5646  5369  0
5369  5646  5066  0
5647  5641  5644  0
5648  5647  5644  0
5644  5368  5648  0
5375  5368  5370  0
5066  5646  5372  0
5367  5373  5642  0
5649  5642  5373  0
5069  5650  5382  0
5651  5382  5650  0
5375  5648  5368  0
5646  5379  5372  0
5373  5381  5649  0
5648  5375  5652  0
5385  5652  5375  0
5375  5374  5385  0
5378  5379  5653  0
5378  5653  5383  0
5380  5390  5381  0
5654  5381  5390  0
5652  5385  5655  0
5391  5655  5385  0
5386  5383  5392  0
5387  5656  5388  0
5657  5656  5387  0
5388  5656  5389  0
5658  5389  5656  0
5389  5658  5390  0
5659  5390  5658  0
5382  5398  4770  0
5655  5391  5660  0
5655  5660  5661  0
5662  5395  5393  0
5396  5663  5078  0
5078  5663  5079  0
5397  5079  5663  0
5397  5657  5387  0
5382  5664  5398  0
5391  5665  5660  0
5391  5392  5665  0
5666  5405  5083  0
5666  5083  5667  0
5083  4475  5668  0
5083  5668  5667  0
5669  5398  5664  0
5398  5670  5081  0
5398  5669  5670  0
5393  5400  5671  0
5393  5671  5662  0
5401  5672  5403  0
5404  5673  5674  0
5404  5674  5402  0
5673  5404  5413  0
5673  5413  5675  0
5673  5675  5674  0
5413  5405  5675  0
5081  5670  5407  0
5087  5676  5408  0
5408  5677  5089  0
5089  5677  5678  0
5089  5678  5410  0
5671  5400  5679  0
5399  5411  5680  0
5399  5680  5400  0
5411  5412  5680  0
5412  5094  5681  0
5094  5095  5681  0
5095  5403  5681  0
5407  5676  5087  0
5410  5678  5682  0
5410  5682  5409  0
5409  5682  5419  0
5409  5419  5110  0
5420  5414  5415  0
5420  5683  5414  0
5417  5416  5684  0
5416  5418  5685  0
5416  5685  5686  0
5416  5686  5684  0
5418  5419  5687  0
5420  5688  5683  0
5421  5417  5689  0
5421  5689  5690  0
5417  5684  5689  0
5688  5420  5124  0
5424  5423  5120  0
5424  5121  5691  0
5424  5691  5692  0
5121  5422  5691  0
5421  5691  5422  0
5124  5693  5688  0
5124  5425  5693  0
5694  5693  5425  0
5129  5426  5427  0
5426  5423  5695  0
5696  5695  5423  0
5423  5424  5696  0
5692  5696  5424  0
5425  5428  5694  0
5697  5694  5428  0
5428  5427  5697  0
5698  5697  5427  0
5427  5426  5698  0
5695  5698  5426  0
5699  5700  5431  0
5701  5699  5431  0
5700  5699  5702  0
5703  5700  5702  0
5704  5703  5702  0
5429  5432  5431  0
5431  5700  5433  0
5705  5433  5700  0
5700  5703  5705  0
5703  5704  5706  0
5707  5708  5709  0
5436  5708  5710  0
5708  5707  5710  0
5711  5710  5707  0
5710  5434  5436  0
5710  5711  5434  0
5712  5434  5711  0
5434  5712  5435  0
5437  5435  5712  0
5438  5713  5134  0
5134  5713  5439  0
5714  5439  5713  0
5715  5439  5714  0
5433  5705  5440  0
5716  5440  5705  0
5706  5704  5717  0
5709  5708  5718  0
5443  5718  5708  0
5708  5436  5443  0
5141  5443  5436  0
5438  5719  5713  0
5720  5441  5440  0
5440  5721  5720  0
5722  5720  5721  0
5716  5721  5440  0
5709  5718  5723  0
5724  5723  5718  0
5718  5443  5725  0
5442  5725  5443  0
5146  5445  5450  0
5722  5445  5441  0
5441  5720  5722  0
5454  5452  5726  0
5727  5726  5728  0
5726  5452  5728  0
5726  5727  5454  0
5729  5454  5727  0
5718  5725  5730  0
5456  5730  5725  0
5718  5730  5724  0
5725  5442  5456  0
5448  5449  5458  0
5731  5458  5449  0
5449  5450  5731  0
5732  5731  5450  0
5450  5733  5732  0
5450  5445  5734  0
5450  5734  5733  0
5451  5735  5452  0
5728  5452  5735  0
5451  5453  5735  0
5454  5729  5455  0
5736  5455  5729  0
5730  5456  5461  0
5730  5461  5737  0
5730  5737  5724  0
5457  5458  5464  0
5458  5731  5738  0
5458  5738  5464  0
5739  5464  5738  0
5731  5740  5738  0
5455  5736  5460  0
5741  5460  5736  0
5461  5462  5737  0
5464  5739  5742  0
5464  5742  5465  0
5466  5743  5154  0
5459  5154  5743  0
5460  5741  5467  0
5469  5744  5745  0
5469  5745  5462  0
5469  5468  5744  0
5471  5465  5746  0
5471  5746  5472  0
5465  5742  5746  0
5747  5474  5467  0
5747  5467  5741  0
5747  5741  5748  0
5747  5748  5474  0
5475  5749  5477  0
5472  5746  5750  0
5472  5750  5479  0
5172  5751  5473  0
5474  5748  5480  0
5475  5476  5749  0
5476  5481  5752  0
5476  5752  5749  0
5180  5479  5753  0
5180  5753  5483  0
5479  5750  5753  0
5480  5748  5488  0
5481  5486  5754  0
5481  5754  5755  0
5481  5755  5752  0
5483  5753  5756  0
5486  5490  5754  0
5483  5756  5491  0
5191  5757  5758  0
5191  5758  5172  0
5191  5759  5757  0
5484  5493  5492  0
5484  5183  5493  0
5497  5754  5490  0
5191  5197  5759  0
5760  5759  5197  0
5192  5492  5498  0
5493  5498  5492  0
5761  5760  5197  0
5762  5499  5498  0
5493  5204  5498  0
5491  5756  5500  0
5197  5202  5761  0
5498  5204  5763  0
5504  5763  5204  0
5495  5496  5501  0
5764  5501  5496  0
5765  5202  5211  0
5202  5765  5761  0
5766  5208  5499  0
5499  5762  5766  0
5767  5763  5504  0
5501  5764  5768  0
5769  5506  5503  0
5211  5514  5765  0
5208  5766  5507  0
5504  5508  5767  0
5770  5501  5768  0
5501  5770  5509  0
5771  5509  5770  0
5509  5771  5510  0
5510  5771  5222  0
5772  5222  5771  0
5222  5772  5223  0
5773  5223  5772  0
5223  5773  5511  0
5774  5502  5505  0
5775  5506  5769  0
5776  5231  5507  0
5777  5508  5220  0
5505  5526  5774  0
5513  5506  5519  0
5775  5519  5506  0
5230  5528  5514  0
5231  5776  5520  0
5220  5515  5777  0
5515  5521  5778  0
5515  5778  5777  0
5242  5523  5779  0
5523  5516  5780  0
5523  5780  5779  0
5517  5524  5518  0
5518  5781  5525  0
5525  5781  5532  0
5782  5532  5781  0
5532  5782  5526  0
5249  5533  5537  0
5534  5783  5535  0
5240  5784  5522  0
5242  5785  5786  0
5535  5787  5538  0
5531  5539  5788  0
5527  5789  5529  0
5790  5791  5543  0
5790  5543  5541  0
5790  5541  5792  0
5791  5788  5546  0
5791  5546  5543  0
5788  5257  5546  0
5788  5539  5257  0
5261  5262  5793  0
5262  5540  5793  0
5540  4951  5538  0
5794  5541  5544  0
5794  5795  5792  0
5794  5792  5541  0
5796  5795  5794  0
4961  5789  5527  0
4962  5261  5793  0
4962  5793  5797  0
4962  5797  5266  0
5544  5548  5794  0
5548  5796  5794  0
5789  4961  5547  0
5798  5548  5268  0
5265  5260  5557  0
4964  5266  5549  0
5799  5549  5266  0
5268  5550  5798  0
5800  5798  5550  0
5550  5551  5800  0
5801  5551  5552  0
5552  5553  5801  0
5553  5554  5801  0
5555  5801  5554  0
5802  5556  5274  0
5274  5558  5802  0
5570  5547  5283  0
5803  5567  5804  0
5558  5559  5805  0
5558  5805  5802  0
5549  5799  5561  0
5806  5561  5799  0
5562  5807  5563  0
5567  5803  5565  0
5559  5569  5808  0
5559  5808  5805  0
5809  5807  5562  0
5562  5571  5809  0
5810  5809  5571  0
5571  5572  5810  0
5811  5810  5572  0
5572  5287  5811  0
5812  5811  5287  0
5287  5573  5812  0
5813  5812  5573  0
5573  5574  5814  0
5573  5814  5813  0
5815  5565  5803  0
5578  5292  5560  0
5574  5575  5814  0
5575  5565  5815  0
5569  5577  5816  0
5569  5816  5808  0
5296  5582  5817  0
5296  5817  5579  0
5580  5579  5817  0
5583  5818  5300  0
5583  5819  5818  0
5584  5820  5817  0
5584  5817  5582  0
5584  5308  5820  0
5300  5818  5589  0
5309  5590  5585  0
5585  5590  5821  0
5585  5821  5591  0
5308  5588  5822  0
5308  5822  5823  0
5308  5823  5820  0
5590  5824  5825  0
5590  5318  5826  0
5590  5826  5824  0
5590  5825  5821  0
5821  5827  5591  0
5591  5827  5595  0
5595  5828  5593  0
5593  5828  5596  0
5594  5829  5586  0
5586  5829  5600  0
5586  5600  5587  0
5587  5600  5324  0
5588  5307  5329  0
5307  5018  5329  0
5319  5830  5328  0
5325  5826  5318  0
5831  5826  5325  0
5596  5828  5832  0
5596  5832  5594  0
5594  5832  5829  0
5829  5599  5600  0
5588  5329  5822  0
5328  5830  5325  0
5325  5830  5831  0
5599  5829  5605  0
5833  5834  5607  0
5022  5607  5834  0
5608  5833  5607  0
5022  5822  4719  0
5329  4719  5822  0
5022  5834  5823  0
5022  5823  5822  0
5830  5835  5831  0
5836  5601  5602  0
5602  5606  5836  0
5837  5606  5603  0
5604  5837  5603  0
5604  5605  5838  0
5839  5331  5601  0
5836  5606  5840  0
5837  5840  5606  0
5841  5837  5604  0
5604  5838  5841  0
5336  5610  5608  0
5608  5610  5842  0
5609  5331  5839  0
5613  5612  5843  0
5844  5610  5611  0
5610  5844  5842  0
5845  5842  5844  0
5033  5034  5618  0
5846  5620  5341  0
5341  5609  5846  0
5611  5616  5847  0
5611  5847  5844  0
5042  5617  5624  0
5619  5618  5034  0
5616  5622  5847  0
5350  5624  5848  0
5350  5848  5625  0
5624  5617  5849  0
5624  5849  5848  0
5340  5850  5619  0
5352  5633  5851  0
5352  5851  5353  0
5630  5629  5852  0
5340  5632  5850  0
5620  5853  5633  0
5854  5633  5853  0
5855  5633  5854  0
5633  5855  5851  0
5353  5851  5856  0
5353  5856  5354  0
5354  5856  5626  0
5626  5857  5628  0
5627  5628  5852  0
5627  5852  5629  0
5631  5634  5858  0
5625  5859  5351  0
5860  5861  5645  0
5860  5645  5636  0
5634  5357  5862  0
5634  5862  5858  0
5357  5351  5859  0
5357  5859  5862  0
5632  5639  5850  0
5055  5360  5643  0
5055  5643  5863  0
4767  5640  5069  0
5640  5055  5863  0
5364  5641  5643  0
5861  5864  5645  0
5865  5645  5864  0
5645  5865  5646  0
5642  5866  5639  0
5642  5649  5866  0
5069  5867  5650  0
5640  5867  5069  0
5863  5643  5868  0
5643  5641  5869  0
5647  5869  5641  0
5864  5870  5865  0
5653  5865  5870  0
5379  5865  5653  0
5865  5379  5646  0
5871  5869  5647  0
5647  5648  5871  0
5652  5871  5648  0
5870  5872  5653  0
5870  5873  5872  0
5381  5654  5649  0
5869  5871  5874  0
5875  5874  5871  0
5872  5383  5653  0
5872  5873  5383  0
5654  5390  5659  0
5876  5875  5871  0
5871  5652  5876  0
5655  5876  5652  0
5392  5877  5878  0
5877  5392  5383  0
5877  5383  5873  0
5656  5879  5658  0
5880  5658  5879  0
5658  5880  5659  0
5651  5881  5382  0
5664  5382  5881  0
5661  5876  5655  0
5392  5878  5665  0
5662  5882  5395  0
5883  5395  5882  0
5395  5883  5394  0
5394  5883  5396  0
5884  5396  5883  0
5396  5884  5663  0
5885  5663  5884  0
5663  5885  5397  0
5397  5885  5657  0
5662  5886  5882  0
5666  5887  5405  0
5664  5881  5669  0
5662  5671  5886  0
5401  5402  5888  0
5401  5888  5672  0
5402  5674  5888  0
5675  5887  5674  0
5675  5405  5887  0
4475  5086  5889  0
4475  5889  5668  0
5890  5407  5670  0
5891  5407  5890  0
5676  5892  5408  0
5677  5408  5892  0
5677  5893  5678  0
5886  5671  5894  0
5671  5679  5895  0
5671  5895  5894  0
5400  5680  5679  0
5680  5412  5896  0
5412  5681  5897  0
5412  5897  5896  0
5681  5898  5897  0
5681  5403  5898  0
5889  5086  5414  0
5407  5891  5899  0
5407  5899  5676  0
5676  5899  5892  0
5678  5893  5900  0
5678  5900  5682  0
5682  5900  5901  0
5682  5901  5419  0
5414  5683  5889  0
5418  5687  5902  0
5418  5902  5685  0
5687  5419  5901  0
5690  5689  5903  0
5690  5903  5904  0
5690  5904  5421  0
5689  5684  5905  0
5689  5905  5903  0
5684  5686  5905  0
5688  5693  5683  0
5691  5421  5904  0
5691  5904  5906  0
5696  5692  5907  0
5696  5907  5908  0
5696  5908  5909  0
5696  5909  5695  0
5692  5691  5907  0
5697  5698  5910  0
5698  5695  5909  0
5698  5909  5910  0
5699  5911  5702  0
5702  5911  5912  0
5702  5912  5913  0
5702  5913  5704  0
5711  5707  5914  0
5914  5915  5916  0
5914  5707  5915  0
5917  5915  5707  0
5914  5712  5711  0
5914  5916  5712  0
5712  5916  5918  0
5919  5431  5432  0
5431  5919  5701  0
5704  5913  5920  0
5709  5917  5707  0
5723  5917  5709  0
5712  5918  5921  0
5712  5921  5437  0
5437  5719  5438  0
5437  5921  5719  0
5439  5715  5432  0
5922  5432  5715  0
5432  5922  5919  0
5705  5703  5716  0
5923  5716  5703  0
5703  5706  5923  0
5924  5923  5706  0
5706  5717  5924  0
5925  5924  5717  0
5717  5704  5925  0
5926  5925  5704  0
5927  5926  5704  0
5704  5920  5927  0
5928  5927  5920  0
5714  5713  5719  0
5716  5722  5721  0
5716  5923  5929  0
5930  5929  5923  0
5923  5924  5930  0
5931  5930  5924  0
5924  5925  5931  0
5932  5931  5925  0
5925  5926  5932  0
5735  5932  5926  0
5926  5927  5735  0
5728  5735  5927  0
5927  5928  5728  0
5933  5728  5928  0
5934  5723  5724  0
5445  5722  5734  0
5935  5734  5722  0
5936  5935  5722  0
5722  5716  5936  0
5929  5936  5716  0
5929  5930  5937  0
5930  5931  5937  0
5938  5937  5931  0
5931  5932  5938  0
5932  5735  5938  0
5728  5933  5727  0
5729  5727  5933  0
5731  5732  5740  0
5939  5732  5733  0
5733  5734  5939  0
5734  5940  5939  0
5941  5939  5940  0
5734  5935  5940  0
5942  5940  5935  0
5935  5936  5942  0
5938  5735  5459  0
5453  5459  5735  0
5943  5736  5729  0
5724  5737  5944  0
5724  5944  5934  0
5740  5739  5738  0
5941  5740  5732  0
5732  5939  5941  0
5736  5943  5741  0
5945  5741  5943  0
5946  5737  5462  0
5946  5462  5745  0
5946  5944  5737  0
5946  5745  5947  0
5946  5947  5944  0
5740  5948  5739  0
5744  5468  5478  0
5744  5478  5949  0
5744  5949  5950  0
5744  5950  5745  0
5947  5745  5950  0
5742  5951  5746  0
5742  5739  5948  0
5742  5948  5951  0
5743  5466  5952  0
5466  5473  5952  0
5741  5945  5748  0
5477  5949  5478  0
5477  5749  5953  0
5477  5953  5949  0
5746  5951  5750  0
5951  5954  5750  0
5748  5945  5955  0
5749  5752  5953  0
5758  5751  5172  0
5955  5488  5748  0
5752  5755  5956  0
5752  5956  5953  0
5753  5750  5957  0
5753  5957  5756  0
5750  5954  5957  0
5955  5958  5488  0
5955  5959  5958  0
5755  5754  5960  0
5755  5960  5956  0
5756  5957  5961  0
5958  5494  5488  0
5754  5497  5960  0
5497  5962  5960  0
5494  5958  5496  0
5756  5961  5500  0
5961  5963  5500  0
5964  5762  5498  0
5498  5763  5964  0
5764  5496  5965  0
5496  5958  5965  0
5502  5962  5497  0
5500  5963  5503  0
5762  5964  5966  0
5767  5964  5763  0
5774  5962  5502  0
5503  5963  5769  0
5514  5761  5765  0
5966  5766  5762  0
5768  5764  5770  0
5967  5771  5770  0
5968  5771  5967  0
5771  5968  5772  0
5969  5772  5968  0
5970  5772  5969  0
5772  5970  5773  0
5971  5511  5773  0
5972  5767  5508  0
5508  5777  5972  0
5516  5511  5780  0
5973  5780  5511  0
5511  5971  5973  0
5974  5774  5526  0
5975  5519  5775  0
5976  5520  5776  0
5977  5972  5777  0
5777  5778  5977  0
5978  5977  5778  0
5242  5779  5785  0
5779  5780  5979  0
5973  5979  5780  0
5980  5981  5982  0
5983  5984  5982  0
5982  5985  5983  0
5986  5524  5987  0
5518  5524  5986  0
5975  5533  5519  0
5520  5976  5530  0
5778  5521  5988  0
5778  5988  5978  0
5979  5785  5779  0
5983  5989  5990  0
5983  5985  5989  0
5987  5989  5985  0
5989  5524  5531  0
5989  5531  5990  0
5989  5987  5524  0
5518  5991  5781  0
5992  5781  5991  0
5781  5992  5782  0
5782  5974  5526  0
5533  5975  5993  0
5533  5993  5537  0
5994  5537  5993  0
5530  5995  5783  0
5530  5783  5534  0
5530  5976  5995  0
5521  5522  5988  0
5522  5784  5996  0
5992  5997  5998  0
5992  5998  5999  0
5992  5999  5782  0
5782  5999  5974  0
5783  5787  5535  0
5783  6000  5787  0
5786  6001  6002  0
5990  5531  5788  0
5537  5994  5259  0
5529  5789  6003  0
5787  6000  5538  0
5259  5994  6004  0
5540  6005  6006  0
5540  6006  6007  0
5540  6007  5793  0
5540  5538  6000  0
5540  6000  6005  0
5795  5796  6008  0
5259  6004  5260  0
5793  6007  6009  0
5260  6004  6010  0
5789  5547  6011  0
6012  5266  5797  0
6009  5797  5793  0
5548  5798  6013  0
5548  6013  5796  0
5260  6010  5557  0
6012  5799  5266  0
6014  5800  5551  0
5551  5801  6014  0
6015  6014  5801  0
6016  6015  5801  0
5801  5555  6016  0
6017  6016  5555  0
5555  5556  6017  0
6018  6017  5556  0
5556  5802  6018  0
5557  6010  5560  0
5547  5570  6011  0
6019  6011  5570  0
5799  6012  6020  0
6021  5563  5807  0
6022  5563  6021  0
6023  6021  5807  0
6024  6025  5804  0
6026  5804  6025  0
5804  6026  5803  0
6027  5803  6026  0
5802  5805  6028  0
6029  6028  5805  0
5805  5808  6029  0
6020  5806  5799  0
6030  5810  5811  0
6031  5803  6027  0
5816  6029  5808  0
4985  5578  5570  0
6032  5570  5578  0
5561  5806  5576  0
5807  5809  6033  0
6034  6033  5809  0
6035  6034  5809  0
5809  5810  6035  0
6030  6035  5810  0
5811  5812  6030  0
6036  6030  5812  0
5812  5813  6036  0
6037  6036  5813  0
5813  5814  6037  0
5803  6031  5815  0
5576  5806  6038  0
5576  6038  5293  0
5816  5577  6039  0
5293  6040  5581  0
6039  5577  6041  0
5580  5817  6042  0
5580  6042  5577  0
5577  6042  6041  0
5817  5820  6043  0
5817  6043  6042  0
5820  5823  6044  0
5820  6044  6043  0
5825  6045  5821  0
5825  6046  6045  0
5821  6045  5827  0
5827  6045  5595  0
5823  6047  6044  0
5319  5589  5830  0
5826  5831  5824  0
6045  6046  6048  0
6045  6048  6049  0
6045  6049  5595  0
5595  6049  5828  0
5828  6049  5832  0
5832  6050  5829  0
5833  6051  5834  0
5833  6052  6053  0
5833  6053  6051  0
6051  5823  5834  0
6051  6053  6047  0
6051  6047  5823  0
6050  5605  5829  0
6052  5833  5608  0
5608  5842  6052  0
6054  6052  5842  0
6055  5839  5601  0
5601  5836  6055  0
5840  6055  5836  0
5840  5837  6056  0
5841  6056  5837  0
5841  5838  6057  0
6050  5838  5605  0
6058  6054  5842  0
6059  6055  5840  0
5840  6056  6059  0
6060  6059  6056  0
6056  5841  6060  0
6057  6060  5841  0
5842  5845  6058  0
6061  6058  5845  0
6062  5620  5846  0
5846  5609  6063  0
5846  6063  6062  0
5609  5839  6063  0
6055  6063  5839  0
5844  5847  5845  0
6061  5845  5847  0
5617  5618  5849  0
6064  5853  5620  0
5620  6062  6064  0
5847  6065  6061  0
5847  5622  6065  0
5849  5618  6066  0
5618  5619  6066  0
5850  6066  5619  0
5852  6067  5630  0
5623  5631  6068  0
5623  6068  5622  0
5622  6068  6069  0
5622  6069  6065  0
6070  5625  5848  0
5848  5849  6070  0
5853  6071  6072  0
5853  6072  5855  0
5853  5855  5854  0
5851  6073  5856  0
5626  5856  5857  0
6074  5628  5857  0
5628  6074  5852  0
6067  5852  6074  0
6075  6076  5860  0
6077  5860  6076  0
5631  5858  6068  0
6070  6078  5625  0
5855  6072  6079  0
5855  6079  5851  0
5851  6079  6073  0
6073  6080  5856  0
5856  6080  6081  0
5856  6081  5857  0
5860  6077  6082  0
5860  6082  5861  0
5858  5862  6083  0
5859  5625  6078  0
5859  6078  5862  0
5850  5639  5866  0
6084  5861  6082  0
5640  5863  6085  0
6084  5864  5861  0
6084  6086  5864  0
5866  5649  6087  0
5867  5640  6088  0
6085  5863  6089  0
5863  5868  6090  0
5863  6090  6089  0
5643  5869  5868  0
6091  5864  6086  0
5864  6091  6092  0
5864  6092  5870  0
6093  5651  5650  0
6093  5650  5867  0
5867  6088  6093  0
5868  5869  5874  0
5868  5874  6090  0
6092  5873  5870  0
5654  6087  5649  0
5651  6093  6094  0
6089  6090  6095  0
5874  6095  6090  0
6092  5877  5873  0
5659  6096  5654  0
5880  6096  5659  0
5651  6094  5881  0
6095  5874  6097  0
5874  5875  6097  0
6098  6097  5875  0
6099  6098  5875  0
6100  5665  5877  0
5878  5877  5665  0
6100  5877  6101  0
6092  6101  5877  0
5883  5882  6102  0
6103  5656  5657  0
5875  5876  6099  0
5876  5661  6099  0
6104  6099  5661  0
5661  5660  6104  0
6105  6104  5660  0
5660  5665  6105  0
6100  6105  5665  0
6106  5884  5883  0
5884  6106  5885  0
6107  5666  5667  0
6108  5667  5668  0
5669  5890  5670  0
5403  5672  5898  0
6109  5898  5672  0
6110  5888  5674  0
5887  6110  5674  0
5668  5889  6108  0
5893  5677  5892  0
5679  5680  6111  0
5679  6111  5895  0
5680  5896  6111  0
5897  5898  6109  0
5889  6112  6108  0
5893  6113  5900  0
6114  5900  6113  0
5900  6114  5901  0
6115  5901  6114  0
6112  5889  5683  0
6116  6117  6118  0
6116  6119  6120  0
6116  6120  6117  0
6119  5906  6120  0
5906  5903  6121  0
5906  6121  6120  0
5903  5906  5904  0
5902  5687  6122  0
5687  5901  6115  0
5687  6115  6122  0
6116  6123  6119  0
5686  5685  5902  0
5686  5902  5905  0
5683  5693  6124  0
6123  5908  5907  0
6123  5907  6119  0
6119  5907  5691  0
6119  5691  5906  0
6125  6126  6127  0
6125  6128  6129  0
6125  6129  6126  0
6126  6129  6130  0
6126  6130  6131  0
6131  6132  6126  0
6131  6133  6132  0
5693  5694  6134  0
5910  5909  5908  0
5910  5908  6135  0
5910  6135  6136  0
6137  6127  6138  0
6137  6139  6127  0
6127  6139  6125  0
6127  6126  6140  0
6127  6140  6138  0
6126  6132  6140  0
6132  6133  6141  0
5694  5697  6134  0
5697  6142  6134  0
5697  5910  6136  0
5697  6136  6142  0
6138  6140  6143  0
6140  6132  6141  0
6140  6141  6144  0
5911  5699  5701  0
5911  6145  5912  0
5915  5917  6146  0
5915  6146  5916  0
5916  6146  6147  0
5916  6147  5918  0
5919  6148  5701  0
5701  6148  5911  0
6149  5911  6148  0
5911  6149  6145  0
6150  6145  6149  0
6145  6150  5912  0
6151  5912  6150  0
5912  6151  5913  0
5920  5913  6151  0
5917  5723  6152  0
5921  5918  6153  0
5921  6153  5719  0
6154  5922  5715  0
5922  6154  6155  0
5919  5922  6148  0
6156  6148  5922  0
6148  6156  6149  0
6157  6149  6156  0
6149  6157  6150  0
6150  6158  6151  0
6159  6158  6150  0
6160  6151  6158  0
6151  6160  5920  0
5928  5920  6160  0
6161  6152  5723  0
6162  5719  6153  0
5719  6162  5714  0
6163  5714  6162  0
5714  6163  5715  0
6154  5715  6163  0
6164  6158  6159  0
6158  6164  6160  0
6165  6160  6164  0
6160  6165  5928  0
5933  5928  6165  0
5723  5934  6161  0
6166  6161  5934  0
6161  6166  6167  0
5459  5937  5938  0
6168  5729  5933  0
5942  5941  5940  0
5942  5936  6169  0
5936  5929  6169  0
5937  6169  5929  0
5729  6168  5943  0
5934  5944  6166  0
6170  6166  5944  0
6171  6166  6170  0
5740  5941  5948  0
6172  5948  5941  0
6173  6172  5941  0
5941  5942  6173  0
5942  6169  6173  0
6169  5937  6174  0
6175  6174  5937  0
5937  5459  6175  0
5952  6175  5459  0
5743  5952  5459  0
5943  6168  5945  0
6176  5945  6168  0
5944  5947  6177  0
5944  6177  6170  0
5948  6172  6178  0
5950  5949  6179  0
5950  6179  6180  0
5950  6180  5947  0
5947  6181  6177  0
5947  6180  6182  0
5947  6182  6181  0
6177  6181  6170  0
6171  6170  6181  0
5948  6178  5951  0
6179  6183  6180  0
5951  6178  6184  0
5951  6184  5954  0
6178  6185  6184  0
5751  6175  5952  0
5751  5952  5473  0
6176  5955  5945  0
5953  6186  5949  0
5949  6186  6179  0
6179  6187  6183  0
5758  6188  5751  0
6176  6189  5959  0
6176  5959  5955  0
5953  5956  6186  0
6186  6187  6179  0
6186  6190  6187  0
5954  6184  6191  0
5758  5757  6192  0
5956  6193  6190  0
5956  6190  6186  0
5956  5960  6193  0
5957  5954  6194  0
5960  5962  6195  0
5960  6195  6193  0
5961  5957  6194  0
5757  5759  6196  0
5958  5959  6197  0
5961  6194  6198  0
5760  6196  5759  0
5958  6197  6199  0
5961  6198  5963  0
5963  6198  6200  0
5958  6199  5965  0
5965  6199  5764  0
6201  6202  6203  0
6202  6204  6203  0
6205  6206  6207  0
6207  6204  6208  0
6207  6206  6204  0
6207  6208  6205  0
5962  5774  6195  0
5974  6195  5774  0
5963  6200  5769  0
5761  5514  6209  0
6210  6209  5514  0
5766  5966  5507  0
5966  5964  6211  0
6212  6211  5964  0
5964  5767  6212  0
5764  6213  5770  0
5967  5770  6213  0
5967  6214  5968  0
6201  6203  6215  0
6201  6215  6216  0
6217  6216  6215  0
6203  6206  6218  0
6219  6218  6206  0
6203  6204  6206  0
6206  6205  6219  0
6220  6219  6205  0
5769  6200  5775  0
5975  5775  6200  0
6221  5975  6200  0
5976  5776  5507  0
6222  6212  5767  0
5767  5972  6222  0
5982  5981  6215  0
6217  6215  5981  0
6215  6203  5982  0
5985  5982  6203  0
6203  6218  5985  0
6223  5985  6218  0
6218  6219  6223  0
5987  6223  6219  0
6219  6220  5987  0
5986  5987  6220  0
6220  6224  5986  0
5991  5986  6224  0
5975  6221  5993  0
5972  5977  6222  0
6225  5977  5978  0
6226  5979  5973  0
5981  6227  6217  0
6228  6217  6227  0
5987  5985  6223  0
5991  5518  5986  0
5514  5528  6210  0
5785  5979  6229  0
6226  6229  5979  0
5785  6229  5786  0
6227  6230  6228  0
5991  5997  5992  0
5528  6003  6210  0
5988  5522  5996  0
5988  5996  6231  0
5988  6231  5978  0
5786  6229  6001  0
6230  6232  6233  0
6232  6234  6235  0
6232  6235  6233  0
5974  5999  6236  0
5528  5529  6003  0
5995  6237  5783  0
5783  6237  6238  0
5783  6238  6000  0
6001  6239  6002  0
6234  6240  6241  0
5999  5998  6242  0
6000  6238  6005  0
6243  6002  6244  0
6004  5994  6245  0
6244  6002  6239  0
6244  6239  6246  0
6008  5796  6247  0
6248  6249  6250  0
6248  6250  6240  0
6240  6250  6241  0
5789  6251  6003  0
5796  6013  6247  0
6252  6247  6013  0
6247  6252  6249  0
6253  6249  6252  0
6249  6253  6250  0
6250  6254  6241  0
6011  6251  5789  0
5800  6013  5798  0
6014  6013  5800  0
6013  6014  6252  0
6015  6252  6014  0
6252  6255  6253  0
6252  6015  6255  0
6253  6255  6256  0
6253  6256  6250  0
6004  6257  6010  0
6015  6016  6255  0
6258  6255  6016  0
6259  6016  6017  0
6259  6258  6016  0
6017  6018  6259  0
6257  5560  6010  0
6260  6021  6261  0
6021  6023  6261  0
6021  6260  6022  0
6262  6022  6260  0
6263  6259  6018  0
6018  5802  6263  0
5802  6028  6263  0
6028  6029  6264  0
5578  5560  6257  0
6032  5578  6257  0
5570  6032  6019  0
6265  5806  6020  0
5807  6266  6023  0
6266  6267  6023  0
6261  6023  6267  0
6268  6267  6266  0
6029  5816  6269  0
6266  5807  6270  0
6266  6270  6268  0
5807  6033  6270  0
6271  6033  6034  0
6034  6035  6271  0
6272  6271  6035  0
6035  6030  6272  0
6273  6272  6030  0
6030  6036  6274  0
6030  6274  6273  0
6036  6037  6275  0
6036  6275  6274  0
6270  6033  6276  0
6033  6271  6277  0
6033  6277  6276  0
5814  5575  6278  0
5814  6278  6037  0
5575  5815  6279  0
5575  6279  6278  0
5815  6031  6280  0
5815  6280  6279  0
6281  5293  6038  0
5293  6281  6040  0
5816  6039  6282  0
5816  6282  6283  0
6040  6284  5581  0
5581  6284  5583  0
6041  6282  6039  0
5819  6285  6286  0
5819  5583  6284  0
5819  6284  6285  0
5819  6286  5818  0
6042  6287  6041  0
6042  6043  6288  0
6042  6288  6287  0
5824  6046  5825  0
6044  6289  6043  0
6044  6047  6290  0
6044  6290  6289  0
6043  6289  6288  0
5824  5831  6046  0
6048  6046  6291  0
6048  6291  6049  0
6053  6290  6047  0
6053  6052  6292  0
6053  6292  6290  0
5830  5589  5835  0
6046  5831  6293  0
6046  6293  6294  0
6291  6295  6296  0
6291  6296  6049  0
6049  6296  5832  0
6050  5832  6296  0
6052  6297  6292  0
5835  6293  5831  0
6295  6298  6296  0
6057  6296  6298  0
6296  6057  6050  0
5838  6050  6057  0
6052  6054  6297  0
6299  6300  5835  0
5835  6300  6293  0
6301  6293  6300  0
6293  6301  6302  0
6054  6058  6297  0
6303  6297  6058  0
6299  6304  6300  0
6300  6305  6301  0
6306  6059  6060  0
6307  6306  6060  0
6060  6057  6308  0
6298  6308  6057  0
6060  6308  6307  0
6303  6058  6061  0
6063  6055  6309  0
6055  6059  6309  0
5853  6064  6071  0
6062  6063  6064  0
6310  6064  6063  0
6063  6309  6310  0
6311  6310  6309  0
6312  6061  6065  0
6061  6312  6303  0
6067  6313  5630  0
6067  6314  6313  0
5630  6313  6315  0
6065  6069  6316  0
6065  6316  6312  0
5849  6066  6317  0
5849  6317  6070  0
6066  5850  6317  0
5850  5866  6317  0
6074  6318  6067  0
6314  6067  6318  0
6075  6319  6320  0
6321  6078  6070  0
6070  6317  6322  0
6071  6323  6072  0
6324  6072  6323  0
6072  6324  6079  0
6325  6079  6324  0
6079  6326  6073  0
6073  6326  6080  0
5857  6081  6318  0
5857  6318  6074  0
6076  6075  6320  0
6068  6327  6069  0
6068  5858  6328  0
6068  6328  6327  0
6079  6325  6326  0
5858  6329  6330  0
5858  6330  6328  0
5858  6083  6329  0
6083  5862  6078  0
6083  6078  6331  0
6083  6331  6329  0
6087  6332  5866  0
5640  6085  6088  0
6088  6333  6093  0
6088  6085  6333  0
6086  6334  6091  0
6085  6089  6335  0
6095  6335  6089  0
6091  6334  6336  0
6091  6336  6101  0
6091  6101  6092  0
6100  6101  6105  0
6101  6336  6337  0
6101  6337  6105  0
5882  6338  6102  0
6102  6106  5883  0
5656  6103  5879  0
6339  5879  6103  0
5879  6339  5880  0
6099  6104  6340  0
6341  6340  6104  0
6104  6105  6341  0
6337  6341  6105  0
6338  5882  6342  0
6106  6343  5885  0
5885  6344  5657  0
5657  6344  6103  0
6345  6342  5882  0
6346  5887  5666  0
6347  6107  5667  0
6108  6347  5667  0
5669  6348  5890  0
6349  5890  6348  0
6350  5890  6349  0
5882  5886  6345  0
6351  6345  5886  0
5886  5894  6351  0
6352  6351  5894  0
6353  6352  5894  0
5672  6354  6109  0
6355  6109  6354  0
5672  5888  6354  0
5888  6110  6354  0
6346  6110  5887  0
5890  6350  5891  0
5891  6350  5899  0
5894  5895  6353  0
6356  6353  5895  0
5895  6111  6357  0
5895  6357  6356  0
6111  5896  6357  0
5896  5897  6358  0
5896  6358  6357  0
5897  6109  6359  0
5897  6359  6358  0
6109  6355  6359  0
6113  6360  6114  0
6361  6114  6360  0
6362  6112  6363  0
6108  6112  6362  0
6362  6363  6364  0
6117  6365  6118  0
6120  6366  6117  0
6120  6121  6366  0
6121  5903  6367  0
6367  6368  6121  0
6114  6361  6115  0
6363  6112  5683  0
6369  6118  6365  0
6369  6365  6370  0
6118  6369  6116  0
6367  5903  5905  0
6367  5905  6371  0
6367  6371  6368  0
6371  6372  6368  0
6371  5905  5902  0
6371  5902  6122  0
6371  6122  6373  0
6371  6373  6372  0
6122  6374  6373  0
6122  6115  6374  0
6375  6363  5683  0
6375  6376  6363  0
6369  6377  6116  0
6375  6124  6378  0
6375  6378  6376  0
6375  5683  6124  0
6377  6369  6379  0
6377  6123  6116  0
6380  6130  6129  0
6380  6381  6382  0
6380  6129  6383  0
6380  6383  6381  0
6380  6384  6131  0
6380  6131  6130  0
6380  6382  6385  0
6380  6385  6384  0
6384  6386  6387  0
6384  6387  6131  0
6384  6385  6388  0
6384  6388  6386  0
6386  6389  6387  0
6124  6390  6391  0
6124  6391  6378  0
6124  5693  6390  0
6377  6135  5908  0
6377  6379  6392  0
6377  6392  6135  0
6377  5908  6123  0
6139  6393  6394  0
6139  6394  6395  0
6139  6137  6396  0
6139  6396  6393  0
6395  6128  6125  0
6395  6125  6139  0
6395  6394  6128  0
6128  6383  6129  0
6131  6387  6133  0
6387  6389  6397  0
6387  6397  6133  0
6390  5693  6134  0
6390  6134  6398  0
6135  6392  6136  0
6133  6399  6141  0
6133  6397  6399  0
6398  6134  6400  0
6134  6401  6400  0
6134  6142  6401  0
6136  6401  6142  0
6402  6137  6138  0
6138  6143  6402  0
6403  6402  6143  0
6143  6140  6144  0
6143  6144  6403  0
6404  6403  6144  0
6405  6404  6144  0
6144  6141  6405  0
6406  6405  6141  0
6141  6399  6406  0
6146  5917  6407  0
5917  6152  6407  0
6408  6407  6152  0
6152  6161  6408  0
6147  6409  5918  0
6410  5918  6409  0
5918  6410  6153  0
6411  6153  6410  0
6412  5922  6155  0
5922  6412  6156  0
6156  6413  6157  0
6159  6157  6413  0
6157  6159  6150  0
6153  6411  6162  0
6163  6162  6411  0
6163  6414  6154  0
6415  6154  6414  0
6154  6415  6155  0
6412  6155  6415  0
6412  6413  6156  0
6413  6416  6159  0
6164  6417  6165  0
6418  6165  6417  0
6165  6418  5933  0
6167  6166  6419  0
6420  6416  6421  0
6416  6420  6159  0
6422  6159  6420  0
6159  6422  6164  0
6417  6164  6422  0
6417  6423  6418  0
6168  5933  6418  0
6424  6419  6166  0
6425  6418  6423  0
6418  6425  6168  0
6426  6168  6425  0
6166  6171  6424  0
6174  6173  6169  0
6168  6426  6176  0
6427  6172  6173  0
6173  6174  6427  0
6189  6176  6426  0
6181  6182  6171  0
6171  6182  6428  0
6171  6428  6424  0
6427  6185  6178  0
6178  6172  6427  0
6174  6175  6427  0
6175  6188  6427  0
6180  6183  6429  0
6180  6429  6182  0
6182  6429  6430  0
6182  6430  6428  0
6175  5751  6188  0
6183  6187  6431  0
6183  6431  6429  0
6429  6431  6432  0
6429  6432  6430  0
6188  5758  6192  0
6187  6190  6433  0
6187  6433  6431  0
6184  6185  6191  0
6185  6196  6191  0
6434  5959  6189  0
6434  6189  6435  0
6193  6436  6190  0
6190  6436  6437  0
6190  6437  6433  0
6433  6437  6431  0
6431  6438  6432  0
6431  6437  6439  0
6431  6439  6438  0
5954  6191  6194  0
6192  5757  6196  0
6193  6195  6440  0
6193  6440  6436  0
6436  6441  6437  0
6437  6441  6439  0
6191  6442  6194  0
6197  5959  6443  0
6444  6445  6446  0
6440  6447  6436  0
6194  6442  6198  0
6199  6197  6448  0
6197  6443  6449  0
6197  6449  6448  0
6444  6202  6201  0
6444  6201  6450  0
6444  6446  6202  0
6446  6445  6208  0
6195  6447  6440  0
6451  5760  6209  0
5761  6209  5760  0
6204  6202  6446  0
6446  6208  6204  0
6208  6445  6452  0
6453  6447  6195  0
6198  6454  6200  0
6213  5764  6199  0
6208  6452  6205  0
6455  6205  6452  0
6195  5974  6453  0
6214  5967  6213  0
6214  6456  5968  0
6457  5968  6456  0
5968  6457  5969  0
6458  5969  6457  0
5969  6458  5970  0
6459  5970  6458  0
5970  6460  5773  0
5971  5773  6460  0
5970  6459  6460  0
6216  6217  6461  0
6462  6461  6217  0
6205  6224  6220  0
6205  6455  6224  0
6200  6454  6221  0
5507  5966  5976  0
6463  5976  5966  0
5966  6211  6463  0
6464  6463  6211  0
6465  6464  6211  0
6211  6212  6465  0
6212  6222  6465  0
6226  5971  6460  0
6217  6228  6466  0
6217  6466  6462  0
6467  6462  6466  0
6224  6468  5991  0
5974  6236  6453  0
6453  6236  6469  0
6470  6465  6222  0
6222  5977  6225  0
6222  6225  6470  0
5973  5971  6226  0
6228  6230  6233  0
6228  6233  6466  0
6466  6233  6471  0
6466  6471  6467  0
6472  6467  6471  0
5991  6468  5997  0
6473  5997  6468  0
5993  6221  6474  0
5976  6463  5995  0
6237  5995  6463  0
6225  5978  6475  0
6229  6226  6476  0
6226  6477  6476  0
6233  6235  6471  0
5997  6473  5998  0
5993  6474  5994  0
5978  6231  6478  0
5978  6478  6475  0
6229  6476  6479  0
6229  6479  6480  0
6229  6480  6001  0
5998  6473  6481  0
5999  6482  6236  0
6003  6483  6210  0
6231  6484  6478  0
6001  6480  6246  0
6001  6246  6239  0
6234  6241  6485  0
6234  6485  6235  0
6235  6485  6486  0
5998  6481  6242  0
5999  6242  6482  0
6003  6251  6483  0
5994  6474  6487  0
6006  6005  6488  0
6006  6488  6489  0
6006  6489  6007  0
6246  6490  6491  0
6246  6491  6492  0
6241  6254  6493  0
6241  6493  6485  0
6245  5994  6487  0
6494  6007  6489  0
6250  6256  6254  0
6495  6254  6256  0
6254  6495  6493  0
6251  6011  6019  0
6009  6007  6496  0
6494  6496  6007  0
6255  6258  6256  0
6497  6256  6258  0
6256  6497  6495  0
6004  6245  6257  0
6245  6487  6257  0
6009  6498  5797  0
5797  6498  6012  0
6499  6012  6498  0
6500  6262  6260  0
6501  6262  6500  0
6258  6259  6497  0
6257  6487  6032  0
6019  6032  6487  0
6502  6020  6012  0
6012  6499  6502  0
6261  6503  6260  0
6500  6260  6503  0
6504  6505  6025  0
6506  6025  6505  0
6025  6506  6026  0
6507  6027  6026  0
6508  6259  6263  0
6509  6508  6263  0
6263  6028  6509  0
6028  6264  6509  0
6510  6265  6020  0
6511  6267  6268  0
6267  6512  6261  0
6027  6513  6031  0
6027  6507  6513  0
6264  6029  6514  0
6269  6514  6029  0
5806  6265  6038  0
6271  6272  6515  0
6516  6515  6272  0
6271  6515  6277  0
6517  6277  6515  0
6272  6273  6516  0
6518  6516  6273  0
6274  6518  6273  0
6275  6037  6519  0
6275  6519  6520  0
6513  6279  6280  0
6513  6280  6031  0
6269  5816  6521  0
6511  6268  6522  0
6268  6270  6523  0
6268  6523  6522  0
6270  6276  6523  0
6276  6277  6517  0
6037  6278  6524  0
6037  6524  6519  0
6278  6279  6524  0
5816  6283  6521  0
6525  6285  6284  0
6526  6527  6528  0
6282  6041  6529  0
6526  6530  6527  0
6041  6287  6529  0
5818  6531  5589  0
6288  6289  6532  0
6288  6532  6287  0
5589  6531  6533  0
5589  6533  6534  0
6290  6292  6535  0
6290  6535  6289  0
5589  6534  5835  0
6046  6294  6291  0
6291  6294  6295  0
6292  6297  6536  0
6292  6536  6535  0
6535  6536  6532  0
6535  6532  6289  0
5835  6534  6299  0
6293  6302  6294  0
6294  6302  6537  0
6538  6539  6540  0
6294  6537  6541  0
6294  6541  6295  0
6295  6308  6298  0
6295  6541  6308  0
6542  6538  6540  0
6540  6539  6542  0
6297  6303  6536  0
6543  6536  6303  0
6299  6544  6304  0
6305  6300  6304  0
6301  6305  6545  0
6301  6545  6302  0
6302  6545  6537  0
6537  6545  6546  0
6307  6308  6541  0
6304  6547  6305  0
6309  6059  6311  0
6548  6311  6059  0
6059  6306  6548  0
6306  6307  6548  0
6549  6548  6307  0
6550  6303  6312  0
6303  6550  6543  0
6071  6064  6551  0
6310  6311  6552  0
6553  6552  6311  0
6311  6548  6553  0
6549  6553  6548  0
6554  6555  6556  0
6557  6319  6558  0
6559  6550  6312  0
6560  6071  6551  0
6561  6315  6313  0
6315  6561  6556  0
6319  6557  6320  0
6562  6563  6564  0
6312  6316  6559  0
6323  6071  6560  0
6314  6565  6313  0
6313  6566  6561  0
6562  6564  6567  0
6070  6322  6321  0
6560  6568  6323  0
6323  6325  6324  0
6081  6569  6318  0
6318  6570  6314  0
6565  6314  6570  0
6076  6320  6077  0
6562  6567  6571  0
6567  6564  6572  0
6078  6321  6573  0
6321  6322  6574  0
6317  5866  6332  0
6323  6568  6575  0
6323  6575  6325  0
6325  6575  6576  0
6325  6576  6326  0
6326  6576  6080  0
6080  6576  6577  0
6080  6577  6081  0
6082  6578  6084  0
6082  6077  6578  0
6077  6320  6579  0
6580  6330  6581  0
6580  6582  6583  0
6580  6581  6582  0
6580  6328  6330  0
6580  6583  6584  0
6580  6584  6328  0
6328  6584  6327  0
6331  6078  6573  0
6330  6585  6581  0
6330  6329  6331  0
6330  6331  6585  0
6086  6084  6586  0
6087  6587  6332  0
6333  6085  6335  0
6086  6588  6334  0
6087  5654  6587  0
6335  6095  6589  0
6590  6095  6097  0
6334  6591  6336  0
6096  5880  6592  0
6593  6590  6097  0
6097  6098  6593  0
6594  6593  6098  0
6595  6594  6098  0
6098  6099  6595  0
6099  6340  6595  0
6336  6596  6337  0
6336  6591  6596  0
6596  6591  6597  0
6338  6598  6102  0
6102  6343  6106  0
6102  6598  6599  0
6102  6599  6343  0
6600  6340  6341  0
6341  6337  6601  0
6341  6601  6600  0
6337  6596  6601  0
6602  6601  6596  0
6596  6597  6602  0
5885  6343  6344  0
5881  6094  5669  0
6603  5669  6094  0
6348  5669  6603  0
6601  6602  6604  0
6107  6346  5666  0
6605  6349  6606  0
6349  6605  6350  0
6607  6352  6353  0
6356  6607  6353  0
6608  6355  6354  0
6609  6608  6354  0
6354  6110  6609  0
6610  6609  6110  0
6110  6346  6610  0
6611  6346  6107  0
6347  6611  6107  0
6347  6108  6362  0
6612  5899  6350  0
5899  6612  5892  0
5892  6612  5893  0
6613  5893  6612  0
5893  6613  6113  0
6113  6613  6360  0
6358  6359  6614  0
6355  6608  6359  0
6608  6609  6615  0
6609  6610  6616  0
6610  6346  6611  0
6362  6364  6617  0
6362  6617  6347  0
6365  6618  6370  0
6365  6117  6618  0
6361  6619  6115  0
6364  6620  6617  0
6364  6363  6621  0
6364  6621  6620  0
6622  6623  6369  0
6622  6369  6370  0
6374  6115  6619  0
6624  6625  6626  0
6624  6626  6388  0
6624  6627  6625  0
6628  6363  6376  0
6628  6376  6629  0
6628  6621  6363  0
6623  6622  6630  0
6623  6630  6631  0
6632  6385  6382  0
6632  6382  6633  0
6632  6633  6634  0
6385  6632  6624  0
6385  6624  6388  0
6388  6626  6386  0
6626  6635  6386  0
6626  6629  6636  0
6626  6636  6635  0
6626  6625  6628  0
6626  6628  6629  0
6629  6376  6378  0
6629  6378  6636  0
6631  6379  6623  0
6623  6379  6369  0
6381  6383  6128  0
6381  6637  6633  0
6381  6128  6637  0
6381  6633  6382  0
6386  6635  6389  0
6635  6636  6638  0
6635  6638  6389  0
6636  6639  6638  0
6636  6378  6391  0
6636  6391  6639  0
6379  6640  6392  0
6379  6631  6641  0
6379  6641  6640  0
6393  6642  6643  0
6393  6643  6394  0
6393  6396  6644  0
6393  6644  6642  0
6394  6643  6637  0
6394  6637  6128  0
6389  6638  6645  0
6389  6645  6397  0
6638  6639  6645  0
6639  6391  6646  0
6391  6390  6398  0
6391  6398  6646  0
6136  6640  6401  0
6640  6641  6647  0
6640  6647  6401  0
6640  6136  6392  0
6648  6644  6396  0
6403  6649  6650  0
6403  6404  6649  0
6651  6649  6404  0
6404  6405  6651  0
6406  6651  6405  0
6652  6399  6397  0
6397  6645  6652  0
6645  6639  6653  0
6654  6653  6639  0
6645  6653  6652  0
6639  6646  6654  0
6398  6654  6646  0
6400  6401  6655  0
6647  6655  6401  0
6400  6655  6656  0
6396  6137  6648  0
6657  6648  6137  0
6137  6402  6657  0
6658  6657  6402  0
6402  6403  6658  0
6650  6658  6403  0
6659  6406  6399  0
6660  6659  6399  0
6399  6652  6660  0
6653  6660  6652  0
6654  6398  6661  0
6662  6661  6398  0
6398  6400  6662  0
6663  6662  6400  0
6400  6656  6663  0
6146  6407  6664  0
6665  6407  6408  0
6146  6664  6147  0
6409  6147  6664  0
6666  6665  6408  0
6667  6411  6410  0
6408  6161  6666  0
6668  6666  6161  0
6161  6167  6668  0
6414  6163  6411  0
6414  6669  6415  0
6670  6412  6415  0
6412  6670  6413  0
6421  6413  6670  0
6413  6421  6416  0
6167  6419  6668  0
6411  6671  6414  0
6669  6414  6671  0
6672  6415  6669  0
6415  6672  6670  0
6670  6673  6421  0
6674  6421  6673  0
6420  6421  6674  0
6422  6675  6417  0
6417  6675  6423  0
6674  6676  6420  0
6420  6676  6422  0
6677  6422  6676  0
6422  6677  6675  0
6678  6675  6677  0
6675  6678  6423  0
6425  6423  6678  0
6678  6679  6425  0
6425  6679  6426  0
6680  6426  6679  0
6189  6426  6680  0
6424  6428  6681  0
6424  6681  6682  0
6680  6435  6189  0
6428  6430  6681  0
6185  6427  6196  0
6427  6188  6192  0
6427  6192  6196  0
6432  6683  6430  0
6435  6684  6434  0
6685  6434  6684  0
6686  6687  6688  0
6686  6688  6689  0
6432  6438  6683  0
6191  6196  6451  0
6434  6685  5959  0
6687  6686  6690  0
6686  6689  6691  0
6686  6691  6690  0
6441  6692  6439  0
6683  6438  6693  0
6191  6451  6694  0
6196  5760  6451  0
5959  6685  6443  0
6436  6447  6695  0
6436  6695  6441  0
6692  6696  6439  0
6439  6693  6438  0
6442  6191  6694  0
6450  6697  6444  0
6447  6698  6695  0
6695  6692  6441  0
6209  6694  6451  0
6201  6216  6450  0
6461  6450  6216  0
6450  6461  6697  0
6445  6699  6452  0
6447  6453  6698  0
6198  6442  6454  0
6454  6442  6694  0
6209  6454  6694  0
6199  6448  6700  0
6199  6700  6213  0
6214  6701  6456  0
6456  6701  6457  0
6457  6702  6458  0
6703  6461  6462  0
6461  6703  6704  0
6705  6704  6703  0
6452  6699  6455  0
6469  6698  6453  0
6706  6698  6469  0
6210  6454  6209  0
6213  6700  6214  0
6458  6702  6707  0
6458  6707  6459  0
6459  6707  6708  0
6459  6708  6460  0
6467  6703  6462  0
6703  6467  6705  0
6709  6705  6467  0
6455  6710  6224  0
6468  6224  6710  0
6455  6699  6711  0
6455  6711  6710  0
6469  6712  6706  0
6460  6708  6713  0
6460  6713  6226  0
6467  6472  6709  0
6468  6710  6714  0
6463  6464  6715  0
6464  6465  6715  0
6226  6713  6477  0
6716  6477  6713  0
6468  6714  6473  0
6469  6717  6712  0
6221  6454  6474  0
6483  6454  6210  0
6470  6225  6475  0
6470  6475  6718  0
6476  6477  6479  0
6719  6477  6716  0
6472  6471  6720  0
6236  6482  6469  0
6469  6482  6717  0
6474  6454  6721  0
6454  6483  6721  0
6479  6477  6719  0
6479  6719  6722  0
6480  6479  6722  0
6471  6235  6723  0
6471  6723  6720  0
6478  6484  6724  0
6725  6246  6480  0
6235  6486  6723  0
6242  6481  6726  0
6482  6242  6727  0
6474  6721  6487  0
6721  6483  6251  0
6721  6251  6487  0
6488  6005  6238  0
6488  6238  6728  0
6489  6488  6728  0
6484  6729  6724  0
6490  6246  6725  0
6486  6485  6730  0
6726  6731  6242  0
6727  6242  6731  0
6485  6493  6730  0
6251  6019  6487  0
6732  6496  6494  0
6489  6732  6494  0
6733  6501  6729  0
6734  6493  6495  0
6493  6734  6730  0
6009  6496  6498  0
6498  6496  6735  0
6732  6735  6496  0
6501  6736  6729  0
6501  6500  6736  0
6737  6736  6500  0
6492  6491  6738  0
6739  6495  6497  0
6495  6739  6734  0
6737  6500  6503  0
6737  6503  6740  0
6741  6740  6503  0
6492  6738  6504  0
6497  6259  6739  0
6508  6739  6259  0
6499  6742  6502  0
6261  6512  6503  0
6512  6741  6503  0
6504  6738  6743  0
6504  6743  6505  0
6506  6744  6026  0
6507  6026  6744  0
6745  6508  6509  0
6746  6509  6264  0
6020  6502  6510  0
6267  6747  6512  0
6267  6511  6747  0
6748  6747  6511  0
6264  6514  6746  0
6265  6510  6038  0
6502  6749  6510  0
6511  6522  6748  0
6750  6748  6522  0
6515  6516  6751  0
6515  6751  6517  0
6752  6518  6274  0
6274  6275  6752  0
6520  6752  6275  0
6513  6507  6753  0
6513  6753  6279  0
6038  6510  6754  0
6038  6754  6281  0
6523  6750  6522  0
6523  6276  6755  0
6517  6755  6276  0
6524  6279  6753  0
6284  6040  6756  0
6284  6756  6525  0
6040  6281  6757  0
6040  6757  6756  0
6282  6758  6283  0
6286  6285  6759  0
6527  6760  6528  0
6528  6761  6762  0
6528  6762  6526  0
6528  6763  6761  0
6764  6527  6530  0
6764  6530  6765  0
6764  6766  6527  0
6760  6527  6766  0
6526  6762  6530  0
6762  6761  6767  0
6286  6759  5818  0
6531  5818  6759  0
6530  6768  6765  0
6530  6762  6769  0
6530  6769  6768  0
6529  6287  6770  0
6765  6771  6772  0
6765  6772  6764  0
6765  6768  6771  0
6773  6771  6768  0
6287  6532  6774  0
6287  6774  6770  0
6771  6773  6772  0
6775  6776  6539  0
6775  6539  6538  0
6775  6777  6776  0
6778  6776  6777  0
6779  6776  6778  0
6532  6536  6780  0
6539  6776  6781  0
6776  6779  6781  0
6537  6546  6541  0
6538  6542  6775  0
6539  6781  6782  0
6539  6782  6542  0
6781  6783  6782  0
6781  6784  6783  0
6785  6783  6784  0
6536  6543  6780  0
6544  6786  6304  0
6545  6787  6546  0
6307  6541  6546  0
6783  6785  6788  0
6786  6547  6304  0
6547  6789  6305  0
6305  6789  6790  0
6305  6790  6545  0
6545  6790  6787  0
6546  6549  6307  0
6546  6787  6549  0
6791  6792  6542  0
6542  6782  6791  0
6793  6791  6782  0
6782  6783  6793  0
6788  6793  6783  0
6543  6550  6794  0
6310  6551  6064  0
6555  6554  6795  0
6796  6795  6554  0
6795  6796  6558  0
6557  6558  6796  0
6797  6798  6563  0
6563  6798  6799  0
6563  6799  6800  0
6800  6799  6801  0
6560  6551  6568  0
6551  6310  6802  0
6310  6552  6802  0
6553  6802  6552  0
6556  6561  6554  0
6554  6803  6796  0
6571  6804  6562  0
6562  6804  6797  0
6562  6797  6563  0
6563  6800  6564  0
6805  6564  6800  0
6800  6801  6805  0
6313  6565  6566  0
6566  6806  6561  0
6566  6565  6806  0
6561  6806  6554  0
6807  6320  6557  0
6557  6796  6807  0
6564  6805  6572  0
6808  6572  6805  0
6809  6808  6805  0
6805  6801  6810  0
6805  6810  6809  0
6809  6810  6811  0
6559  6316  6812  0
6318  6569  6570  0
6570  6813  6565  0
6565  6813  6814  0
6571  6567  6815  0
6572  6815  6567  0
6572  6808  6816  0
6817  6816  6808  0
6808  6809  6817  0
6582  6818  6583  0
6819  6583  6818  0
6583  6819  6584  0
6820  6584  6819  0
6820  6069  6327  0
6820  6327  6584  0
6820  6821  6069  0
6069  6821  6316  0
6812  6316  6821  0
6321  6574  6573  0
6322  6822  6574  0
6322  6317  6332  0
6322  6332  6822  0
6568  6823  6575  0
6081  6577  6824  0
6081  6824  6569  0
6569  6824  6825  0
6569  6825  6570  0
6570  6825  6826  0
