#!ascii file
7158  7171  7412  0
7158  7412  6869  0
6869  7412  7159  0
7165  7413  6617  0
7165  6617  6616  0
7413  7414  6890  0
7413  6890  6617  0
7414  7167  6891  0
7414  6891  6890  0
7414  7415  7167  0
7166  7411  7168  0
7169  7170  7416  0
7169  7416  7406  0
7406  7416  7162  0
7168  7411  7173  0
7417  7173  7411  0
6895  7173  7417  0
7170  7418  7416  0
7419  7416  7418  0
7170  7174  7418  0
7416  7419  7162  0
7420  7162  7419  0
7162  7420  7175  0
7421  7175  7420  0
7176  7172  7188  0
7172  7177  7188  0
7175  6905  6887  0
7175  7421  6905  0
7422  7182  6624  0
6624  6625  7422  0
6625  6901  7422  0
7423  7185  7183  0
7190  6905  7421  0
7424  7171  7179  0
6900  7180  6640  0
7425  6640  7180  0
6901  6637  7426  0
7427  6909  7185  0
7185  7423  7427  0
7428  7179  7192  0
7179  7428  7424  0
6640  7425  7194  0
6641  6909  7197  0
7429  7197  6909  0
6909  7427  7429  0
7186  6910  7198  0
7186  7198  7430  0
6907  7191  7431  0
6907  7431  6913  0
7428  7192  7195  0
6637  6912  7426  0
7432  7201  7197  0
6918  7197  7201  0
7432  7197  7433  0
7429  7433  7197  0
7434  7430  7198  0
6914  7199  7435  0
6914  7435  6915  0
7195  6915  7436  0
7195  7436  7428  0
6912  7200  7426  0
7432  7437  7201  0
7438  7434  7198  0
7198  6927  7438  0
7201  7437  7439  0
7201  7439  7440  0
6927  7204  7438  0
6932  6926  7205  0
7202  6934  7441  0
7442  7441  6934  0
7440  7439  7443  0
7440  7443  7208  0
7203  7209  7204  0
7444  7204  7209  0
7204  7444  7438  0
7445  7438  7444  0
6934  7206  7442  0
7208  7446  6675  0
7209  6939  7444  0
7444  6939  7447  0
7444  7447  7445  0
7448  7206  7213  0
6941  7213  7206  0
6675  7446  6937  0
7211  6937  7449  0
6939  6940  7450  0
7210  7451  6935  0
7452  7213  6945  0
7452  6945  7453  0
7452  7448  7213  0
7211  7454  6938  0
6938  7454  7214  0
6940  6943  7450  0
6685  7219  6943  0
7212  6935  7455  0
6935  7451  7455  0
7456  7455  7451  0
6945  7215  7457  0
6945  7457  7453  0
7216  7458  7223  0
7459  7223  7458  0
7216  6689  7460  0
7216  7460  7458  0
6689  6690  7461  0
6689  7461  7460  0
6690  6946  7462  0
6690  7462  7461  0
6946  7217  7462  0
7217  7463  7462  0
7464  7218  7214  0
7219  6691  7465  0
7221  7225  7220  0
7221  7212  7466  0
7221  7466  7225  0
7212  7455  7467  0
7212  7467  7466  0
7455  7456  7467  0
7215  7222  7468  0
7215  7468  7457  0
7222  7223  7459  0
7222  7459  7468  0
7463  7217  7469  0
7217  7224  7469  0
7224  7218  7464  0
7467  7470  7471  0
7467  7471  7466  0
7467  7456  7470  0
7470  7472  7471  0
7469  7224  7473  0
7224  7464  7474  0
7224  7474  7473  0
6691  6698  7475  0
6691  7475  7465  0
7225  7466  7476  0
7225  7476  7227  0
7466  7471  7477  0
7466  7477  7476  0
7472  7478  7471  0
7472  7479  7478  0
7480  7479  7472  0
6951  7226  7481  0
6951  7481  7482  0
6951  7482  6701  0
7227  7476  7483  0
7227  7483  7226  0
7476  7477  7484  0
7476  7484  7483  0
7471  7478  7485  0
7471  7485  7477  0
7478  7479  7485  0
7485  7484  7477  0
7485  7479  7486  0
7487  6958  6952  0
6954  7229  7228  0
7230  7488  7233  0
7233  7489  7234  0
7490  7234  7489  0
7233  7488  7491  0
7233  7491  7489  0
7489  7491  7490  0
6697  7235  6698  0
7238  7492  7229  0
7493  7238  7236  0
7231  7234  7242  0
7494  7242  7234  0
7234  7490  7494  0
7490  7495  7494  0
7240  7493  7236  0
7496  7241  7242  0
7242  7494  7496  0
7497  7496  7494  0
7494  7498  7497  0
6963  7499  7244  0
7241  7496  7247  0
7500  7247  7496  0
7496  7497  7500  0
7253  7500  7497  0
7497  7498  7501  0
7497  7501  7253  0
7502  7243  6962  0
7245  7246  7503  0
7250  7246  7247  0
7504  7503  7246  0
7247  7500  7250  0
7251  7250  7500  0
7500  7253  7251  0
7502  6962  7248  0
7244  7505  6965  0
6965  7505  7506  0
7246  7250  7504  0
7250  7252  7504  0
7507  7504  7252  0
7253  7508  7254  0
7248  7509  7502  0
6965  7506  7510  0
6965  7510  6969  0
7252  7255  7507  0
7511  7507  7255  0
7260  7256  7254  0
7254  7512  7260  0
7248  7257  7509  0
7513  7509  7257  0
7514  7255  7258  0
7255  7514  7511  0
7515  7511  7514  0
7260  7512  7516  0
6986  7273  7257  0
7257  7273  7513  0
6975  6969  7517  0
6975  7517  7261  0
7262  6982  7269  0
7258  7263  7514  0
7270  7514  7263  0
7514  7270  7515  0
7516  7265  7260  0
7266  7261  7518  0
7268  7267  7519  0
7268  7519  7520  0
7268  7520  7521  0
7268  7521  7269  0
7269  7276  7262  0
7269  7521  7276  0
7522  7276  7521  0
7270  7271  7523  0
7270  7523  7282  0
7270  7282  7524  0
7270  7524  7515  0
7271  7265  7523  0
7525  7523  7265  0
7272  7513  7273  0
7266  7518  7267  0
7275  7276  7522  0
7526  7275  7522  0
7281  7280  7524  0
7281  7524  7282  0
7282  7523  7527  0
7282  7527  7283  0
7523  7525  7527  0
7284  7528  7272  0
6999  7285  7529  0
7285  7274  7530  0
7285  7530  7529  0
7277  7526  7531  0
7532  7277  7531  0
7277  7275  7526  0
7287  7288  7279  0
7290  7533  7280  0
7283  7527  7295  0
7297  7001  7292  0
6999  7529  7292  0
7530  7274  7534  0
7530  7534  7529  0
7274  7277  7532  0
7274  7532  7534  0
7014  7535  7002  0
7002  7535  7286  0
7286  7536  7287  0
7286  7535  7536  0
7287  7299  7293  0
7287  7293  7288  0
7287  7536  7299  0
7537  7299  7536  0
7007  7294  7538  0
7295  7539  7304  0
7295  7304  7296  0
7295  7527  7539  0
7540  7539  7527  0
7539  7305  7304  0
7539  7540  7305  0
7306  7541  7025  0
7528  7025  7541  0
7025  7528  7284  0
7309  7013  7297  0
7014  7298  7542  0
7014  7542  7535  0
7300  7301  7543  0
7301  7544  7543  0
7301  7296  7545  0
7301  7545  7544  0
7296  7304  7546  0
7296  7546  7545  0
7304  7302  7546  0
7541  7306  7305  0
7026  7307  7547  0
7307  7027  7548  0
7027  7028  7549  0
7027  7549  7548  0
7028  7308  7549  0
7550  7308  7020  0
7312  7299  7537  0
7551  7312  7537  0
7552  7546  7302  0
7302  7037  7317  0
7302  7317  7552  0
7553  7552  7317  0
7554  7553  7317  0
7317  7313  7554  0
7313  7040  7554  0
7547  7554  7040  0
7040  7026  7547  0
7020  7030  7550  0
7555  7550  7030  0
7309  7556  7310  0
7021  7310  7314  0
7311  7557  7298  0
7558  7298  7557  0
7312  7551  7559  0
7312  7559  7316  0
7029  6765  7030  0
7030  6765  7555  0
7032  7314  7560  0
7032  7560  7315  0
6752  7315  7561  0
6752  7561  7311  0
7311  7561  7557  0
7562  7318  7316  0
7316  7559  7563  0
7316  7563  7562  0
6765  7043  7555  0
7045  7564  7044  0
7565  7047  7046  0
7046  7318  7565  0
7562  7565  7318  0
7562  7563  7566  0
7562  7566  7567  0
6770  7050  7043  0
7320  7044  7568  0
7569  7568  7044  0
7044  7564  7569  0
7319  7564  7045  0
7319  6769  7570  0
6769  7321  7570  0
7047  7565  7325  0
7567  7565  7562  0
7048  7320  7571  0
7048  7571  7323  0
7572  7573  7321  0
7321  7051  7572  0
7574  7572  7051  0
7051  7052  7574  0
7575  7574  7052  0
7325  7565  7326  0
7565  7567  7576  0
7565  7576  7577  0
7565  7577  7326  0
6777  7328  7578  0
6777  7578  6778  0
6778  7578  7579  0
6778  7579  6779  0
6784  7329  7580  0
7323  7330  6775  0
7052  7331  7575  0
7326  7577  7334  0
7327  7335  7581  0
7327  7581  7328  0
6784  7580  7059  0
7330  7338  6787  0
7335  7337  7582  0
7335  7582  7581  0
7330  7583  7338  0
7584  7060  7338  0
7060  7584  7339  0
7337  7340  7585  0
7337  7585  7582  0
7062  7341  7586  0
7062  7586  7340  0
6794  6795  7342  0
6795  6796  7587  0
6795  7587  7342  0
7339  7588  6788  0
6788  7588  7068  0
7068  7588  7069  0
7589  7069  7588  0
6796  7343  7587  0
7343  7344  7587  0
7344  7072  7590  0
7072  7349  7590  0
7591  7069  7589  0
7069  7591  7070  0
7592  7070  7591  0
7349  7348  7593  0
7075  7074  7594  0
7075  7594  7595  0
7075  7595  7354  0
7359  7354  7595  0
7074  7351  7594  0
7076  7596  7351  0
7076  7077  7597  0
7076  7597  7596  0
7077  7352  7597  0
7352  7598  7599  0
7352  7079  7353  0
7352  7353  7598  0
7070  7592  7080  0
7348  7358  7593  0
7353  7600  7598  0
7353  7355  7600  0
7355  7601  7600  0
7355  7356  7601  0
7356  7080  7602  0
7080  7592  7602  0
7593  7358  7603  0
7361  7360  7604  0
7093  7098  7362  0
7362  7098  7605  0
7606  7607  7608  0
7608  7609  7606  0
7609  7610  7606  0
7611  7606  7610  0
7610  7612  7611  0
7611  7612  7604  0
7613  7604  7612  0
7604  7613  7361  0
7097  7614  7605  0
7097  7605  7098  0
7364  7614  7097  0
7615  7616  7368  0
7616  7617  7368  0
7368  7104  7618  0
7369  7618  7104  0
7368  7618  7615  0
7607  7618  7369  0
7369  7371  7608  0
7619  7608  7371  0
7369  7608  7607  0
7608  7619  7609  0
7609  7619  7610  0
7620  7610  7619  0
7610  7620  7612  0
7613  7612  7620  0
7364  7365  7621  0
7622  7621  7365  0
7617  7367  7115  0
7115  7368  7617  0
7371  7370  7619  0
7619  7370  7620  0
7377  7620  7370  0
7372  7620  7377  0
7620  7372  7613  0
7613  7372  7361  0
7363  7622  7365  0
7623  7374  7373  0
7373  7366  7624  0
7367  7624  7366  0
7373  7624  7623  0
7370  7107  7377  0
7377  7376  7372  0
7622  7363  7625  0
7626  7625  7363  0
7363  7374  7626  0
7623  7626  7374  0
7627  7378  7628  0
7380  7628  7378  0
7627  7629  7378  0
7630  7627  7628  0
7378  7629  7379  0
7379  7381  7118  0
7628  7380  7630  0
7631  7630  7380  0
7380  7382  7631  0
7385  7382  7123  0
7122  7386  7124  0
7122  7384  7386  0
7385  7126  7632  0
7387  7388  6841  0
7387  7633  7388  0
7633  7634  7393  0
7633  7393  7388  0
7391  7635  7389  0
7392  7636  7390  0
7390  7636  7394  0
7132  7394  7637  0
7132  7637  7134  0
7391  7638  7635  0
7634  7639  7640  0
7634  7640  7393  0
7393  7640  7641  0
7393  7641  7392  0
7392  7641  7636  0
7637  7138  7134  0
7391  7395  7638  0
7636  7641  7642  0
7643  7644  7398  0
7643  7398  7397  0
7643  7645  7644  0
7400  7644  7645  0
7643  7397  7646  0
7643  7646  7645  0
7644  7400  7398  0
7138  7637  6861  0
7647  6861  7637  0
7397  7399  7648  0
7397  7648  7646  0
7400  7649  7150  0
7650  7150  7649  0
7395  7401  7651  0
7395  7651  7638  0
7399  7402  7652  0
7648  7399  7653  0
7399  7652  7654  0
7399  7654  7653  0
7150  7650  7151  0
7401  7655  7651  0
6861  7647  7155  0
7652  7402  7656  0
7652  7656  7408  0
7402  7403  7657  0
7402  7657  7656  0
7403  7151  7658  0
7403  7658  7657  0
7659  7657  7658  0
7409  7660  7408  0
7652  7408  7660  0
7408  7656  7410  0
7656  7657  7661  0
7656  7661  7410  0
7657  7659  7661  0
7662  7661  7659  0
7396  7404  7663  0
7396  7663  7401  0
7415  7409  7167  0
7415  7664  7409  0
7410  7661  7665  0
7410  7665  7411  0
7661  7662  7665  0
7159  7412  7404  0
7164  7666  7165  0
7413  7165  7666  0
7417  7411  7665  0
7665  7662  7417  0
7667  7417  7662  0
7412  7668  7404  0
7663  7404  7668  0
7417  7667  7669  0
7417  7669  6895  0
6895  7669  7670  0
7418  7671  7672  0
7418  7672  7419  0
7418  7174  7671  0
7419  7672  7673  0
7419  7673  7420  0
7420  7673  7421  0
7424  7668  7412  0
6895  7670  7183  0
7174  7178  7671  0
7674  7671  7178  0
7421  7675  7190  0
7190  7675  7676  0
7424  7412  7171  0
7677  7181  7182  0
7182  7422  7677  0
7183  7670  7678  0
7183  7678  7423  0
7178  7186  7674  0
7679  7674  7186  0
7180  7181  7425  0
7680  7425  7181  0
7181  7677  7680  0
7681  7677  7422  0
7422  6901  7681  0
7426  7681  6901  0
7430  7679  7186  0
7190  7676  7191  0
7682  7424  7428  0
7683  7679  7430  0
7682  7428  7436  0
7196  7194  7425  0
7196  7425  6920  0
7684  7681  7426  0
7427  7433  7429  0
7430  7434  7683  0
6913  7431  7685  0
6913  7685  7199  0
7199  7685  7435  0
6915  7435  7686  0
6915  7686  7436  0
7436  7687  7682  0
7436  7686  7687  0
7682  7687  7688  0
7425  7689  6920  0
6920  7689  6926  0
7426  7200  7441  0
7426  7441  7684  0
6926  7689  7690  0
7441  7200  7202  0
7437  7443  7439  0
7691  7443  7437  0
7205  6926  7690  0
7692  7443  7691  0
7438  7445  7434  0
7693  6933  7205  0
7446  7443  7692  0
7443  7446  7208  0
6933  7693  7210  0
7694  7210  7693  0
7442  7448  7695  0
7448  7452  7696  0
7448  7696  7695  0
7448  7442  7206  0
7446  7697  7449  0
7446  7449  6937  0
7210  7694  7451  0
7452  7453  7698  0
7452  7698  7696  0
7697  7699  7449  0
7700  7449  7699  0
7449  7700  7211  0
7701  7211  7700  0
7211  7701  7454  0
7702  7454  7701  0
7454  7702  7214  0
7450  6943  7219  0
7450  7219  7703  0
7451  7694  7456  0
7704  7456  7694  0
7453  7457  7705  0
7453  7705  7698  0
7706  7459  7458  0
7462  7463  7707  0
7214  7702  7464  0
7708  7464  7702  0
7456  7704  7470  0
7704  7709  7470  0
7710  7705  7711  0
7710  7712  7705  0
7698  7705  7712  0
7705  7457  7711  0
7457  7468  7713  0
7457  7713  7714  0
7457  7714  7711  0
7459  7706  7468  0
7463  7469  7715  0
7463  7715  7707  0
7464  7708  7474  0
7716  7219  7717  0
7219  7465  7717  0
7470  7709  7472  0
7472  7709  7480  0
7718  7480  7709  0
7480  7718  7710  0
7710  7711  7719  0
7710  7719  7480  0
7711  7720  7719  0
7711  7714  7720  0
7721  7720  7714  0
7469  7722  7715  0
7469  7473  7723  0
7473  7474  7724  0
7473  7724  7723  0
7474  7708  7725  0
7474  7725  7724  0
7726  7717  7465  0
7475  7726  7465  0
7226  7727  7481  0
7727  7482  7481  0
7727  7226  7728  0
7480  7719  7479  0
7719  7720  7729  0
7719  7729  7479  0
7469  7723  7722  0
7730  7722  7723  0
7723  7724  7730  0
7731  7730  7724  0
7724  7725  7731  0
7717  7726  7732  0
7226  7483  7728  0
7733  7728  7483  0
7483  7484  7733  0
7479  7729  7486  0
7722  7730  7734  0
7735  7734  7730  0
7730  7731  7735  0
7736  7737  7738  0
7738  7737  7739  0
7738  7740  7736  0
7736  7740  7741  0
7742  7726  7475  0
7475  6698  7742  0
6952  6701  7487  0
7482  7487  6701  0
7486  7484  7485  0
7743  7722  7744  0
7745  7744  7722  0
7746  7743  7744  0
7722  7734  7745  0
7747  7745  7734  0
7734  7735  7747  0
7735  7731  7748  0
7735  7748  7749  0
7750  7751  7752  0
7753  7752  7751  0
7750  7754  7755  0
7750  7755  7751  0
7751  7737  7753  0
7756  7753  7737  0
7751  7755  7739  0
7751  7739  7737  0
7737  7736  7756  0
7736  7757  7756  0
7758  7746  7744  0
7759  7745  7747  0
7747  7735  7759  0
7760  7759  7735  0
7735  7749  7760  0
7228  7229  7230  0
7488  7230  7229  0
7488  7761  7491  0
7491  7750  7490  0
7495  7490  7750  0
7491  7761  7754  0
7491  7754  7750  0
7750  7752  7495  0
7753  7756  7762  0
7753  7762  7763  0
7753  7763  7752  0
7764  7742  6698  0
6698  7235  7764  0
7487  7765  6958  0
6963  6958  7765  0
7765  7499  6963  0
7744  7745  7766  0
7767  7766  7745  0
7744  7766  7758  0
7745  7759  7767  0
7768  7767  7759  0
7759  7760  7768  0
7769  7768  7760  0
7760  7749  7770  0
7760  7770  7769  0
7771  7238  7493  0
7238  7771  7492  0
7492  7772  7229  0
7229  7772  7488  0
7488  7772  7761  0
7495  7752  7773  0
7763  7773  7752  0
7766  7767  7774  0
7775  7774  7767  0
7766  7774  7758  0
7767  7768  7775  0
7776  7775  7768  0
7768  7769  7776  0
7777  7769  7770  0
7493  7240  7778  0
7493  7778  7771  0
7494  7495  7498  0
7495  7773  7498  0
7243  7779  7235  0
7764  7235  7779  0
7499  7780  7244  0
7505  7244  7780  0
7774  7775  7781  0
7775  7776  7782  0
7776  7769  7783  0
7769  7777  7783  0
7240  7245  7784  0
7240  7784  7778  0
7245  7503  7784  0
7498  7785  7501  0
7786  7501  7785  0
7243  7502  7787  0
7243  7787  7779  0
7776  7783  7782  0
7503  7788  7784  0
7503  7504  7788  0
7501  7508  7253  0
7501  7786  7508  0
7789  7506  7505  0
7504  7790  7788  0
7504  7507  7791  0
7504  7791  7790  0
7791  7507  7792  0
7508  7512  7254  0
7509  7787  7502  0
7509  7793  7787  0
7506  7789  7510  0
7794  7510  7789  0
7507  7511  7792  0
7512  7508  7795  0
7509  7513  7796  0
7509  7796  7793  0
7510  7794  6969  0
7797  6969  7794  0
7512  7795  7516  0
6969  7797  7517  0
7798  7517  7797  0
7515  7799  7511  0
7795  7800  7516  0
7517  7801  7518  0
7517  7518  7261  0
7517  7798  7801  0
7520  7519  7522  0
7520  7522  7521  0
7515  7524  7802  0
7515  7802  7799  0
7265  7516  7525  0
7516  7800  7803  0
7804  7513  7272  0
7801  7805  7518  0
7518  7805  7806  0
7518  7806  7267  0
7267  7806  7519  0
7519  7531  7526  0
7519  7526  7522  0
7527  7525  7807  0
7525  7808  7807  0
7525  7516  7803  0
7525  7803  7808  0
7804  7528  7809  0
7528  7804  7272  0
7532  7531  7534  0
7519  7534  7531  0
7289  7810  7290  0
7811  7289  7007  0
7290  7810  7533  0
7280  7533  7812  0
7280  7812  7524  0
7540  7527  7807  0
7807  7808  7540  0
7813  7540  7808  0
7808  7814  7813  0
7541  7813  7814  0
7814  7809  7541  0
7528  7541  7809  0
7815  7816  7292  0
7292  7816  7297  0
7817  7815  7292  0
7292  7529  7817  0
7818  7817  7529  0
7529  7534  7818  0
7007  7538  7811  0
7540  7813  7305  0
7541  7305  7813  0
7297  7816  7819  0
7820  7535  7542  0
7535  7820  7536  0
7537  7536  7820  0
7821  7538  7294  0
7294  7300  7821  0
7543  7821  7300  0
7822  7545  7546  0
7552  7822  7546  0
7547  7307  7823  0
7548  7823  7307  0
7548  7549  7824  0
7550  7549  7308  0
7297  7819  7825  0
7297  7825  7309  0
7309  7826  7556  0
7298  7558  7542  0
7827  7542  7558  0
7542  7827  7820  0
7551  7820  7827  0
7820  7551  7537  0
7553  7822  7552  0
7553  7554  7828  0
7829  7828  7554  0
7554  7547  7829  0
7549  7550  7830  0
7558  7831  7827  0
7832  7831  7558  0
7827  7833  7551  0
7559  7551  7833  0
7827  7831  7834  0
7827  7834  7833  0
7556  7835  7310  0
7310  7835  7314  0
7315  7836  7561  0
7557  7837  7558  0
7832  7558  7837  0
7833  7834  7559  0
7838  7563  7559  0
7043  7839  7555  0
7836  7315  7560  0
7563  7838  7566  0
7840  7566  7838  0
7841  7320  7568  0
7319  7570  7842  0
7570  7321  7573  0
7567  7566  7843  0
7566  7840  7843  0
7322  7844  7050  0
7043  7050  7844  0
7320  7841  7845  0
7320  7845  7571  0
7575  7846  7574  0
7567  7843  7847  0
7567  7847  7576  0
7328  7848  7578  0
7329  6779  7579  0
7849  7323  7571  0
7575  7331  7846  0
7331  7850  7846  0
7331  7332  7850  0
7851  7581  7852  0
7851  7328  7581  0
7848  7328  7851  0
7323  7849  7330  0
7583  7330  7849  0
7332  7333  7850  0
7333  7336  7853  0
7333  7853  7850  0
7581  7582  7854  0
7855  7338  7583  0
7338  7855  7584  0
7582  7585  7856  0
7340  7586  7857  0
7340  7857  7585  0
7858  7342  7587  0
7584  7855  7859  0
7584  7859  7339  0
7339  7859  7588  0
7860  7588  7861  0
7589  7588  7860  0
7587  7344  7862  0
7590  7862  7344  0
7860  7863  7589  0
7589  7863  7591  0
7590  7349  7593  0
7594  7351  7864  0
7596  7597  7865  0
7866  7604  7359  0
7360  7359  7604  0
7866  7359  7867  0
7595  7867  7359  0
7599  7865  7597  0
7597  7352  7599  0
7868  7599  7598  0
7869  7868  7598  0
7598  7600  7869  0
7358  7357  7603  0
7603  7357  7870  0
7871  7872  7873  0
7873  7606  7871  0
7866  7611  7604  0
7874  7600  7601  0
7601  7356  7874  0
7356  7602  7874  0
7875  7874  7602  0
7592  7875  7602  0
7870  7362  7605  0
7362  7870  7357  0
7607  7873  7876  0
7606  7873  7607  0
7871  7606  7866  0
7611  7866  7606  0
7876  7616  7615  0
7615  7618  7876  0
7607  7876  7618  0
7877  7614  7621  0
7364  7621  7614  0
7878  7614  7877  0
7614  7878  7605  0
7617  7616  7879  0
7621  7622  7880  0
7621  7880  7877  0
7367  7617  7879  0
7367  7879  7881  0
7880  7622  7625  0
7624  7367  7881  0
7624  7881  7882  0
7624  7882  7623  0
7883  7623  7882  0
7625  7626  7884  0
7626  7623  7883  0
7626  7883  7884  0
7885  7886  7887  0
7885  7888  7889  0
7885  7889  7886  0
7888  7885  7890  0
7891  7887  7892  0
7888  7890  7893  0
7885  7887  7891  0
7885  7891  7890  0
7894  7627  7630  0
7894  7895  7627  0
7629  7627  7895  0
7629  7896  7379  0
7897  7379  7896  0
7379  7897  7381  0
7898  7381  7897  0
7630  7631  7899  0
7630  7899  7894  0
7900  7381  7898  0
7381  7900  7119  0
7631  7382  7901  0
7119  7900  7383  0
7901  7382  7385  0
7902  7383  7900  0
7383  7902  7384  0
7901  7385  7632  0
7903  7384  7902  0
7904  7384  7903  0
7384  7904  7386  0
7386  7904  7387  0
7632  7126  7389  0
7632  7389  7905  0
7906  7387  7904  0
7387  7906  7633  0
7907  7633  7906  0
7633  7907  7634  0
7907  7639  7634  0
7908  7639  7907  0
7642  7909  7636  0
7636  7909  7394  0
7394  7909  7637  0
7645  7646  7910  0
7645  7910  7400  0
7400  7910  7911  0
7400  7911  7649  0
7639  7912  7640  0
7640  7912  7641  0
7913  7641  7912  0
7641  7913  7642  0
7909  7642  7913  0
7909  7914  7637  0
7647  7637  7914  0
7915  7646  7653  0
7648  7653  7646  0
7916  7915  7653  0
7649  7917  7650  0
7918  7909  7913  0
7653  7654  7916  0
7660  7916  7654  0
7919  7658  7650  0
7151  7650  7658  0
7919  7650  7917  0
7155  7647  7920  0
7647  7914  7920  0
7652  7660  7654  0
7658  7919  7921  0
7658  7921  7659  0
7663  7655  7401  0
7922  7655  7663  0
7155  7920  7923  0
7155  7923  7407  0
7409  7664  7660  0
7659  7921  7662  0
7924  7922  7663  0
7407  7923  7666  0
7407  7666  7164  0
7662  7921  7925  0
7663  7926  7924  0
7666  7927  7413  0
7413  7927  7414  0
7662  7925  7667  0
7926  7663  7668  0
7928  7929  7930  0
7929  7928  7667  0
7929  7667  7931  0
7669  7667  7928  0
7925  7931  7667  0
7929  7932  7930  0
7930  7933  7928  0
7669  7928  7933  0
7671  7934  7672  0
7674  7934  7671  0
7935  7673  7672  0
7673  7935  7421  0
7675  7421  7935  0
7935  7936  7675  0
7668  7424  7926  0
7930  7937  7933  0
7938  7933  7937  0
7933  7938  7669  0
7669  7938  7670  0
7936  7676  7675  0
7937  7939  7940  0
7937  7940  7938  0
7938  7940  7678  0
7938  7678  7670  0
7941  7674  7679  0
7942  7676  7936  0
7424  7682  7943  0
7424  7943  7926  0
7939  7944  7940  0
7945  7940  7944  0
7946  7940  7945  0
7940  7946  7678  0
7947  7678  7946  0
7678  7947  7423  0
7941  7679  7948  0
7676  7942  7191  0
7943  7682  7949  0
7680  7677  7950  0
7677  7681  7951  0
7677  7951  7950  0
7423  7947  7427  0
7952  7948  7953  0
7952  7954  7948  0
7948  7679  7683  0
7948  7683  7953  0
7191  7942  7431  0
7955  7431  7942  0
7425  7680  7956  0
7951  7681  7684  0
7433  7957  7958  0
7433  7427  7957  0
7431  7955  7685  0
7959  7685  7955  0
7685  7959  7435  0
7949  7682  7688  0
7425  7956  7689  0
7432  7960  7961  0
7432  7961  7437  0
7432  7433  7958  0
7432  7958  7960  0
7953  7683  7962  0
7435  7959  7963  0
7435  7963  7686  0
7686  7963  7964  0
7686  7964  7687  0
7689  7956  7965  0
7689  7965  7690  0
7437  7961  7691  0
7683  7434  7962  0
7205  7690  7693  0
7690  7965  7966  0
7690  7966  7693  0
7967  7684  7441  0
7691  7968  7692  0
7967  7441  7695  0
7442  7695  7441  0
7969  7967  7695  0
7692  7970  7446  0
7434  7445  7962  0
7969  7695  7696  0
7970  7697  7446  0
7971  7445  7447  0
7704  7694  7972  0
7694  7693  7972  0
7973  7969  7696  0
7701  7974  7702  0
7702  7974  7975  0
7447  6939  7971  0
7976  7971  6939  0
6939  7450  7703  0
6939  7703  7976  0
7704  7972  7709  0
7972  7718  7709  0
7696  7698  7712  0
7696  7712  7973  0
7977  7706  7458  0
7458  7460  7977  0
7978  7977  7460  0
7460  7461  7978  0
7462  7978  7461  0
7702  7975  7708  0
7979  7976  7703  0
7703  7219  7979  0
7716  7979  7219  0
7710  7718  7712  0
7718  7973  7712  0
7713  7468  7980  0
7706  7980  7468  0
7713  7980  7714  0
7978  7462  7981  0
7982  7981  7462  0
7462  7707  7982  0
7715  7982  7707  0
7983  7708  7975  0
7722  7984  7715  0
7708  7983  7725  0
7979  7716  7985  0
7986  7985  7716  0
7979  7985  7987  0
7716  7717  7986  0
7732  7986  7717  0
7988  7482  7727  0
7989  7727  7728  0
7733  7990  7728  0
7728  7990  7989  0
7720  7721  7991  0
7720  7991  7729  0
7984  7722  7743  0
7748  7725  7983  0
7992  7748  7983  0
7993  7985  7994  0
7986  7994  7985  0
7993  7995  7985  0
7987  7985  7995  0
7732  7726  7996  0
7733  7484  7997  0
7733  7997  7990  0
7997  7484  7486  0
7997  7486  7991  0
7997  7991  7998  0
7991  7486  7729  0
7748  7731  7725  0
7999  7748  7992  0
7739  8000  7738  0
8001  7738  8000  0
7738  8001  7740  0
7740  8002  7741  0
7740  8001  8002  0
7993  8002  8001  0
8002  7994  8003  0
8002  8003  7741  0
8002  7993  7994  0
7994  7986  8003  0
7986  7732  8003  0
7732  7996  8003  0
7996  7726  8004  0
7726  7742  8004  0
7746  8005  7743  0
7999  8006  7749  0
7999  7749  7748  0
7999  7992  8006  0
8007  8006  7992  0
7754  8008  7755  0
8000  7755  8008  0
7755  8000  7739  0
7736  7741  8009  0
7736  8009  7757  0
7741  8003  8009  0
8003  7996  8010  0
8004  8011  7996  0
7487  8012  7765  0
7499  7765  8012  0
7761  8013  7754  0
7761  8014  8013  0
7756  7757  7762  0
7742  7764  8004  0
7758  8015  8016  0
8006  8017  7770  0
8006  7770  7749  0
8006  8007  8018  0
8006  8018  8017  0
7771  8019  7492  0
7492  8019  8020  0
7492  8020  7772  0
7772  8020  8014  0
7772  8014  7761  0
7773  7763  8021  0
7763  7762  8021  0
7499  8022  7780  0
8015  7758  7774  0
7770  8017  7777  0
7771  7778  8023  0
7498  7773  7785  0
7773  8021  7785  0
8021  8024  7785  0
8025  7764  7779  0
8015  7774  8016  0
7774  7781  8016  0
8026  8016  7781  0
7777  8017  8027  0
7777  8027  7783  0
8028  7778  7784  0
7785  8024  7786  0
7779  7787  8025  0
7505  8029  8030  0
7505  8030  7789  0
7781  7775  8026  0
8031  8026  7775  0
7775  7782  8031  0
7782  7783  8032  0
7783  8027  8033  0
7783  8033  8032  0
7788  8028  7784  0
7788  7790  8034  0
7791  8034  7790  0
8035  8025  7787  0
7789  8030  8036  0
7789  8036  7794  0
7782  8032  8031  0
8037  7791  7792  0
7508  7786  8038  0
7508  8038  7795  0
7787  7793  8035  0
8039  7794  8036  0
8040  7795  8038  0
7793  7796  8035  0
7792  7511  8037  0
7799  8037  7511  0
7795  8040  7800  0
8041  7800  8040  0
8042  7803  7800  0
7800  8041  8042  0
8043  8042  8041  0
8044  7809  8043  0
8044  7796  7804  0
7513  7804  7796  0
8044  8045  7796  0
7799  7802  8046  0
8042  8043  7814  0
7809  7814  8043  0
7809  8044  7804  0
8047  7805  7801  0
7534  7806  7805  0
7806  7534  7519  0
7524  7812  7802  0
7802  7812  8048  0
7803  8042  7808  0
7814  7808  8042  0
7805  7818  7534  0
7805  8047  7818  0
8049  7818  8047  0
7289  7811  8050  0
7289  8050  7810  0
7810  8051  7533  0
7533  8052  7812  0
7815  7817  8053  0
7817  7818  8049  0
7817  8049  8053  0
7538  7821  8054  0
7538  8054  7811  0
7821  7543  8055  0
7821  8055  8056  0
7821  8056  8054  0
7543  7544  8057  0
7543  8057  8055  0
7545  7822  8058  0
7545  8058  7544  0
7829  7547  7823  0
7829  7823  8059  0
7823  7548  8059  0
7824  7549  7830  0
7825  7826  7309  0
8060  7826  7825  0
7822  7553  7828  0
7822  7828  8058  0
7830  7550  8061  0
7556  7826  8062  0
7831  7832  7834  0
8061  7550  7555  0
8061  7555  8063  0
7314  8064  7560  0
7832  8065  7834  0
7834  8065  7838  0
7834  7838  7559  0
7555  7839  8063  0
7314  7835  8064  0
7561  8066  7557  0
7557  8066  8067  0
7557  8067  7837  0
7837  8067  7832  0
7832  8067  8068  0
7832  8068  8065  0
8065  8068  8069  0
8065  8069  7838  0
7838  8069  8070  0
7838  8070  7840  0
7839  7043  7844  0
7839  7844  8071  0
7564  7319  8072  0
7842  8072  7319  0
7844  7322  8073  0
7570  7573  8074  0
7573  7572  8074  0
8075  7578  7848  0
7329  7579  8076  0
7329  8076  8077  0
7329  8077  7580  0
7580  8077  7059  0
7059  8077  8078  0
7059  8078  6781  0
6781  8078  7322  0
7571  7845  7849  0
7574  7846  8079  0
7577  7576  8080  0
7847  8080  7576  0
7577  8080  8081  0
7577  8081  7334  0
7848  7851  7852  0
7848  8082  8075  0
7846  7850  8083  0
7336  7334  8084  0
8081  8084  7334  0
8085  7336  8084  0
7581  8086  7852  0
8082  7848  7852  0
7583  8087  7855  0
7850  7853  8083  0
8085  7853  7336  0
7854  8086  7581  0
7585  7857  8088  0
8089  8088  7857  0
8090  7341  7342  0
7342  7858  8090  0
7862  7858  7587  0
7590  7858  7862  0
7861  7588  7859  0
8086  7854  8091  0
8092  8091  7854  0
7854  7582  8092  0
8093  8092  7582  0
7582  7856  8093  0
8094  8093  7856  0
7856  7585  8094  0
8088  8094  7585  0
7590  7593  8095  0
7859  8096  7861  0
8097  7860  7861  0
7860  8097  7863  0
8098  7591  7863  0
8094  8088  8099  0
7593  8100  8095  0
8101  7866  7867  0
8102  7866  8101  0
7867  7595  7594  0
7867  7594  8103  0
7867  8103  8104  0
7594  7864  8103  0
7351  7596  7864  0
7591  8105  7592  0
7591  8098  8105  0
7593  7603  8100  0
8102  7872  7871  0
8102  8106  7872  0
8102  7871  7866  0
7865  7599  8107  0
7599  8108  8109  0
7599  8109  8107  0
7599  7868  8108  0
8105  7875  7592  0
7870  8110  7603  0
8100  7603  8110  0
7872  8111  7873  0
7868  8112  8108  0
7868  7869  8112  0
7600  7874  7869  0
7870  7605  8113  0
7876  7873  8111  0
7876  8111  8114  0
7869  7874  8115  0
7874  8116  8115  0
7605  7878  8117  0
7616  7876  8114  0
7877  8118  7878  0
7877  8119  8118  0
7877  7880  8120  0
7877  8120  8119  0
7879  8121  7881  0
7625  7884  7880  0
7880  7884  8120  0
7882  8122  7883  0
7884  7883  8123  0
7884  8123  8120  0
8122  8123  7883  0
8124  8125  8126  0
8127  8126  8125  0
8128  8127  8125  0
8129  8128  8125  0
8127  8128  8130  0
8131  8130  8128  0
8128  8129  8132  0
8128  8132  8131  0
8133  8132  8129  0
7886  7889  8134  0
7887  7886  7892  0
7888  8135  7889  0
7892  8136  7891  0
8135  7888  8137  0
7893  8137  7888  0
7893  7890  8138  0
8139  8138  7890  0
7890  7891  8139  0
7895  8140  7629  0
8141  7895  7894  0
7629  8140  7896  0
7896  8140  7897  0
7894  7899  8141  0
7898  8142  7900  0
7900  8142  8143  0
8144  8145  8146  0
8144  8147  8145  0
8145  8147  8148  0
7631  7901  8149  0
8150  8146  8145  0
8145  8151  8150  0
8145  8148  8151  0
8152  8151  8148  0
7901  7632  8149  0
8146  8150  8153  0
8150  8151  8154  0
8155  8154  8151  0
8150  8154  8153  0
8156  8153  8154  0
8151  8157  8155  0
8151  8152  8157  0
8158  8157  8152  0
7905  8159  7632  0
7904  7903  7906  0
8160  8156  8154  0
8161  8155  8157  0
8157  8158  8161  0
8162  8161  8158  0
8163  8159  7905  0
8154  8155  8160  0
8164  8160  8155  0
8155  8161  8164  0
8162  8164  8161  0
7905  7389  8165  0
7635  8165  7389  0
7646  8166  8167  0
8168  8167  8166  0
8167  8169  7646  0
7910  7646  8169  0
8167  8168  8169  0
8170  8169  8168  0
8169  8170  7910  0
8171  7910  8170  0
8172  8165  7635  0
7635  7638  8172  0
7908  8173  7639  0
8166  7646  7915  0
8166  7915  8174  0
7910  8171  7911  0
7638  8175  8172  0
8173  8176  7639  0
7639  8176  7912  0
7915  7916  8174  0
7911  7917  7649  0
7911  8171  7917  0
8177  7917  8171  0
7638  7651  8175  0
8176  8178  7912  0
8174  7916  8179  0
7917  8177  7919  0
7651  7655  8180  0
7651  8180  8175  0
8176  8181  8178  0
7912  8178  8182  0
7912  8182  7913  0
7913  8182  7918  0
7909  7918  7920  0
7909  7920  7914  0
7664  8183  7660  0
7916  7660  8183  0
7919  8177  7921  0
8184  7921  8177  0
7655  7922  8180  0
7920  8185  7923  0
7920  7918  8185  0
8186  8187  8188  0
8186  8188  8189  0
8185  8190  7923  0
7923  8190  8191  0
7923  8191  7666  0
7666  8191  8192  0
7666  8192  7927  0
7927  8192  8193  0
7927  8193  7414  0
7414  8193  7415  0
7921  8184  8194  0
7921  8194  7925  0
8188  8195  8189  0
8188  8187  8196  0
8188  8196  8195  0
8187  8197  8196  0
8198  7929  7931  0
7931  8199  8198  0
7931  7925  8194  0
7931  8194  8199  0
8195  8200  8201  0
8195  8201  8189  0
7924  7926  8202  0
8203  7932  7929  0
8203  7929  8198  0
8200  8195  7934  0
8195  8196  7672  0
8195  7672  7934  0
8196  8197  7935  0
8196  7935  7672  0
8197  7936  7935  0
7932  8204  7930  0
7932  8203  8205  0
8200  7934  7674  0
8200  7674  7941  0
8200  7941  8201  0
7936  8197  8206  0
8206  8207  7936  0
8206  8208  8207  0
8209  8202  7926  0
7932  8210  8204  0
7937  7930  8204  0
8211  8212  8213  0
8213  8214  8211  0
8215  8216  8214  0
8215  8201  7941  0
7926  7943  8209  0
8204  8217  7937  0
7939  7937  8217  0
8218  8212  8219  0
8211  8214  8216  0
7948  8215  7941  0
7936  8207  7942  0
8220  7942  8207  0
7944  7939  8221  0
8218  8219  8222  0
8218  8222  8223  0
8224  8223  8222  0
8225  8219  8212  0
8212  8211  8225  0
7954  8211  8216  0
8216  8215  7954  0
8215  7948  7954  0
7943  7949  8209  0
8226  7945  7944  0
7945  8226  7946  0
7946  7957  7947  0
7427  7947  7957  0
7946  8226  7957  0
8227  8222  8219  0
8219  8225  8227  0
8228  8227  8225  0
8225  8211  8228  0
8211  7954  8228  0
7952  8228  7954  0
7942  8220  7955  0
8229  7955  8220  0
8230  8209  7949  0
7950  7956  7680  0
7958  7957  8231  0
8226  8231  7957  0
8227  8232  8222  0
8224  8222  8232  0
8227  8228  8233  0
8234  8233  8228  0
8228  7952  8234  0
8235  8234  7952  0
7953  8235  7952  0
7955  8229  7959  0
8236  7959  8229  0
7688  7687  8237  0
7688  8237  7949  0
7949  8237  8230  0
7960  7958  8231  0
8232  8227  8238  0
8232  8238  8239  0
8232  8239  8240  0
8232  8240  8241  0
8227  8233  8238  0
8233  8234  8242  0
8234  8235  8242  0
8235  7953  8243  0
8244  7963  7959  0
7963  8244  7964  0
8245  7687  7964  0
7687  8245  8237  0
8246  8237  8245  0
7965  7956  8247  0
7956  7950  8247  0
7950  7951  7684  0
7950  7684  8247  0
7961  7968  7691  0
8239  8238  8248  0
8239  8248  8249  0
8239  8249  8240  0
8238  8233  8250  0
8242  8251  8252  0
8242  8252  8233  0
8243  8251  8235  0
7953  8253  8243  0
7953  7962  8253  0
7966  7965  8254  0
7965  8247  8254  0
8247  7967  8254  0
8247  7684  7967  0
7968  8255  7692  0
8248  8238  8256  0
8238  8250  8256  0
8250  8233  8252  0
8250  8252  8256  0
7693  7966  8257  0
7966  8254  8257  0
8254  7969  8258  0
8254  7967  7969  0
7692  8255  7970  0
8259  8260  8249  0
8259  8249  8248  0
8259  8261  8260  0
8248  8256  8262  0
7962  7445  7971  0
7962  7971  8263  0
7962  8263  8253  0
7693  8257  7972  0
8254  8258  8257  0
7970  8264  7697  0
7970  8265  8264  0
7697  8264  7699  0
8248  8262  8266  0
8248  8266  8259  0
8262  8267  8266  0
8257  8258  7718  0
8257  7718  7972  0
8258  7969  7973  0
8258  7973  7718  0
8264  8265  8268  0
8264  8268  7699  0
7699  8268  7700  0
7700  8268  8269  0
7700  8269  7701  0
8270  8261  8259  0
7971  7976  8263  0
8266  8270  8259  0
7987  8263  7976  0
7976  7979  7987  0
7714  7980  7721  0
7980  8271  8272  0
7980  8272  7721  0
7980  7706  8271  0
8273  8271  7706  0
7706  7977  8273  0
8274  8273  7977  0
7977  7978  8274  0
7981  8274  7978  0
7981  7982  8275  0
7983  7975  8276  0
7974  8276  7975  0
8277  7998  8278  0
7991  8278  7998  0
8278  7991  7721  0
8272  8278  7721  0
7982  7715  8279  0
7984  8279  7715  0
8276  8280  7983  0
7727  7989  7988  0
8281  7988  7989  0
7989  7990  8281  0
8282  8281  7990  0
7997  8283  7990  0
7990  8283  8282  0
8277  8282  8283  0
8283  7997  7998  0
8283  7998  8277  0
7743  8279  7984  0
7992  7983  8280  0
8284  7995  7993  0
7482  7988  8285  0
7482  8285  7487  0
8286  7487  8285  0
8279  8005  8287  0
8288  8287  8005  0
8279  7743  8005  0
8284  8000  8289  0
8000  8284  8001  0
8001  8284  7993  0
7487  8286  8012  0
7746  8288  8005  0
8280  8007  7992  0
8280  8290  8007  0
8291  8007  8290  0
7754  8013  8008  0
8289  8008  8292  0
8008  8289  8000  0
8009  8003  8293  0
8010  8293  8003  0
8288  7746  7758  0
8288  7758  8294  0
8288  8294  8295  0
8008  8013  8292  0
8013  8014  8296  0
8013  8296  8292  0
7757  8297  7762  0
7757  8009  8297  0
8009  8293  8297  0
8010  7996  8298  0
7996  8011  8298  0
7499  8012  8022  0
8012  8299  8022  0
8294  7758  8016  0
8291  8018  8007  0
8300  8020  8019  0
8020  8300  8014  0
8296  8014  8300  0
7762  8301  8021  0
7762  8297  8301  0
8011  8004  7764  0
8016  8302  8294  0
8291  8303  8018  0
8018  8304  8017  0
8018  8303  8305  0
8018  8305  8304  0
8306  8023  7778  0
8306  7778  8028  0
8306  8307  8023  0
8023  8308  7771  0
7771  8308  8019  0
8021  8301  8309  0
8021  8309  8024  0
8298  8011  8310  0
8011  7764  8025  0
8011  8025  8310  0
7780  8029  7505  0
7780  8022  8311  0
7780  8311  8029  0
8304  8312  8027  0
8304  8027  8017  0
8304  8305  8312  0
8024  8309  8313  0
8024  8313  7786  0
8310  8025  8314  0
8310  8314  8315  0
8310  8315  8298  0
8029  8316  8030  0
8031  8317  8026  0
8312  8318  8027  0
8027  8318  8033  0
8028  7788  8319  0
7788  8034  8320  0
7788  8320  8319  0
8034  8321  8320  0
8034  7791  8322  0
8034  8322  8321  0
7786  8313  8038  0
8314  8025  8035  0
8031  8032  8317  0
7791  8037  8322  0
8323  8322  8037  0
8322  8323  8324  0
8040  8038  8313  0
8313  8325  8040  0
8315  8314  8326  0
8035  8326  8314  0
8315  8326  8327  0
8040  8328  8041  0
8043  8041  8328  0
8327  8326  8328  0
8326  8035  8045  0
7796  8045  8035  0
7794  8039  7797  0
8037  7799  8323  0
8043  8326  8044  0
8045  8044  8326  0
8043  8328  8326  0
7797  8039  7798  0
7799  8046  8323  0
8329  8323  8046  0
8048  8046  7802  0
8330  7801  7798  0
7801  8330  8047  0
8331  8048  7812  0
8332  8049  8047  0
8051  7810  8050  0
8333  7533  8051  0
7533  8333  8052  0
8331  7812  8052  0
7815  8053  8334  0
7815  8334  8335  0
8336  8335  8334  0
8337  8049  8332  0
8334  8053  8336  0
8338  8336  8053  0
8053  8049  8338  0
8337  8338  8049  0
8339  8057  7544  0
7544  8058  8339  0
8340  8339  8058  0
8059  8341  7829  0
8342  8343  8059  0
8059  7548  8342  0
7548  7824  8342  0
8344  8342  7824  0
7824  7830  8345  0
7824  8345  8344  0
7819  8346  7825  0
8347  7825  8346  0
7825  8347  8060  0
8056  8055  8348  0
8055  8057  8349  0
8055  8349  8348  0
8058  7828  8350  0
8058  8350  8340  0
7828  8341  8350  0
7828  7829  8341  0
7830  8061  8345  0
8351  7826  8060  0
7826  8351  8062  0
8061  8063  8352  0
8061  8352  8345  0
8353  7556  8062  0
7556  8354  7835  0
7556  8353  8354  0
8063  7839  8071  0
8063  8071  8352  0
8355  7835  8354  0
7835  8355  8064  0
8064  8355  8356  0
8064  8356  7560  0
7560  8356  7836  0
8068  8357  8069  0
8358  8070  8069  0
7569  7564  8359  0
7564  8072  8359  0
7842  7570  8360  0
8356  8361  7836  0
7561  7836  8362  0
7561  8362  8066  0
8070  8358  8363  0
8070  8363  7840  0
8073  7322  8078  0
8073  8071  7844  0
7570  8074  8360  0
8074  7572  8364  0
7572  7574  8364  0
7843  7840  8363  0
7843  8363  8365  0
7843  8365  7847  0
7845  7841  8366  0
7845  8366  7849  0
8364  7574  8367  0
7574  8079  8367  0
7846  8083  8079  0
8080  7847  8365  0
7849  8366  8368  0
7849  8368  7583  0
8369  7852  8086  0
7852  8370  8082  0
7583  8368  8087  0
8083  7853  8371  0
8372  8371  7853  0
7853  8085  8372  0
8086  8091  8369  0
8373  7857  7586  0
7586  7341  8373  0
8374  8373  7341  0
7341  8090  8374  0
8375  8374  8090  0
8090  7858  8375  0
8376  8375  7858  0
7858  7590  8376  0
7855  8087  8377  0
7855  8377  7859  0
7859  8377  8096  0
8088  8089  8099  0
7590  8095  8376  0
8378  8376  8095  0
8091  8092  8379  0
8380  8092  8093  0
8093  8094  8380  0
8381  8380  8094  0
8094  8099  8381  0
8095  8100  8378  0
8110  8378  8100  0
8382  8383  8106  0
8106  8383  8384  0
8102  8101  8106  0
8106  8101  8382  0
8101  7867  8385  0
8104  8385  7867  0
7596  7865  8386  0
8097  8387  7863  0
7863  8387  8098  0
8388  8105  8098  0
7872  8384  8111  0
8384  7872  8106  0
8107  8386  7865  0
8109  8389  8107  0
8105  8388  7875  0
8390  7875  8388  0
7870  8113  8110  0
8384  8391  8111  0
8109  8108  8392  0
8112  8392  8108  0
7874  7875  8116  0
8390  8116  7875  0
7605  8117  8113  0
8113  8117  8393  0
8391  8114  8111  0
8394  8114  8391  0
8395  8109  8392  0
8396  8392  8112  0
8112  7869  8396  0
7869  8115  8396  0
8116  8390  8397  0
8117  7878  8118  0
8117  8118  8398  0
8394  7879  7616  0
8394  7616  8114  0
8392  8396  8395  0
8396  8399  8395  0
8396  8115  8399  0
8118  8119  8400  0
8118  8400  8398  0
7879  8401  8121  0
8119  8120  8402  0
8119  8402  8400  0
8403  7881  8121  0
8120  8123  8402  0
8402  8123  8122  0
8402  8122  8404  0
8402  8404  8400  0
8122  7882  8405  0
8122  8405  8404  0
7882  7881  8403  0
7882  8403  8405  0
8124  8406  8125  0
8124  8407  8408  0
8124  8408  8406  0
8124  8126  8407  0
8406  8409  8125  0
8409  8406  8410  0
8126  8127  8411  0
8125  8409  8129  0
8409  8412  8129  0
8409  8410  8412  0
8127  8413  8411  0
8127  8130  8414  0
8127  8414  8413  0
8129  8412  8133  0
8130  8415  8414  0
8130  8416  8417  0
8130  8417  8415  0
8130  8131  8416  0
8418  8419  8135  0
8418  8135  8420  0
8418  8421  8422  0
8418  8422  8419  0
8419  8134  7889  0
8419  7889  8135  0
8419  8422  8423  0
8419  8423  8134  0
8134  8423  7886  0
7886  8423  8424  0
7886  8424  7892  0
7892  8424  8136  0
8416  8425  8417  0
8416  8131  8425  0
8131  8132  8426  0
8132  8133  8426  0
8427  8420  8428  0
8427  8429  8430  0
8427  8430  8420  0
8427  8428  8431  0
8427  8431  8429  0
8420  8432  8428  0
8420  8430  8418  0
8420  8135  8137  0
8420  8137  8432  0
8136  8433  7891  0
8428  8432  8434  0
8137  7893  8435  0
8137  8435  8432  0
7893  8138  8435  0
8138  8139  8436  0
8138  8436  8435  0
8139  7891  8433  0
8139  8433  8436  0
7895  8141  8437  0
7895  8437  8140  0
8140  8437  7897  0
8141  8438  8437  0
8141  7899  8439  0
8141  8439  8438  0
8437  8440  7897  0
7897  8142  7898  0
7897  8440  8441  0
7897  8441  8142  0
7899  7631  8442  0
7899  8442  8439  0
8142  8441  8143  0
8147  8443  8148  0
7631  8149  8442  0
7902  7900  8143  0
8144  8146  8444  0
8445  8444  8146  0
8148  8443  8446  0
8148  8446  8152  0
8149  7632  8447  0
8159  8447  7632  0
8146  8153  8448  0
8146  8448  8445  0
8449  8152  8446  0
8152  8449  8158  0
8450  8447  8159  0
8156  8448  8153  0
8158  8449  8162  0
8451  8162  8449  0
8452  8450  8159  0
8159  8163  8452  0
7903  8453  7906  0
8156  8160  8454  0
8455  8160  8164  0
8164  8162  8455  0
8456  8455  8162  0
8162  8451  8456  0
8457  8456  8451  0
8458  8459  8460  0
8459  8461  8460  0
8460  8462  8458  0
8463  8458  8462  0
8460  8461  8462  0
8464  8462  8461  0
8465  8462  8464  0
8462  8465  8463  0
8466  8463  8465  0
8165  8163  7905  0
7908  7907  7906  0
8454  8160  8467  0
8166  8467  8160  0
8160  8455  8166  0
8168  8166  8455  0
8455  8456  8168  0
8170  8168  8456  0
8456  8457  8170  0
8459  8458  8468  0
8458  8463  8469  0
8458  8469  8468  0
8470  8468  8469  0
8463  8466  8469  0
8471  8469  8466  0
7906  8472  7908  0
8174  8467  8166  0
8170  8457  8171  0
8473  8171  8457  0
8474  8470  8469  0
8471  8474  8469  0
8475  8165  8172  0
8179  8467  8174  0
8475  8172  8175  0
8176  8173  7908  0
8171  8473  8177  0
8476  8177  8473  0
7916  8183  8179  0
8477  8478  8479  0
8479  8480  8477  0
8479  8481  8480  0
8482  8480  8481  0
8480  8482  8483  0
8176  8484  8181  0
8177  8476  8184  0
8485  8184  8476  0
8478  8486  8479  0
8477  8480  8186  0
8480  8483  8187  0
8480  8187  8186  0
8483  8482  8487  0
8178  8488  8182  0
8178  8181  8489  0
8178  8489  8488  0
8182  8490  7918  0
7918  8490  8185  0
8193  7664  7415  0
8193  8491  7664  0
8184  8485  8199  0
8486  8478  8492  0
8486  8492  8493  0
8478  8477  8189  0
8478  8189  8492  0
8477  8186  8189  0
8483  8487  8494  0
8483  8494  8187  0
8487  8495  8494  0
7922  8496  8180  0
8488  8497  8182  0
8182  8497  8498  0
8182  8498  8490  0
8490  8498  8499  0
8490  8499  8185  0
8185  8499  8190  0
8500  8198  8199  0
8500  8199  8501  0
8199  8194  8184  0
8502  8492  8503  0
8502  8504  8493  0
8502  8493  8492  0
8187  8494  8197  0
8494  8505  8506  0
8494  8495  8505  0
7922  7924  8496  0
8198  8500  8507  0
8508  8502  8213  0
8508  8509  8504  0
8508  8504  8502  0
8508  8510  8509  0
8502  8503  8213  0
8503  8492  8511  0
8492  8189  8201  0
8492  8201  8511  0
8494  8506  8197  0
8505  8512  8506  0
8505  8513  8514  0
8505  8514  8512  0
8515  8205  8203  0
8515  8203  8198  0
8516  8510  8508  0
8197  8506  8206  0
8506  8208  8206  0
8506  8512  8208  0
8512  8517  8208  0
8512  8514  8517  0
8202  8496  7924  0
7932  8205  8210  0
8205  8515  8518  0
8516  8508  8212  0
8516  8212  8218  0
8519  8516  8218  0
8508  8213  8212  0
8213  8503  8214  0
8503  8511  8214  0
8215  8214  8511  0
8511  8201  8215  0
8520  8521  8522  0
8523  8208  8517  0
8524  8523  8517  0
8525  8524  8517  0
8526  8202  8209  0
8527  8210  8205  0
8522  8528  8520  0
8208  8523  8207  0
8529  8523  8524  0
8530  8524  8525  0
8524  8530  8529  0
8210  8527  8204  0
8531  8204  8527  0
8218  8223  8519  0
8532  8519  8223  0
8522  8533  8528  0
8534  8528  8533  0
8207  8523  8220  0
8535  8529  8530  0
8209  8536  8526  0
8537  8526  8536  0
8204  8531  8217  0
8221  8217  8531  0
8217  8221  7939  0
8221  8538  7944  0
8539  8223  8224  0
8540  8520  8528  0
8520  8540  8541  0
8542  8541  8540  0
8229  8220  8523  0
8523  8529  8229  0
8236  8229  8529  0
8529  8535  8236  0
8543  7944  8538  0
8231  7944  8543  0
7944  8231  8226  0
8544  8539  8224  0
8528  8534  8545  0
8528  8545  8540  0
8546  8542  8540  0
8547  8548  8542  0
8209  8230  8536  0
8549  8536  8230  0
8232  8241  8224  0
8544  8224  8241  0
8236  8550  7959  0
8244  7959  8550  0
8551  8244  8550  0
7960  8231  8552  0
7960  8552  8553  0
7960  8553  7961  0
8241  8240  8554  0
8545  8555  8556  0
8545  8556  8540  0
8546  8540  8557  0
8546  8557  8542  0
8244  8551  7964  0
7964  8551  8558  0
7964  8558  8245  0
8245  8558  8559  0
8245  8559  8246  0
8237  8246  8230  0
8553  8560  7968  0
8553  7968  7961  0
8240  8249  8260  0
8240  8260  8554  0
8242  8235  8251  0
8556  8561  8540  0
8540  8561  8557  0
8557  8562  8542  0
8560  8255  7968  0
8561  8556  8563  0
8255  8564  7970  0
8255  8560  8564  0
8256  8252  8565  0
8256  8565  8262  0
8252  8251  8566  0
8252  8566  8565  0
8251  8567  8566  0
8251  8243  8567  0
8243  8253  8567  0
7970  8564  8265  0
8565  8566  8568  0
8567  8253  8569  0
8253  8263  8569  0
8265  8570  8268  0
8269  8571  7974  0
8269  7974  7701  0
8262  8565  8572  0
8262  8572  8267  0
8565  8568  8572  0
8569  8263  8573  0
8276  7974  8571  0
8574  8261  8270  0
8270  8266  8575  0
8572  8266  8267  0
8576  8572  8568  0
8577  8576  8568  0
8578  8569  8573  0
8263  7987  8573  0
8579  8272  8271  0
8274  7981  8275  0
8571  8580  8276  0
8280  8276  8580  0
8581  8270  8575  0
8582  8575  8266  0
8266  8572  8582  0
8583  8582  8572  0
8584  8576  8577  0
7995  8578  8573  0
8573  7987  7995  0
8585  8586  8277  0
8277  8278  8585  0
8278  8272  8585  0
8579  8585  8272  0
8275  7982  8587  0
8279  8587  7982  0
8588  8582  8583  0
8589  8583  8572  0
8572  8576  8589  0
8576  8584  8589  0
8578  7995  8590  0
8591  8285  7988  0
7988  8281  8591  0
8592  8591  8281  0
8281  8282  8592  0
8586  8592  8282  0
8282  8277  8586  0
8587  8279  8287  0
8280  8580  8593  0
8593  8580  8594  0
8583  8589  8588  0
8589  8584  8595  0
8596  8595  8584  0
8597  8596  8584  0
8596  8598  8289  0
8284  8289  8598  0
8596  8597  8598  0
8590  8598  8597  0
8598  8590  8284  0
8590  7995  8284  0
8285  8591  8286  0
8599  8286  8591  0
8593  8290  8280  0
8593  8594  8290  0
8600  8290  8594  0
8589  8595  8601  0
8595  8596  8292  0
8289  8292  8596  0
8286  8602  8012  0
8287  8288  8295  0
8287  8295  8603  0
8291  8290  8600  0
8595  8292  8601  0
8012  8602  8299  0
8295  8294  8604  0
8295  8604  8603  0
8600  8605  8291  0
8296  8606  8292  0
8601  8292  8606  0
8605  8303  8291  0
8019  8607  8608  0
8019  8608  8300  0
8300  8608  8609  0
8300  8609  8296  0
8301  8297  8610  0
8301  8610  8309  0
8297  8293  8611  0
8297  8611  8610  0
8293  8010  8611  0
8010  8298  8611  0
8022  8299  8311  0
8303  8612  8305  0
8303  8605  8613  0
8303  8613  8612  0
8307  8614  8023  0
8307  8306  8615  0
8023  8614  8308  0
8309  8610  8616  0
8611  8617  8610  0
8611  8298  8617  0
8311  8618  8316  0
8311  8316  8029  0
8618  8311  8619  0
8302  8016  8026  0
8305  8612  8620  0
8305  8620  8312  0
8306  8028  8615  0
8309  8616  8313  0
8610  8617  8616  0
8617  8298  8315  0
8316  8618  8621  0
8316  8621  8030  0
8618  8622  8621  0
8302  8026  8623  0
8026  8317  8623  0
8312  8620  8318  0
8318  8624  8033  0
8028  8319  8615  0
8319  8320  8625  0
8319  8625  8626  0
8320  8321  8627  0
8320  8627  8625  0
8321  8322  8628  0
8321  8628  8629  0
