#!ascii file
30025  30020  30245  0
30025  30245  30248  0
30025  30248  30249  0
30025  30249  30026  0
30021  30246  30250  0
30027  30251  30247  0
30027  30247  30024  0
30027  30028  30252  0
30027  30252  30251  0
30030  30026  30249  0
30030  30249  30253  0
30030  30253  30254  0
30255  30021  30256  0
30255  30256  30257  0
30021  30250  30258  0
30021  30258  30256  0
30031  30259  30252  0
30031  30252  30028  0
30031  30032  30260  0
30031  30260  30259  0
30030  30254  30261  0
30030  30261  30033  0
30257  30256  30258  0
30034  30262  30260  0
30034  30260  30032  0
30034  30035  30263  0
30034  30263  30262  0
30264  30265  30266  0
30264  30266  30033  0
30264  30033  30261  0
30264  30261  30267  0
30264  30267  30268  0
30264  30268  30265  0
30257  30258  30269  0
30040  30041  30270  0
30040  30271  30042  0
30040  30270  30271  0
30042  30271  30263  0
30042  30263  30035  0
30265  30052  30053  0
30265  30053  30266  0
30265  30268  30272  0
30265  30272  30052  0
30036  30043  29824  0
30044  30273  30038  0
30044  30274  30273  0
30038  30275  30045  0
30038  30045  30037  0
30038  30273  30275  0
29818  30046  30047  0
30047  30046  30055  0
30047  30055  30054  0
30047  30054  30041  0
30041  30054  30056  0
30041  30056  30270  0
30270  30056  30057  0
30270  30057  30276  0
30270  30276  30277  0
30270  30277  30271  0
30049  30048  30278  0
30049  30278  30279  0
30049  30279  30280  0
30049  30280  30050  0
30048  30051  30281  0
30048  30281  30278  0
30051  30052  30272  0
30051  30272  30281  0
30053  29829  30058  0
30043  30282  30274  0
30043  30274  30044  0
30275  30060  29836  0
30275  29836  30045  0
30275  30273  30283  0
30275  30283  30060  0
30046  29837  30055  0
30057  30050  30280  0
30057  30280  30276  0
30060  30283  30061  0
30284  30061  30283  0
30059  29835  30285  0
30059  30285  30286  0
30061  30284  29839  0
30062  29839  30284  0
30285  29835  30287  0
30285  30287  30286  0
29835  30062  30287  0
29843  29841  30064  0
29841  30063  30288  0
30289  29844  30064  0
29844  30289  29846  0
30066  29848  30290  0
30066  30290  30063  0
29846  30289  30067  0
29848  29849  30291  0
29848  30291  30290  0
30292  30068  30067  0
30071  30293  30072  0
30071  30069  30294  0
30071  30294  30293  0
30295  30072  30293  0
30072  30295  30073  0
30296  30073  30295  0
29849  29850  30076  0
29849  30076  30297  0
29849  30297  30291  0
30068  30292  29854  0
30068  29854  29666  0
30298  29854  30292  0
30294  30069  30299  0
30069  30070  30299  0
30073  30296  30300  0
30073  30300  30074  0
29851  29853  30301  0
29851  30301  30070  0
30070  30301  30299  0
30074  30300  30302  0
30074  30302  30077  0
29854  30298  30078  0
30303  30078  30298  0
29853  30082  30301  0
30301  30082  30304  0
30077  30302  30079  0
29855  30081  30080  0
30080  30081  30305  0
30080  30305  29858  0
30306  29678  29858  0
29678  30306  29862  0
30307  29862  30306  0
30075  29852  30308  0
30309  30075  30308  0
30082  30086  30304  0
30310  30304  30086  0
30311  30083  30079  0
30079  30312  30311  0
30081  30085  30305  0
30313  30305  30085  0
29862  30314  29863  0
29862  30307  30314  0
29864  30308  29852  0
30315  30309  30308  0
30078  30316  29867  0
30095  29867  30316  0
30086  30087  30310  0
30085  30088  30313  0
30317  30313  30088  0
30308  29864  30315  0
30092  30315  29864  0
30087  30089  30310  0
30318  30310  30089  0
30311  30319  30083  0
30088  30091  30317  0
30092  30320  30315  0
30083  30321  29873  0
30083  30319  30321  0
30322  30321  30319  0
30320  30092  30323  0
30089  30098  30318  0
30324  30318  30098  0
30103  30321  30322  0
30325  29875  30326  0
30323  30092  30101  0
30323  30101  30327  0
30102  30327  30101  0
29873  30321  29880  0
30103  29880  30321  0
29876  29875  30325  0
30328  29876  30325  0
29876  30328  30105  0
30329  30097  30096  0
30098  30097  30329  0
30103  30330  29695  0
30331  29695  30330  0
30330  30332  30331  0
30105  30333  30108  0
30102  30106  30334  0
30335  30106  30109  0
30329  30336  30098  0
29695  30331  29887  0
30108  30337  29882  0
30338  29882  30337  0
29887  30331  30339  0
30340  30339  30331  0
30341  29887  30339  0
29885  30112  30107  0
29882  30338  30110  0
30342  30110  30338  0
30109  30111  30335  0
29887  30341  29888  0
30343  30112  29889  0
30344  30113  30110  0
30110  30342  30344  0
29888  30341  29893  0
29889  29894  30343  0
30345  30343  29894  0
30113  30344  30114  0
30346  30111  29891  0
29893  30341  30117  0
30345  29894  30115  0
29701  30114  30347  0
30348  30346  29891  0
29895  29892  29481  0
29895  29698  30349  0
29703  30349  29698  0
29701  30347  30118  0
29891  29892  30348  0
30350  30348  29892  0
29892  29895  30350  0
30351  30349  29703  0
29703  30116  30351  0
29700  30121  29896  0
29896  30121  30352  0
30353  29899  30119  0
29899  30353  29897  0
29900  29897  30353  0
30120  30351  30116  0
29704  30118  30122  0
29900  29905  29901  0
29900  30353  30354  0
29900  30354  29905  0
30120  29902  30355  0
30125  30356  30123  0
29905  30354  30357  0
29905  30357  29908  0
29902  29910  30355  0
29495  29903  29911  0
30358  29911  29903  0
29903  30122  30358  0
29912  29914  30124  0
30124  30356  30125  0
29909  29908  30357  0
29909  30357  30359  0
29909  30359  30360  0
29909  30360  30126  0
29910  30361  30355  0
29911  30358  30362  0
29911  30362  29710  0
30361  29910  29714  0
29709  30126  30363  0
29709  30363  29913  0
29714  29507  30364  0
29714  30364  30361  0
30127  30365  29914  0
29913  30363  30366  0
29507  30367  30364  0
29715  30130  30127  0
29915  29913  30366  0
29915  30366  29917  0
29507  30131  30367  0
30128  30368  30369  0
29918  30134  30135  0
30131  29718  30370  0
30128  30369  30129  0
30134  30371  30135  0
30134  29920  30372  0
30134  30372  30371  0
30135  30373  30137  0
30135  30374  30373  0
29718  29922  30370  0
30136  30372  29920  0
30136  29923  30375  0
30136  30375  30372  0
30373  30374  30376  0
30373  30376  30137  0
29923  30377  30375  0
29923  29726  30377  0
30138  30137  30376  0
30138  30376  30378  0
30138  30378  30379  0
30138  30379  30139  0
29922  29930  30380  0
29925  29933  30381  0
29925  30381  30382  0
29925  30382  30377  0
29925  30377  29726  0
30141  30383  30142  0
30142  30383  30384  0
30142  30384  29928  0
29928  30384  30143  0
29929  30385  30386  0
29929  30386  29930  0
29929  30143  30385  0
29932  29931  30387  0
29733  29932  29933  0
29926  30388  30144  0
29926  30140  30388  0
30140  30139  30389  0
30140  30389  30388  0
29935  30390  29934  0
29935  30145  30390  0
29934  30390  30391  0
29934  30391  29936  0
29936  30391  30141  0
30141  30391  30383  0
29932  30387  29933  0
30392  29933  30387  0
30145  30147  30390  0
29938  30149  30393  0
29938  30393  30147  0
30150  30394  30149  0
29941  29089  29942  0
30150  29940  30394  0
29940  30151  30394  0
30153  29738  30154  0
30151  29948  30395  0
29943  30152  30396  0
30154  30397  30153  0
30154  29944  30398  0
29944  29945  30155  0
29944  30155  30399  0
29944  30399  30398  0
29545  30400  29947  0
30401  29948  29947  0
30399  30155  30398  0
30402  30398  30155  0
30160  30402  30155  0
30401  29947  30400  0
30403  30402  30160  0
30163  30403  30160  0
30404  30156  30158  0
30156  30404  30161  0
30165  30161  30404  0
30405  29545  29553  0
30406  30403  30163  0
30404  30407  30165  0
30168  30165  30407  0
30163  30166  30406  0
30408  30406  30166  0
30404  30409  30407  0
30410  30407  30409  0
30407  30410  30411  0
30407  30411  30168  0
29961  30168  30411  0
29754  30168  29961  0
29553  30177  30405  0
30412  29963  29957  0
30166  30169  30408  0
30413  30408  30169  0
29961  30411  30184  0
29963  30412  30178  0
30414  29964  30178  0
30169  30172  30415  0
30169  30415  30413  0
30416  30413  30415  0
30183  30184  30410  0
30188  29964  30414  0
30415  30172  30416  0
30186  30416  30172  0
30417  30416  30186  0
30192  30187  30418  0
30419  30192  30418  0
29967  30420  29966  0
30186  30190  30421  0
30193  30421  30190  0
30186  30421  30417  0
30422  30417  30421  0
30191  30192  30195  0
30423  30195  30192  0
30192  30419  30423  0
29962  30194  30177  0
30424  29966  30420  0
29966  30424  29968  0
30425  29968  30424  0
30421  30193  30426  0
30427  30426  30193  0
30421  30426  30422  0
30428  30422  30426  0
30193  30195  30427  0
30195  30423  30429  0
30195  30429  30427  0
30430  30427  30429  0
29968  30425  29974  0
30431  29974  30425  0
30426  30427  30428  0
30430  30428  30427  0
29965  30197  30194  0
30198  30197  29972  0
29974  30431  29975  0
30432  29975  30431  0
29975  30432  29977  0
30433  29977  30432  0
30200  29977  30433  0
29977  30200  29978  0
29979  30202  30434  0
29981  29982  30203  0
30435  30434  30202  0
30434  30435  30436  0
29766  30203  29983  0
29983  30203  29985  0
30437  29985  30203  0
30202  30204  30435  0
30438  30435  30204  0
30435  30438  30439  0
30435  30439  30436  0
30440  30436  30439  0
30441  30440  30439  0
29985  30437  30207  0
30204  30205  30438  0
30442  30438  30205  0
30438  30442  30439  0
30205  30206  30442  0
30442  30441  30439  0
30443  30444  30445  0
30207  30446  30208  0
30206  30209  30447  0
30206  30447  30442  0
30215  29770  30208  0
30209  30210  30448  0
30449  30448  30210  0
30210  30211  30449  0
30450  30449  30211  0
30215  30451  30213  0
30221  30213  30451  0
30223  30221  30451  0
30451  30452  30453  0
30451  30453  30223  0
30450  30211  30224  0
30216  30224  30211  0
30450  30224  30454  0
30450  30454  30455  0
30226  30217  30456  0
30457  30217  29993  0
29993  30218  30457  0
30218  30219  30227  0
30218  30227  30458  0
30218  30458  30457  0
30459  30457  30458  0
30458  30227  30459  0
30223  30460  30229  0
30223  30229  30222  0
30223  30453  30460  0
30460  30461  30229  0
30460  30453  30462  0
30224  30225  30463  0
30224  30463  30454  0
30232  30231  30226  0
30232  30464  30236  0
30226  30231  29784  0
30227  30006  30465  0
30227  30465  30466  0
30229  30461  30230  0
30461  30467  30230  0
30467  30461  30468  0
30467  30468  30469  0
30465  30006  30470  0
30230  30471  30233  0
30230  30467  30471  0
30467  30469  30471  0
30234  30240  30235  0
30235  30240  30239  0
30235  30239  30008  0
30008  30239  30472  0
30006  30237  30473  0
30233  30471  30474  0
30233  30474  30237  0
30234  30238  30244  0
30234  30244  30240  0
30239  30015  30472  0
30005  29792  30475  0
30005  30475  30476  0
30005  30476  30225  0
30010  30477  30241  0
30242  30243  30478  0
30242  30478  30248  0
30242  30248  30238  0
30238  30248  30245  0
30238  30245  30244  0
30241  30477  30479  0
30241  30479  30246  0
30243  30247  30253  0
30243  30253  30478  0
30478  30253  30249  0
30478  30249  30248  0
30247  30251  30254  0
30247  30254  30253  0
30259  30260  30252  0
30252  30267  30251  0
30251  30267  30261  0
30251  30261  30254  0
30269  30258  30480  0
30269  30480  30481  0
30269  30481  30482  0
30258  30250  30480  0
30262  30483  30260  0
30262  30263  30484  0
30262  30484  30483  0
30260  30483  30485  0
30260  30485  30252  0
30252  30485  30486  0
30252  30486  30267  0
30267  30486  30487  0
30267  30487  30268  0
30488  30489  30490  0
30489  30269  30482  0
30489  30482  30490  0
30271  30277  30279  0
30271  30279  30263  0
30263  30279  30491  0
30263  30491  30484  0
30268  30487  30272  0
30492  30272  30487  0
30277  30276  30280  0
30277  30280  30279  0
30279  30278  30493  0
30279  30493  30491  0
30278  30281  30494  0
30278  30494  30495  0
30278  30495  30493  0
30281  30272  30494  0
30272  30492  30494  0
30496  30494  30492  0
30282  30497  30274  0
30498  30274  30497  0
30274  30498  30283  0
30274  30283  30273  0
30494  30499  30495  0
30494  30496  30499  0
30498  30284  30283  0
30062  30284  30498  0
30286  30287  30500  0
29841  30288  30501  0
29841  30501  30064  0
30288  30063  30502  0
30288  30502  30501  0
30501  30503  30064  0
30504  30064  30503  0
30064  30504  30289  0
30063  30290  30505  0
30063  30505  30502  0
30290  30291  30506  0
30290  30506  30505  0
30067  30289  30292  0
30507  30292  30289  0
30293  30508  30295  0
30293  30294  30508  0
30295  30509  30296  0
30291  30297  30506  0
30298  30292  30507  0
30294  30299  30510  0
30296  30509  30511  0
30296  30511  30300  0
30509  30512  30511  0
30513  30511  30512  0
30297  30076  30514  0
30299  30301  30515  0
30299  30515  30510  0
30300  30511  30302  0
30076  30075  30516  0
30076  30516  30514  0
30298  30507  30303  0
30517  30303  30507  0
30301  30304  30515  0
30518  30515  30304  0
30302  30511  30312  0
30302  30312  30079  0
30511  30519  30520  0
30511  30520  30312  0
30511  30513  30519  0
30306  29858  30305  0
30075  30309  30516  0
30303  30517  30078  0
30078  30517  30316  0
30304  30310  30518  0
30312  30520  30311  0
30521  30311  30520  0
30522  30306  30305  0
30306  30522  30307  0
30523  30307  30522  0
30307  30523  30314  0
30516  30309  30524  0
30525  30524  30309  0
30318  30518  30310  0
30518  30318  30526  0
30311  30521  30319  0
30527  30319  30521  0
30528  30313  30317  0
30309  30315  30320  0
30309  30320  30525  0
30529  30526  30318  0
30322  30319  30527  0
30527  30530  30322  0
30531  30322  30530  0
30323  30532  30320  0
30532  30525  30320  0
30533  30525  30532  0
30322  30531  30534  0
30532  30323  30533  0
30327  30533  30323  0
30535  30095  30316  0
30095  30535  30096  0
30318  30324  30529  0
30322  30534  30103  0
30330  30103  30534  0
30534  30536  30330  0
30534  30531  30536  0
30537  30328  30538  0
30539  30533  30327  0
30327  30102  30539  0
30334  30539  30102  0
30330  30536  30332  0
30540  30332  30536  0
30541  30099  30100  0
30099  30541  30542  0
30543  30542  30541  0
30328  30333  30105  0
30328  30537  30333  0
30544  30333  30537  0
30334  30106  30545  0
30546  30545  30106  0
30329  30096  30535  0
30098  30336  30324  0
30547  30324  30336  0
30332  30540  30548  0
30549  30548  30540  0
30332  30548  30331  0
30340  30331  30548  0
30100  30107  30541  0
30333  30550  30108  0
30337  30108  30550  0
30333  30544  30550  0
30551  30550  30544  0
30552  30337  30550  0
30550  30551  30552  0
30553  30552  30551  0
30106  30335  30546  0
30107  30112  30541  0
30543  30541  30112  0
30337  30552  30338  0
30554  30338  30552  0
30552  30553  30554  0
30339  30340  30555  0
30339  30555  30341  0
30556  30341  30555  0
30112  30343  30543  0
30557  30543  30343  0
30543  30557  30558  0
30338  30554  30342  0
30559  30342  30554  0
30560  30335  30111  0
30345  30557  30343  0
30561  30344  30342  0
30342  30559  30561  0
30346  30560  30111  0
30562  30557  30345  0
30114  30344  30347  0
30344  30561  30563  0
30344  30563  30347  0
30564  30560  30346  0
30341  30556  30117  0
30562  30345  30115  0
30565  30346  30348  0
30117  30556  30566  0
29896  30352  30115  0
30562  30115  30352  0
30567  30118  30347  0
30568  30565  30348  0
30348  30350  30568  0
30569  30568  30350  0
30350  29895  30569  0
30570  30569  29895  0
29895  30349  30570  0
30118  30567  30571  0
30565  30568  30572  0
30573  30572  30568  0
30568  30569  30573  0
30574  30573  30569  0
30569  30570  30575  0
30349  30351  30570  0
30117  30576  29898  0
30121  30577  30352  0
30118  30571  30122  0
30578  30353  30119  0
30354  30353  30578  0
30569  30575  30574  0
30570  30351  30579  0
30355  30579  30351  0
30351  30120  30355  0
30123  30580  30119  0
30123  30356  30580  0
30119  30580  30581  0
30119  30581  30578  0
30578  30581  30582  0
30578  30582  30354  0
30354  30582  30583  0
30354  30583  30357  0
30358  30122  30584  0
30356  30124  30585  0
30357  30583  30359  0
30362  30586  29710  0
30124  30587  30585  0
30124  29914  30587  0
30361  30588  30355  0
29710  30586  30128  0
29914  30589  30587  0
30126  30360  30590  0
30126  30590  30363  0
30361  30364  30588  0
30128  30591  30368  0
29914  30365  30589  0
30127  30130  30592  0
30127  30592  30365  0
30366  30363  30590  0
30366  30590  30593  0
30367  30131  30594  0
30130  30595  30592  0
30366  30132  29917  0
30131  30596  30594  0
30130  30597  30595  0
30130  30129  30597  0
30132  30598  30133  0
30131  30370  30596  0
30368  30599  30369  0
30129  30600  30597  0
30129  30369  30600  0
30135  30371  30374  0
30369  30599  30601  0
30369  30601  30600  0
30133  30602  29931  0
30372  30603  30371  0
30374  30604  30376  0
30370  29922  30380  0
30375  30605  30603  0
30375  30603  30372  0
30375  30377  30606  0
30375  30606  30605  0
30376  30604  30607  0
30376  30607  30378  0
30377  30382  30606  0
30378  30607  30379  0
30608  30379  30607  0
30380  29930  30386  0
29931  30602  30387  0
29933  30609  30381  0
30610  30382  30381  0
30139  30379  30611  0
30139  30611  30389  0
30379  30608  30611  0
30391  30612  30383  0
30613  30383  30612  0
30383  30613  30384  0
30384  30613  30143  0
30614  30143  30613  0
30143  30614  30385  0
30615  30385  30614  0
30386  30385  30615  0
30609  29933  30392  0
30146  30144  30616  0
30144  30388  30617  0
30144  30617  30616  0
30389  30611  30618  0
30389  30618  30388  0
30617  30388  30618  0
29937  30146  30148  0
30390  30147  30619  0
30390  30619  30620  0
30148  30146  30621  0
30147  30393  30619  0
30393  30149  30394  0
30393  30394  30622  0
30152  29941  30396  0
30623  29950  30148  0
30396  29941  30624  0
29941  29942  30624  0
29942  30153  30625  0
29942  30625  30624  0
30153  30397  30625  0
30623  30158  29950  0
29948  30401  30626  0
29948  30626  30395  0
30627  29956  29943  0
30154  30398  30397  0
30628  30158  30623  0
30629  30625  30397  0
30397  30398  30629  0
30398  30402  30629  0
30630  30401  30400  0
30626  30401  30630  0
30631  29956  30627  0
30629  30402  30632  0
30629  30632  30633  0
30402  30403  30632  0
30158  30628  30634  0
30158  30634  30404  0
29545  30405  30400  0
29956  30631  29957  0
30635  30633  30632  0
30632  30403  30406  0
30632  30406  30635  0
30634  30409  30404  0
30406  30408  30636  0
30406  30636  30635  0
30637  30635  30636  0
30636  30408  30413  0
30636  30413  30637  0
30634  30638  30409  0
30409  30639  30410  0
30184  30411  30410  0
30640  30637  30413  0
30409  30638  30639  0
30641  30639  30638  0
30639  30187  30410  0
30183  30410  30187  0
30642  30405  30177  0
30413  30416  30643  0
30413  30643  30640  0
30639  30418  30187  0
30639  30641  30418  0
30644  30418  30641  0
30188  30645  29967  0
30420  29967  30645  0
30417  30643  30416  0
30418  30644  30419  0
30643  30417  30646  0
30417  30422  30646  0
30647  30646  30422  0
30423  30419  30429  0
30429  30419  30648  0
30644  30648  30419  0
30649  30429  30648  0
30424  30650  30425  0
30431  30425  30650  0
30422  30428  30647  0
30651  30647  30428  0
30429  30649  30430  0
30652  30430  30649  0
30428  30430  30651  0
30652  30651  30430  0
30194  30197  30653  0
30654  30653  30197  0
30197  30198  30654  0
30655  30654  30198  0
30656  30655  30198  0
30198  30199  30656  0
30431  30657  30432  0
30658  30432  30657  0
30432  30658  30433  0
30659  30433  30658  0
30660  30651  30652  0
30661  30199  29979  0
30433  30659  30200  0
29979  30434  30661  0
30659  30201  30200  0
30434  30436  30662  0
30663  30662  30436  0
30664  30665  30203  0
30203  29982  30664  0
30666  30664  29982  0
29982  30201  30666  0
30667  30663  30436  0
30436  30440  30667  0
30203  30665  30437  0
30668  30440  30441  0
30669  30668  30441  0
30437  30670  30207  0
30671  30669  30441  0
30207  30670  30446  0
30442  30447  30441  0
30672  30441  30447  0
30441  30672  30671  0
30673  30671  30672  0
30209  30448  30447  0
30447  30674  30672  0
30675  30208  30446  0
30448  30676  30674  0
30448  30674  30447  0
30448  30449  30676  0
30677  30676  30449  0
30208  30675  30215  0
30451  30215  30675  0
30452  30451  30675  0
30675  30678  30452  0
30677  30449  30455  0
30450  30455  30449  0
30452  30679  30453  0
30462  30453  30679  0
30452  30678  30679  0
30679  30680  30462  0
30681  30462  30680  0
30679  30678  30680  0
30681  30682  30683  0
30684  30683  30682  0
30682  30681  30685  0
30682  30685  30686  0
30682  30686  30684  0
30684  30686  30687  0
30455  30454  30688  0
30689  30690  30691  0
30232  30226  30456  0
30232  30456  30692  0
30232  30692  30464  0
30217  30457  30456  0
30457  30693  30456  0
30457  30459  30693  0
30459  30227  30466  0
30462  30681  30461  0
30462  30461  30460  0
30681  30683  30468  0
30681  30468  30461  0
30683  30694  30468  0
30683  30684  30694  0
30684  30695  30694  0
30454  30463  30696  0
30454  30696  30688  0
30464  30697  30236  0
30466  30465  30470  0
30466  30698  30459  0
30468  30694  30699  0
30468  30699  30469  0
30694  30700  30699  0
30694  30695  30700  0
30695  30684  30701  0
30690  30702  30703  0
30236  30697  30704  0
30470  30006  30473  0
30473  30237  30705  0
30473  30705  30470  0
30699  30700  30706  0
30699  30706  30707  0
30699  30707  30469  0
30471  30469  30707  0
30471  30707  30474  0
30010  30708  30477  0
30709  30710  30711  0
30709  30711  30712  0
30712  30711  30713  0
30246  30479  30250  0
30480  30250  30714  0
30480  30714  30715  0
30480  30715  30481  0
30716  30481  30715  0
30250  30479  30714  0
30483  30484  30717  0
30483  30717  30485  0
30485  30487  30486  0
30482  30481  30716  0
30482  30716  30490  0
30484  30491  30718  0
30484  30718  30717  0
30717  30719  30485  0
30720  30485  30719  0
30485  30720  30487  0
30487  30720  30492  0
30491  30493  30495  0
30491  30495  30718  0
30502  30721  30501  0
30503  30501  30721  0
30505  30506  30722  0
30505  30722  30502  0
30723  30289  30504  0
30289  30723  30507  0
30508  30294  30724  0
30508  30724  30295  0
30295  30724  30509  0
30509  30724  30512  0
30506  30297  30514  0
30506  30514  30725  0
30506  30725  30722  0
30294  30510  30724  0
30726  30512  30724  0
30512  30726  30727  0
30512  30727  30513  0
30728  30727  30726  0
30729  30725  30514  0
30730  30510  30515  0
30731  30510  30730  0
30732  30724  30510  0
30510  30731  30732  0
30519  30513  30727  0
30727  30733  30519  0
30727  30728  30733  0
30734  30733  30728  0
30733  30734  30519  0
30514  30516  30729  0
30735  30729  30516  0
30515  30518  30730  0
30736  30730  30518  0
30737  30730  30736  0
30738  30520  30519  0
30519  30734  30738  0
30516  30524  30735  0
30739  30735  30524  0
30740  30316  30517  0
30518  30526  30736  0
30741  30736  30526  0
30736  30741  30737  0
30520  30738  30521  0
30742  30521  30738  0
30743  30742  30738  0
30305  30313  30522  0
30528  30522  30313  0
30522  30528  30523  0
30525  30744  30524  0
30744  30739  30524  0
30745  30739  30744  0
30746  30741  30526  0
30521  30742  30527  0
30530  30527  30742  0
30742  30743  30530  0
30744  30525  30745  0
30747  30745  30525  0
30526  30529  30746  0
30748  30741  30746  0
30749  30530  30743  0
30530  30749  30531  0
30750  30531  30749  0
30751  30752  30538  0
30753  30538  30752  0
30525  30533  30747  0
30754  30747  30533  0
30535  30316  30740  0
30748  30746  30529  0
30531  30750  30536  0
30538  30753  30537  0
30753  30755  30537  0
30756  30537  30755  0
30539  30754  30533  0
30754  30539  30545  0
30536  30750  30540  0
30757  30540  30750  0
30758  30759  30760  0
30537  30761  30544  0
30537  30756  30761  0
30539  30334  30545  0
30546  30762  30545  0
30542  30543  30760  0
30763  30760  30543  0
30760  30763  30758  0
30551  30544  30761  0
30761  30764  30551  0
30765  30551  30764  0
30340  30548  30766  0
30763  30767  30758  0
30768  30758  30767  0
30769  30768  30767  0
30770  30551  30765  0
30551  30770  30553  0
30771  30329  30535  0
30336  30329  30771  0
30772  30773  30774  0
30773  30772  30766  0
30555  30766  30772  0
30766  30555  30340  0
30543  30558  30763  0
30763  30558  30767  0
30775  30767  30558  0
30767  30775  30769  0
30776  30769  30775  0
30553  30777  30554  0
30553  30770  30777  0
30560  30546  30335  0
30778  30546  30560  0
30556  30555  30772  0
30558  30557  30775  0
30776  30775  30557  0
30554  30777  30559  0
30564  30778  30560  0
30772  30774  30779  0
30557  30780  30776  0
30559  30781  30561  0
30772  30779  30556  0
30557  30562  30780  0
30782  30780  30562  0
30780  30782  30783  0
30780  30783  30776  0
30561  30781  30784  0
30561  30784  30563  0
30347  30563  30567  0
30785  30567  30563  0
30346  30786  30564  0
30346  30565  30786  0
30562  30352  30787  0
30562  30787  30782  0
30572  30788  30565  0
30788  30786  30565  0
30352  30577  30789  0
30567  30790  30571  0
30788  30572  30791  0
30573  30791  30572  0
30788  30791  30792  0
30117  30566  30576  0
30574  30575  30793  0
30570  30579  30575  0
30122  30571  30584  0
30581  30580  30794  0
30582  30581  30795  0
30582  30795  30583  0
30791  30573  30796  0
30791  30796  30797  0
30791  30797  30798  0
30791  30798  30792  0
30573  30574  30799  0
30573  30799  30796  0
30574  30793  30799  0
30575  30579  30800  0
30575  30800  30793  0
30584  30801  30358  0
30356  30802  30580  0
30356  30585  30803  0
30356  30803  30802  0
30580  30802  30794  0
30583  30795  30804  0
30583  30804  30359  0
30796  30799  30805  0
30796  30805  30806  0
30796  30806  30797  0
30799  30793  30807  0
30793  30800  30807  0
30579  30355  30588  0
30579  30588  30800  0
30362  30358  30801  0
30362  30801  30808  0
30362  30808  30586  0
30585  30587  30809  0
30585  30809  30803  0
30359  30804  30810  0
30359  30810  30360  0
30805  30799  30811  0
30799  30807  30811  0
30800  30812  30807  0
30800  30588  30812  0
30586  30808  30813  0
30586  30813  30591  0
30586  30591  30128  0
30360  30810  30814  0
30360  30814  30590  0
30807  30812  30815  0
30812  30588  30364  0
30812  30364  30815  0
30591  30816  30368  0
30590  30814  30817  0
30811  30807  30818  0
30815  30364  30594  0
30815  30594  30819  0
30364  30367  30594  0
30368  30816  30820  0
30590  30817  30593  0
30819  30594  30821  0
30594  30822  30821  0
30595  30823  30592  0
30366  30593  30598  0
30366  30598  30132  0
30822  30594  30824  0
30594  30596  30824  0
30820  30599  30368  0
30595  30597  30823  0
30596  30370  30825  0
30820  30826  30599  0
30370  30827  30825  0
30601  30828  30600  0
30371  30603  30829  0
30371  30829  30604  0
30371  30604  30374  0
30370  30380  30827  0
30603  30605  30829  0
30604  30830  30607  0
30382  30831  30606  0
30606  30832  30605  0
30829  30605  30832  0
30606  30831  30832  0
30607  30830  30608  0
30833  30608  30830  0
30380  30386  30834  0
30831  30382  30610  0
30608  30835  30611  0
30836  30608  30833  0
30608  30836  30835  0
30837  30835  30836  0
30612  30838  30613  0
30387  30839  30392  0
30609  30840  30381  0
30611  30835  30618  0
30841  30390  30620  0
30390  30841  30391  0
30842  30391  30841  0
30391  30842  30612  0
30612  30842  30838  0
30614  30613  30838  0
30146  30616  30621  0
30843  30617  30618  0
30618  30835  30844  0
30837  30844  30835  0
30618  30844  30843  0
30620  30619  30845  0
30621  30616  30846  0
30847  30846  30616  0
30616  30617  30847  0
30622  30619  30393  0
30148  30621  30623  0
30619  30622  30848  0
30849  30848  30622  0
30850  30849  30622  0
30622  30394  30850  0
30851  30850  30394  0
30394  30151  30851  0
30395  30851  30151  0
29943  30396  30852  0
30624  30852  30396  0
30853  30395  30626  0
29943  30852  30627  0
30854  30852  30624  0
30624  30625  30854  0
30855  30854  30625  0
30856  30627  30852  0
30633  30855  30625  0
30625  30629  30633  0
30857  30630  30400  0
30630  30857  30626  0
30858  30859  30633  0
30400  30405  30860  0
30861  30858  30633  0
30633  30635  30861  0
30634  30628  30862  0
30628  30863  30862  0
30412  29957  30631  0
30864  30861  30635  0
30637  30864  30635  0
30638  30634  30862  0
30412  30865  30178  0
30866  30178  30865  0
30867  30864  30637  0
30178  30866  30414  0
30868  30867  30637  0
30414  30645  30188  0
30637  30640  30868  0
30640  30643  30868  0
30869  30868  30643  0
30870  30641  30638  0
30642  30177  30194  0
30871  30420  30645  0
30643  30646  30869  0
30872  30869  30646  0
30641  30648  30644  0
30641  30870  30648  0
30873  30648  30870  0
30420  30871  30424  0
30874  30424  30871  0
30647  30872  30646  0
30648  30873  30649  0
30875  30649  30873  0
30424  30874  30650  0
30876  30650  30874  0
30650  30876  30431  0
30647  30651  30877  0
30660  30877  30651  0
30649  30875  30652  0
30660  30652  30875  0
30194  30653  30878  0
30431  30876  30657  0
30654  30655  30653  0
30656  30653  30655  0
30199  30879  30656  0
30199  30661  30880  0
30881  30882  30883  0
30883  30884  30885  0
30884  30883  30886  0
30662  30661  30434  0
30664  30666  30887  0
30888  30887  30666  0
30666  30201  30888  0
30659  30888  30201  0
30883  30885  30881  0
30889  30881  30885  0
30665  30664  30890  0
30891  30667  30440  0
30668  30891  30440  0
30668  30669  30892  0
30893  30444  30443  0
30670  30894  30446  0
30670  30895  30894  0
30672  30674  30896  0
30672  30896  30673  0
30897  30444  30898  0
30897  30898  30899  0
30897  30899  30900  0
30444  30893  30898  0
30893  30443  30901  0
30894  30902  30675  0
30894  30675  30446  0
30894  30895  30902  0
30902  30903  30675  0
30902  30895  30904  0
30902  30905  30903  0
30902  30904  30905  0
30905  30906  30903  0
30906  30905  30907  0
30908  30676  30677  0
30908  30909  30676  0
30676  30909  30674  0
30900  30899  30910  0
30675  30903  30678  0
30903  30906  30680  0
30903  30680  30678  0
30906  30685  30681  0
30906  30681  30680  0
30685  30906  30911  0
30685  30911  30686  0
30677  30455  30912  0
30677  30912  30908  0
30456  30913  30692  0
30456  30914  30913  0
30914  30456  30693  0
30686  30915  30687  0
30455  30688  30912  0
30464  30692  30916  0
30693  30917  30914  0
30693  30459  30918  0
30693  30918  30917  0
30459  30698  30919  0
30459  30919  30918  0
30684  30687  30701  0
30688  30696  30920  0
30688  30920  30912  0
30696  30921  30920  0
30698  30466  30470  0
30698  30470  30922  0
30698  30922  30923  0
30698  30923  30919  0
30922  30470  30705  0
30922  30705  30924  0
30925  30700  30695  0
30925  30695  30701  0
30925  30701  30926  0
30925  30926  30927  0
30925  30927  30700  0
30690  30928  30691  0
30690  30703  30929  0
30690  30929  30928  0
30697  30930  30704  0
30705  30237  30931  0
30705  30931  30924  0
30931  30237  30474  0
30931  30474  30932  0
30931  30932  30933  0
30931  30933  30924  0
30932  30474  30707  0
30932  30707  30706  0
30932  30706  30927  0
30932  30927  30933  0
30706  30700  30927  0
30703  30934  30935  0
30703  30935  30929  0
30236  30704  30010  0
30704  30930  30936  0
30704  30936  30010  0
30934  30937  30935  0
30010  30936  30938  0
30010  30938  30708  0
30710  30939  30711  0
30711  30939  30715  0
30711  30715  30713  0
30710  30490  30939  0
30939  30490  30716  0
30939  30716  30715  0
30717  30718  30940  0
30717  30940  30719  0
30720  30719  30492  0
30940  30718  30941  0
30496  30719  30940  0
30719  30496  30492  0
30718  30495  30941  0
30495  30499  30942  0
30495  30942  30941  0
30499  30496  30942  0
30503  30721  30504  0
30502  30943  30721  0
30502  30722  30943  0
30944  30943  30722  0
30722  30725  30944  0
30945  30944  30725  0
30504  30946  30723  0
30724  30732  30726  0
30728  30726  30732  0
30725  30729  30945  0
30947  30945  30729  0
30507  30723  30948  0
30949  30948  30723  0
30950  30732  30731  0
30732  30950  30728  0
30951  30728  30950  0
30729  30735  30947  0
30952  30947  30735  0
30517  30507  30948  0
30730  30737  30731  0
30731  30737  30950  0
30953  30950  30737  0
30951  30950  30953  0
30734  30954  30738  0
30955  30738  30954  0
30952  30735  30956  0
30735  30739  30956  0
30957  30956  30739  0
30948  30958  30517  0
30740  30517  30958  0
30948  30949  30958  0
30959  30951  30953  0
30738  30960  30743  0
30961  30743  30960  0
30738  30955  30960  0
30962  30961  30960  0
30739  30745  30957  0
30963  30957  30745  0
30748  30737  30741  0
30964  30953  30737  0
30965  30737  30748  0
30749  30743  30961  0
30961  30962  30749  0
30745  30747  30963  0
30966  30965  30748  0
30749  30967  30750  0
30757  30750  30967  0
30968  30752  30969  0
30545  30747  30754  0
30970  30748  30529  0
30748  30970  30966  0
30971  30969  30759  0
30969  30971  30968  0
30972  30968  30971  0
30753  30973  30755  0
30755  30973  30756  0
30740  30974  30535  0
30324  30547  30529  0
30547  30975  30529  0
30970  30529  30975  0
30540  30757  30976  0
30540  30976  30549  0
30759  30758  30971  0
30977  30972  30971  0
30972  30977  30978  0
30979  30761  30756  0
30761  30979  30764  0
30545  30762  30980  0
30766  30981  30982  0
30981  30766  30983  0
30548  30983  30766  0
30983  30548  30549  0
30768  30971  30758  0
30971  30768  30977  0
30977  30768  30984  0
30985  30984  30768  0
30977  30984  30978  0
30756  30978  30984  0
30984  30985  30764  0
30765  30764  30985  0
30984  30764  30756  0
30979  30756  30764  0
30547  30336  30986  0
30773  30987  30988  0
30987  30773  30982  0
30766  30982  30773  0
30768  30769  30985  0
30989  30985  30769  0
30985  30989  30765  0
30990  30765  30989  0
30765  30990  30770  0
30991  30988  30992  0
30988  30774  30773  0
30769  30776  30989  0
30990  30989  30776  0
30990  30993  30770  0
30770  30993  30777  0
30988  30991  30774  0
30783  30990  30776  0
30990  30783  30993  0
30994  30993  30783  0
30559  30993  30994  0
30993  30559  30777  0
30991  30995  30774  0
30996  30995  30991  0
30779  30774  30995  0
30781  30559  30994  0
30997  30995  30996  0
30995  30998  30779  0
30999  30994  30783  0
30994  31000  30781  0
31001  30784  30781  0
30995  30997  30998  0
30782  30787  30999  0
30782  30999  30783  0
30563  30784  30785  0
31002  30785  30784  0
30784  31001  31002  0
30786  31003  31004  0
30779  31005  30556  0
30779  30998  31005  0
30787  30352  30789  0
30788  31003  30786  0
30788  31006  31003  0
30556  31005  30566  0
30789  31007  30787  0
30785  31008  30567  0
30788  30792  31006  0
29898  30576  30577  0
29898  30577  30121  0
30790  30567  31008  0
30792  31009  31006  0
30581  30794  30795  0
30792  30798  31009  0
30584  30571  31010  0
30802  30803  31011  0
30802  31011  30794  0
30794  31012  30795  0
30794  31011  31012  0
30795  31013  30804  0
30795  31012  31013  0
30797  30806  31014  0
30797  31014  30798  0
30801  30584  31010  0
31011  30803  31015  0
31013  31016  31017  0
31013  31017  30804  0
31018  30806  30805  0
31018  30805  31019  0
31018  31014  30806  0
30813  30816  30591  0
30808  30801  30813  0
30809  31020  30803  0
30803  31020  31015  0
30810  30804  31017  0
30810  31017  31021  0
30810  31021  31022  0
30810  31022  30814  0
31019  30805  31023  0
30805  30811  31023  0
30811  30818  31023  0
30816  30826  30820  0
30587  31024  31020  0
30587  31020  30809  0
30587  30589  31024  0
30814  31022  31025  0
31019  31023  31026  0
31023  31027  31026  0
31023  30818  31027  0
30818  30807  31028  0
30807  30815  30819  0
30807  30819  31028  0
30826  31029  31030  0
30365  31031  30589  0
30365  30592  31031  0
30589  31031  31024  0
30593  30817  31032  0
30593  31032  31033  0
30817  30814  31025  0
30817  31025  31032  0
31027  30818  31034  0
30818  31028  31034  0
31028  30819  31035  0
30819  30821  31035  0
30593  31033  31036  0
30593  31036  30598  0
30826  31030  31037  0
30597  31038  30823  0
30133  30598  31039  0
30826  31040  30599  0
30600  30828  31038  0
30600  31038  30597  0
30829  31041  30604  0
30604  31041  30830  0
30832  31042  30829  0
30829  31042  31043  0
30829  31043  31041  0
31041  31043  30833  0
31041  30833  30830  0
30602  31044  30387  0
30610  31045  30831  0
30831  31045  31046  0
30831  31046  30832  0
30832  31046  31042  0
31042  31047  31043  0
31043  31047  31048  0
31043  31048  30833  0
30833  31048  30836  0
30615  31049  30386  0
30386  31049  30834  0
30387  31044  30839  0
30381  30840  30610  0
31050  30837  30836  0
30620  30845  30841  0
30841  30845  31051  0
30841  31051  30842  0
31052  30838  30842  0
30838  31052  30614  0
30614  31049  30615  0
30392  31053  30609  0
30840  30609  31053  0
30837  31054  30844  0
30837  31050  31054  0
31051  30845  31055  0
30845  30619  31055  0
31056  31055  30619  0
31057  30847  30617  0
30617  30843  31057  0
31058  30843  30844  0
30844  31054  31058  0
31054  31059  31058  0
30619  30848  31056  0
30846  30623  30621  0
30846  30847  31060  0
31061  31060  30847  0
31062  31057  30843  0
30843  31058  31062  0
31063  30623  30846  0
31063  30628  30623  0
31064  30856  30852  0
30852  30854  31064  0
30855  31064  30854  0
30627  30856  31065  0
30631  30627  31065  0
31066  31067  30855  0
30855  30633  30859  0
30855  30859  31066  0
30863  30628  31063  0
30400  30860  30857  0
31068  30626  30857  0
30626  31068  30853  0
31069  31066  30859  0
30859  30858  31069  0
31070  31069  30858  0
30860  31071  30857  0
31072  30857  31071  0
30857  31072  31068  0
30858  30861  31070  0
31073  31070  30861  0
31074  31075  30860  0
30865  30412  30631  0
30861  30864  30867  0
30861  30867  31073  0
31076  31073  30867  0
30860  30405  31074  0
31077  30866  30865  0
31078  31076  30867  0
31079  30638  30862  0
30642  31074  30405  0
31077  30414  30866  0
30867  30868  31078  0
31080  31078  30868  0
30414  31077  30645  0
31081  30645  31077  0
31082  31080  30868  0
30638  31079  30870  0
31083  30870  31079  0
30645  31081  30871  0
31084  30871  31081  0
30868  30869  31082  0
31085  31082  30869  0
30869  30872  31085  0
30870  31083  30873  0
31086  30873  31083  0
30878  30642  30194  0
31087  30871  31084  0
30871  31087  30874  0
30872  30647  31085  0
30877  31085  30647  0
30873  31086  30875  0
31088  30875  31086  0
31089  30874  31087  0
30877  30660  31090  0
31090  30660  31091  0
31092  31091  30660  0
30875  31088  30660  0
31092  30660  31088  0
31093  30878  30653  0
30656  31094  30653  0
30653  31094  31093  0
30879  31093  31094  0
31094  30656  30879  0
30874  31089  30876  0
30876  31089  30657  0
31095  30657  31089  0
30879  30199  31096  0
30880  31096  30199  0
30657  31095  30658  0
30883  30882  31097  0
31098  31097  31099  0
31097  30882  31099  0
31100  31099  30882  0
31097  31101  30883  0
31097  31098  31101  0
31101  30886  30883  0
31102  30886  31101  0
31103  30886  31102  0
30659  31095  30888  0
31104  30888  31095  0
31095  30659  30658  0
30882  30881  31100  0
31104  30887  30888  0
31105  30889  31106  0
30662  30663  31107  0
30663  30667  31107  0
30891  31107  30667  0
31108  30892  30669  0
30665  30890  31109  0
30665  31109  30437  0
30669  30671  31108  0
30437  31109  31110  0
30437  30895  30670  0
30437  31110  30895  0
30671  31111  31108  0
30904  30895  31112  0
30904  31113  30905  0
30904  31112  31113  0
30673  31111  30671  0
30901  31114  30893  0
30905  31113  30907  0
30907  30911  30906  0
30907  31113  31115  0
30909  30908  31116  0
30674  30909  30896  0
30899  30898  31117  0
30911  30907  31118  0
30911  31119  30915  0
30911  30915  30686  0
30911  31118  31119  0
31119  31120  30915  0
30908  30912  31116  0
30910  30899  31121  0
30910  31121  31122  0
30910  31122  31123  0
31124  30916  30692  0
31124  30692  30913  0
31124  30913  31125  0
30913  31126  31125  0
30914  31127  30913  0
30914  30917  31127  0
31128  31129  31130  0
31128  31131  31129  0
30915  31120  31132  0
30915  31132  30687  0
30912  31133  31116  0
31123  31122  31134  0
30918  30919  31135  0
30919  30923  31135  0
31129  31131  31136  0
31129  31136  30933  0
31129  30933  31130  0
31130  30926  31137  0
31130  31137  31128  0
30926  31138  31139  0
30926  31139  31137  0
31138  30926  30701  0
31138  30701  30687  0
31138  30687  31132  0
31138  31132  31139  0
30912  30920  31133  0
30920  31140  31133  0
30923  30922  31141  0
30922  30924  31136  0
30922  31136  31142  0
30922  31142  31141  0
31136  30924  30933  0
30933  30927  31130  0
31130  30927  30926  0
30940  30942  30496  0
30940  30941  30942  0
30943  30944  31143  0
30943  31143  30721  0
30721  31143  30946  0
30721  30946  30504  0
30944  30945  31144  0
30944  31144  31143  0
30946  31145  30723  0
30945  30947  31146  0
30945  31146  31144  0
31145  30949  30723  0
30728  30951  30954  0
30728  30954  30734  0
30952  31147  31146  0
30952  31146  30947  0
30949  31145  31148  0
30951  30959  30955  0
30951  30955  30954  0
31148  30958  30949  0
30953  30964  31149  0
30953  31149  30959  0
30959  31150  30955  0
31151  30955  31150  0
30959  31149  31150  0
30955  31151  30960  0
31152  30960  31151  0
30960  31152  30962  0
30737  30965  30964  0
30967  30749  30962  0
30962  31153  30967  0
30967  31153  30757  0
30752  30968  30753  0
30973  30753  30968  0
30747  30545  30980  0
30974  30958  31148  0
30958  30974  30740  0
31154  30966  30970  0
31153  30976  30757  0
30968  30972  30973  0
30978  30973  30972  0
30756  30973  30978  0
31155  30975  30547  0
30975  31154  30970  0
30981  30983  31156  0
31157  30981  31156  0
30549  30976  30983  0
31158  30983  30976  0
30986  31155  30547  0
30771  31155  30986  0
30987  30982  31157  0
30982  30981  31157  0
30762  30546  31159  0
31160  31159  30546  0
30986  30336  30771  0
30988  30987  30992  0
30992  30987  31161  0
30546  30778  31160  0
30992  31162  30991  0
30991  31162  30996  0
31163  30996  31162  0
31004  30778  30564  0
30997  30996  31163  0
30994  30999  31000  0
31001  30781  31000  0
30786  31004  30564  0
31164  30997  31165  0
30997  31164  30998  0
30787  31166  30999  0
30999  31167  31000  0
30999  31168  31167  0
31169  31002  31001  0
31003  31170  31004  0
30998  31171  31005  0
30787  31007  31166  0
31168  30999  31166  0
31172  30785  31002  0
31002  31169  31172  0
31172  31008  30785  0
30576  31173  30577  0
31008  31172  31174  0
31006  31009  31175  0
31176  31175  31009  0
31175  31176  31177  0
30571  30790  31010  0
31178  31010  30790  0
30790  31008  31178  0
31174  31178  31008  0
31009  30798  31176  0
31179  31176  30798  0
31176  31179  31180  0
31181  31180  31179  0
31010  31178  31182  0
31183  31012  31011  0
31012  31183  31013  0
31016  31013  31183  0
30798  31014  31179  0
30801  31010  31184  0
31185  31184  31010  0
31186  31011  31015  0
31011  31187  31183  0
31011  31186  31187  0
31183  31187  31016  0
31188  31017  31016  0
31189  31014  31018  0
31014  31189  31179  0
31190  31179  31189  0
31179  31190  31181  0
31191  30826  31192  0
30816  31192  30826  0
31191  31192  31193  0
31194  31192  30816  0
30816  30813  31194  0
31184  31194  30813  0
30813  30801  31184  0
31020  31195  31015  0
31015  31195  31186  0
31021  31017  31022  0
31196  31022  31017  0
31017  31188  31196  0
31018  31019  31026  0
31018  31026  31189  0
31029  31191  31197  0
31198  31029  31197  0
31191  31029  30826  0
31020  31024  31195  0
31022  31196  31199  0
31022  31199  31025  0
31196  31200  31199  0
31026  31027  31201  0
31026  31201  31189  0
31029  31198  31030  0
31025  31199  31200  0
31025  31200  31202  0
31025  31202  31032  0
31027  31203  31201  0
31027  31034  31203  0
31034  31028  31035  0
31035  30821  31204  0
30821  30822  31204  0
30823  31205  30592  0
30592  31205  31031  0
31033  31032  31202  0
31204  30822  31206  0
31204  31206  31207  0
30822  30824  31206  0
30824  30596  31208  0
31037  31209  30826  0
30823  31038  31205  0
30598  31036  31039  0
30826  31209  31040  0
30599  31040  31210  0
30599  31210  31211  0
30599  31211  30601  0
30601  31211  30828  0
30828  31211  31212  0
30133  31039  31213  0
30827  30380  30834  0
30602  30133  31213  0
31045  31214  31046  0
31046  31214  31215  0
31046  31215  31042  0
31042  31215  31216  0
31042  31216  31047  0
31047  31216  31048  0
31044  31217  30839  0
30610  30840  31218  0
30610  31218  31045  0
31045  31218  31214  0
31216  31219  31048  0
31048  31220  31050  0
31048  31050  30836  0
31048  31219  31220  0
31052  30842  31221  0
30614  31052  31049  0
30839  31053  30392  0
31053  31222  30840  0
31054  31050  31223  0
31054  31223  31059  0
31051  31224  31225  0
31051  31225  30842  0
31051  31055  31226  0
31051  31226  31224  0
30842  31225  31221  0
31059  31223  31227  0
31056  31226  31055  0
30847  31057  31061  0
31057  31062  31228  0
31057  31228  31061  0
31058  31059  31229  0
31058  31229  31062  0
30848  30849  31230  0
30848  31230  31056  0
30849  30850  31231  0
30849  31231  31230  0
30846  31232  31063  0
30846  31060  31232  0
31060  31061  31233  0
31061  31234  31233  0
31061  31228  31235  0
31061  31235  31234  0
31062  31229  31236  0
31062  31236  31228  0
31229  31059  31237  0
31229  31237  31238  0
30851  30395  31239  0
30851  31239  31240  0
30851  31240  30850  0
31233  31234  31241  0
31234  31235  31242  0
31234  31242  31241  0
31228  31236  31243  0
31228  31244  31235  0
31236  31229  31238  0
31236  31238  31245  0
31236  31245  31243  0
30395  30853  31239  0
31064  31246  30856  0
31064  30855  31067  0
31064  31067  31247  0
31228  31243  31244  0
30853  31072  31239  0
31063  31248  30863  0
31068  31072  30853  0
30631  31065  31249  0
31250  31066  31069  0
31070  31250  31069  0
30860  31075  31071  0
31071  31251  31072  0
30631  31249  30865  0
31252  30865  31249  0
31251  31071  31075  0
30865  31252  31077  0
31253  31076  31078  0
31081  31077  31254  0
31080  31253  31078  0
31074  30642  31255  0
30878  31255  30642  0
31085  30877  31256  0
31090  31256  30877  0
31083  31257  31086  0
31258  31257  31083  0
31084  31259  31087  0
31086  31257  31258  0
31086  31258  31088  0
31260  31088  31258  0
30878  31093  31261  0
31262  31261  31093  0
31089  31087  31259  0
31091  31092  31088  0
31260  31091  31088  0
31263  31264  31258  0
31265  31258  31264  0
31263  31266  31264  0
31267  31266  31263  0
31268  31266  31267  0
31269  31270  31271  0
31270  31269  31102  0
31272  31102  31269  0
31093  30879  31262  0
31096  31262  30879  0
31259  31273  31089  0
31274  31275  31264  0
31264  31275  31265  0
31264  31266  31274  0
31099  31274  31266  0
31266  31276  31099  0
31098  31099  31276  0
31266  31268  31276  0
31276  31277  31098  0
31101  31098  31277  0
31276  31268  31277  0
31277  31270  31101  0
31102  31101  31270  0
31271  31270  31277  0
31102  31272  31103  0
31278  31272  31279  0
31280  31096  30880  0
31089  31281  31095  0
31104  31095  31281  0
31100  31274  31099  0
31282  31275  31274  0
31103  31272  31106  0
31278  31106  31272  0
31283  30880  30661  0
31274  31100  31282  0
31284  31282  31100  0
31100  30881  31284  0
31284  30881  31285  0
31286  31285  30881  0
31106  31278  31105  0
30661  30662  31283  0
31287  31283  30662  0
30664  30887  31288  0
31104  31288  30887  0
31105  31289  30889  0
30662  31107  31287  0
31290  31287  31107  0
30664  31291  30890  0
31292  31293  31294  0
30892  31108  31295  0
31296  31295  31108  0
31292  31294  31297  0
31109  31298  31110  0
31297  31294  31299  0
31300  31299  31294  0
31301  31300  31294  0
31110  31112  30895  0
31110  31298  31112  0
31302  31111  30673  0
31303  30898  30893  0
31304  31303  30893  0
30893  31114  31304  0
31305  31304  31114  0
31115  31118  30907  0
30909  31302  30896  0
30896  31302  30673  0
30899  31117  31121  0
31117  31306  31307  0
31117  31307  31121  0
31117  30898  31306  0
31303  31306  30898  0
31308  31309  31124  0
31124  31125  31308  0
31125  31126  31310  0
31118  31311  31119  0
31119  31311  31312  0
31119  31312  31120  0
31120  31312  31313  0
31116  31314  30909  0
31315  31134  31122  0
31315  31122  31121  0
30913  31127  31126  0
31316  31142  31136  0
31316  31136  31317  0
31316  31317  31318  0
