#!ascii file
 20.129465   41.075832   64.471931  0
 10.435969   42.891880   59.963463  0
 23.815170   39.438976   63.973194  0
 22.595533   39.101280   63.514870  0
 25.045809   40.054222   63.998814  0
 22.197912   40.104053   63.828377  0
 10.620957   42.613209   58.271496  0
 26.440033   40.703735   63.093330  0
 27.284279   40.963337   61.178452  0
 27.359394   41.474674   59.265545  0
 12.109391   42.746555   57.497841  0
 11.865044   42.426147   55.199059  0
 38.948112   42.108196   59.637321  0
 39.823086   42.683571   58.942528  0
 33.356766   43.935665   60.658066  0
 32.297974   42.959053   60.901897  0
 34.714626   42.041607   59.672352  0
 30.365858   42.928215   61.063747  0
 28.597290   43.284683   60.653542  0
 26.822563   42.224373   57.418831  0
 25.258133   42.156788   55.276764  0
 41.109211   43.716030   56.711369  0
 37.158337   42.426979   59.690865  0
 12.090640   42.497971   53.964020  0
 41.615120   44.114758   53.911705  0
 41.335835   44.966141   54.649826  0
 27.331413   43.371914   55.839302  0
 40.420139   44.723579   53.077343  0
 37.960590   44.115433   51.334827  0
 26.893951   42.746040   53.278767  0
 33.548466   42.801792   49.303699  0
 36.010239   44.466358   50.710655  0
 21.998283   43.173885   49.937820  0
 25.781939   42.640263   51.071842  0
 11.872262   42.137699   50.468498  0
 22.404945   43.231731   49.162003  0
 31.307533   43.270969   47.773380  0
 30.347610   42.895279   45.409023  0
  9.883932   41.855366   47.075783  0
 44.971691   41.296665   49.472248  0
 46.900116   42.979298   49.302490  0
 47.771053   43.087391   48.919067  0
 50.799683   44.709641   44.947285  0
 52.700127   43.537670   43.494965  0
 49.516018   44.729591   46.687721  0
 48.317226   44.029171   48.271748  0
 41.785332   39.723694   47.516014  0
 40.276081   39.297054   46.027584  0
 13.094831   40.091927   41.585751  0
 52.017860   44.994404   42.695278  0
 38.110558   39.275272   46.175392  0
 39.176872   40.514339   47.675663  0
 36.732841   39.910351   46.811501  0
 34.870792   40.416294   46.445011  0
 34.469585   42.292507   46.750988  0
 33.220074   41.925121   45.531349  0
 32.840569   41.764507   44.523258  0
 15.871745   40.283157   40.072289  0
 51.478069   44.895313   40.331757  0
 49.915009   44.571545   38.870083  0
 47.949081   43.591076   37.421883  0
 32.613728   42.039616   42.813713  0
 45.243118   42.895199   35.633221  0
 29.514351   43.269234   38.377876  0
 30.149681   42.724983   37.722343  0
 16.864485   40.871090   38.442898  0
 43.245300   42.545399   34.716255  0
 41.255737   41.999161   33.502190  0
 31.970980   42.888218   37.844982  0
 40.307495   41.757580   32.737000  0
 30.817659   43.098522   36.418983  0
 29.547277   43.619862   36.498409  0
 55.589783   42.463764   38.284206  0
 55.908463   43.362675   37.465496  0
 53.399937   43.422832   38.073189  0
 16.185913   43.303112   35.810455  0
 56.825405   43.681854   34.954185  0
 51.317188   43.334263   37.009159  0
 15.635725   43.942394   35.132015  0
 12.961005   44.238571   34.763496  0
  9.379355   45.140926   35.830631  0
  7.592766   44.991974   35.879215  0
  6.530941   44.970036   34.701683  0
 56.396038   42.989014   31.880096  0
 49.053658   43.005993   34.603832  0
  4.636021   43.250397   32.749172  0
 45.175026   42.127914   32.236362  0
  4.753623   42.361561   30.703238  0
 55.568237   42.618443   29.345104  0
 43.628841   42.028141   31.222651  0
  5.992387   41.460506   28.288139  0
 53.691124   41.886383   27.748810  0
  7.652686   40.395733   27.181845  0
 52.668369   41.670742   25.111759  0
 52.923538   41.771019   23.740623  0
 59.745716   42.800644   22.090445  0
 57.229507   42.573978   22.461359  0
 54.633709   42.408390   22.405403  0
 41.186291   42.067299   21.929348  0
 41.669186   41.365028   21.691719  0
 37.845802   41.972084   21.413391  0
  9.870161   43.256580   22.856661  0
  4.134594   42.615692   21.365297  0
 60.290260   42.630276   21.166698  0
 59.934452   41.934402   19.464287  0
 49.345486   39.315907   18.940708  0
  3.946042   43.812378   19.797491  0
 58.343109   38.190945   17.004160  0
 58.858768   38.919693   16.411684  0
 59.756298   40.592400   17.543934  0
 56.882660   37.822701   17.251329  0
 54.876553   38.128551   16.517605  0
 50.249546   39.168938   17.479362  0
 48.024532   39.556129   17.960766  0
 39.151573   40.616051   18.760384  0
 57.400688   38.174915   15.961377  0
  3.680881   42.779167   17.438246  0
  4.858097   42.494110   16.199894  0
  6.565336   42.592457   13.492243  0
  6.063728   42.060410   12.241941  0
  5.023137   42.508854   11.413552  0
 44.321426   36.850208   10.243448  0
 45.274727   36.579075   10.741576  0
 42.938053   37.279110   10.960502  0
 43.839027   37.219978    9.101413  0
 32.649849   40.760330    9.549296  0
  5.080537   41.766273    9.914189  0
 49.532326   36.578133   10.924766  0
 47.643860   36.554596   11.412482  0
 51.458454   37.796413   10.819067  0
 48.578484   38.228325   12.211999  0
 46.703545   35.849255   10.449409  0
 46.262936   36.997578   12.141207  0
 44.517193   36.597240    7.663888  0
 43.110691   37.391682    7.585510  0
 54.291882   39.151939    9.118851  0
 53.564911   38.975399   10.108692  0
 54.010689   38.639431    7.150641  0
 45.362156   35.635487    6.162496  0
 46.135056   35.366272    3.965815  0
 44.927803   36.262367    4.810208  0
 43.955414   37.047451    4.168119  0
  4.864171   41.074795    7.516124  0
 52.279884   39.550175    4.664010  0
 50.625919   39.266304    3.929245  0
 49.655437   39.169254    2.986606  0
 49.293983   37.671890    2.555628  0
 46.682831   35.851997    2.677488  0
 45.481956   36.211025    2.722537  0
 44.442459   37.087677    2.017474  0
 48.675625   37.148949    1.915148  0
 47.440178   36.437778    1.577880  0
 49.892307   39.450539    1.607742  0
 46.043781   36.560051    1.453522  0
 42.403622   37.897984    1.889761  0
 42.986073   37.566681    3.177565  0
  3.531108   40.877930    5.580962  0
 49.349941   38.235695    0.933139  0
 47.566238   37.578484    0.462497  0
 45.783558   37.253471    0.607308  0
 44.330379   37.619625    0.529337  0
 43.645214   38.036709   -0.524902  0
 49.353722   39.331558   -0.292571  0
 49.799923   39.182812    0.469360  0
 49.658749   40.382774    0.965518  0
 49.309982   40.642277    0.078615  0
 45.448738   38.177967   -0.376889  0
  2.451390   41.881290    3.862702  0
  3.448600   40.543224    1.217071  0
  2.818194   41.452209    2.400157  0
  3.933707   41.423454    0.981716  0
 49.498890   40.910629   -0.917626  0
 47.382423   39.739445   -1.100766  0
 44.792912   38.861649   -1.382412  0
 33.329788   40.590736    3.164450  0
  5.520096   41.597946   -0.384839  0
  4.955663   42.545040    0.120418  0
 35.666435   40.923389    1.328963  0
 34.936920   40.918365    2.101987  0
 12.150765   41.156734   -6.108980  0
 11.715136   40.602425   -4.719132  0
 11.796644   40.381859   -5.745705  0
 11.151394   41.637753   -4.591018  0
  7.710362   41.894257   -2.626455  0
  6.828665   42.580051   -1.031727  0
  7.734869   42.586609   -2.600226  0
 36.530010   40.402451   -0.060012  0
 37.487690   42.457695   -0.593555  0
 10.229088   41.914139   -4.333759  0
  9.145745   42.001362   -3.707373  0
  9.881030   42.783672   -3.408451  0
  8.944348   42.641453   -3.256053  0
 37.254570   40.858398   -0.861552  0
 38.034885   41.802387   -2.157452  0
 38.304844   42.561497   -3.402218  0
 22.226568   44.483215   -7.087341  0
 21.929890   45.459473   -5.887907  0
 32.101704   44.323425   -9.323086  0
 30.879959   44.813751   -9.144839  0
 30.139648   45.601570   -7.895831  0
 29.133848   45.393227   -8.242431  0
 29.517385   45.038853   -9.331072  0
 28.570385   45.619766   -6.864398  0
 28.058163   45.220749   -7.924969  0
 37.799873   43.456802   -5.861737  0
 30.532085   43.584187   -9.751316  0
 29.076973   43.939819  -10.063095  0
 28.077751   44.109142  -10.032855  0
 27.072275   44.804939   -8.456526  0
 27.064610   43.831657   -9.567539  0
 35.113041   44.600666   -8.355985  0
 33.142609   44.530663   -9.101405  0
 28.044155   42.471516  -10.424869  0
 25.513374   42.873894   -9.390275  0
 25.956770   41.072121  -10.710342  0
 42.317280   45.989979  -10.858145  0
 12.318712   45.102501   66.685829  0
 15.497618   43.883934   67.446297  0
 17.081638   42.632881   66.904564  0
 11.205189   44.853104   65.386848  0
 19.241571   41.826843   65.657745  0
 18.767469   42.955753   66.645203  0
 11.861950   45.398949   64.087479  0
 23.561018   41.401699   64.501785  0
 26.029808   41.873238   63.953194  0
 24.782579   42.666058   64.609024  0
 21.956783   41.542713   64.589447  0
 22.838778   43.706985   65.421814  0
 21.341755   42.630344   65.419807  0
 12.530949   43.504887   59.987061  0
 12.464308   45.125462   62.804974  0
 26.859348   42.690418   62.741501  0
 27.597233   42.185806   61.524231  0
 27.352516   42.853680   59.357498  0
 12.831819   43.428104   57.909569  0
 39.976589   44.110542   57.825016  0
 38.412277   43.679802   59.208191  0
 36.179478   44.069515   60.015533  0
 32.123894   45.030941   60.926826  0
 30.048389   44.641476   60.703247  0
 26.224659   43.892376   57.687302  0
 23.114799   43.545448   53.869118  0
 40.797398   45.410187   56.037331  0
 27.581095   44.468906   57.493221  0
 39.215801   45.791157   52.415379  0
 37.482407   45.420067   51.322525  0
 21.379419   44.870449   52.396473  0
 34.168270   45.601669   50.224625  0
 32.572586   44.836788   49.192848  0
 21.430120   44.617912   50.310307  0
 23.676893   43.763824   49.819607  0
 11.382528   43.182358   48.083431  0
 22.495485   44.546551   49.320869  0
 44.105339   42.840191   50.450474  0
 42.653770   43.077198   50.762173  0
 42.157875   41.486591   49.671867  0
 44.280342   45.073326   50.801609  0
 45.727608   43.842190   50.184025  0
 40.759495   42.967785   50.654732  0
 41.575623   44.415493   51.255455  0
 30.458324   43.884468   42.993916  0
  9.078051   42.615845   46.295753  0
  9.158895   41.732609   45.535789  0
  9.467054   41.223850   44.236713  0
 46.874485   45.569138   48.809338  0
 48.436459   46.430168   46.461887  0
 38.904213   41.938496   49.134537  0
 38.693443   43.751076   50.012573  0
 10.958354   40.660992   42.489182  0
 50.972790   46.101768   42.810562  0
 50.066471   46.308453   44.373196  0
 36.989456   42.395180   48.518806  0
 37.021198   44.749245   49.084564  0
 35.106651   44.540741   47.187912  0
 12.992774   40.881485   40.707253  0
 51.283260   45.827412   41.526203  0
 33.656837   43.193584   45.244656  0
 33.515915   43.193718   41.428291  0
 15.577094   41.363495   39.047035  0
 49.535660   45.597572   39.779152  0
 48.214638   44.673286   38.323280  0
 47.375114   45.157433   38.859535  0
 44.861916   43.752972   36.983040  0
 42.800266   43.429783   36.667213  0
 43.796677   43.895294   38.130417  0
 42.550453   43.940723   38.329369  0
 33.146030   43.383728   39.887180  0
 41.273659   43.279766   35.535305  0
 41.525749   43.946819   37.892204  0
 40.481110   43.297050   34.564205  0
 31.512386   43.441021   36.052208  0
 30.068064   43.869209   34.537205  0
 55.583809   44.758266   36.837894  0
 52.985249   44.574646   37.811520  0
 56.839298   45.384842   34.121239  0
 50.565437   44.179352   36.358528  0
 11.046815   45.449760   34.574928  0
 57.157471   44.181103   33.210884  0
 15.164630   45.029011   33.285110  0
  8.539740   46.004662   34.899570  0
  5.608893   45.155952   33.552773  0
  4.300415   44.797272   32.381474  0
 57.392277   44.181538   31.301632  0
  3.947130   43.918777   31.820736  0
  4.333912   43.672642   30.988529  0
  4.079765   44.443367   30.696592  0
 57.331417   44.133900   29.153923  0
 41.437775   42.328495   31.003387  0
  4.364827   43.145203   29.810884  0
  4.936473   43.238754   28.448612  0
  7.546226   41.279270   26.739840  0
  6.250782   42.635567   27.168913  0
 55.328133   43.444012   26.572100  0
 56.599197   43.712605   27.959293  0
  9.740683   41.574699   26.269571  0
  8.212157   42.978882   26.270250  0
 53.408298   42.496758   25.911224  0
 53.052448   43.113667   24.494682  0
 52.690750   43.686077   22.869036  0
 53.047142   42.924847   22.342073  0
 39.509644   42.684193   22.134872  0
 38.356777   42.588711   21.831146  0
 59.218163   43.313770   20.860285  0
 57.163513   43.400375   21.533926  0
 54.870720   43.909374   21.104691  0
 38.627579   42.378033   20.516640  0
  5.387261   42.980480   21.881136  0
 57.788975   43.862175   20.831329  0
 45.505913   42.715427   18.881029  0
 43.897774   42.763439   20.035049  0
 39.638039   41.794716   19.396961  0
 59.726467   42.357819   18.952967  0
 59.146488   43.444790   19.854872  0
 47.041042   40.664951   17.908146  0
 59.863159   42.424625   18.313890  0
 52.854713   38.785809   15.244553  0
 49.516735   39.767265   16.704166  0
 38.612606   40.298801   16.914217  0
 59.539845   39.849880   15.695282  0
 60.106026   42.050266   17.084747  0
 58.823040   38.875763   14.683992  0
 57.071129   38.234592   14.397603  0
 55.510204   38.328289   14.388845  0
  6.239945   42.701691   15.147136  0
 33.215420   40.554115   11.252893  0
 40.181568   37.634861   13.095218  0
 42.932831   39.175579   15.002474  0
 39.011723   38.007301   13.732371  0
 38.508823   37.427864   12.557022  0
 37.246723   37.299583   11.644480  0
 36.675293   37.674496   12.762362  0
  5.824704   43.362659   12.826509  0
 43.838749   37.630299   13.128510  0
 41.456383   37.441101   12.394130  0
 44.608673   39.100609   14.659146  0
 43.013546   38.285389   14.115210  0
 45.350628   37.803482   13.461302  0
 41.018581   37.301212   10.164625  0
 39.867428   37.097786   10.871301  0
 38.440357   37.249359   10.782904  0
 46.757812   37.843018   13.032066  0
 47.324272   39.498116   13.211353  0
 36.854435   37.866619   10.366301  0
 37.938206   37.927246    9.757707  0
 52.736404   40.441414   11.137195  0
 50.652637   39.344769   11.717215  0
 40.641266   37.645611    7.580955  0
 39.409256   37.564522    8.888686  0
 54.479141   39.878456    7.848914  0
 55.299004   40.448277    9.108723  0
 41.741280   37.656395    6.673192  0
 37.618179   39.333672    7.428019  0
 38.820686   38.223686    6.981665  0
 33.181274   41.150810    7.132163  0
  5.259257   42.649982    9.068948  0
  5.739040   42.150814    7.992451  0
 54.039265   40.835438    6.689145  0
 53.396683   39.350830    5.622990  0
 48.711052   41.428616    5.315564  0
 50.804386   40.471996    4.958367  0
 42.186207   37.520893    5.068530  0
 39.728203   37.821144    5.845875  0
 48.853184   41.270824    4.173906  0
 39.769806   38.036064    3.843035  0
 32.304085   40.928883    5.311316  0
  5.131414   41.874180    6.889991  0
  7.513265   43.532715    7.035301  0
 49.915699   41.409470    2.931648  0
 40.237068   38.348881    1.693741  0
  4.159131   42.018860    6.097414  0
  6.324183   43.145218    6.448297  0
 50.005554   40.933495    1.910189  0
 41.289837   38.136070   -0.064165  0
 50.512630   42.765568    1.905237  0
 49.779171   41.992630    0.647795  0
 40.024937   38.406063    0.307714  0
 38.800850   38.966816    1.046946  0
 39.988285   38.833401   -1.153808  0
  2.936753   42.364754    4.915749  0
  1.766809   42.388069    2.486421  0
  2.437625   42.086685    1.680535  0
 50.654629   42.705887   -0.131379  0
 43.634396   38.923439   -2.317252  0
 42.130604   38.566109   -2.097322  0
 32.726257   41.505722    4.134179  0
  3.539253   42.290779    1.173186  0
  3.293880   43.380928    0.831320  0
 50.003532   42.128151   -0.282701  0
 46.953564   40.832310   -1.910227  0
 44.478287   40.153656   -3.045700  0
 42.860569   39.959442   -3.620439  0
 41.214390   39.308743   -2.751786  0
 39.683807   39.842091   -2.202519  0
 40.827744   40.487305   -3.172940  0
 48.853645   42.133617   -1.260679  0
 47.076427   41.882160   -1.935951  0
 45.475609   41.572060   -3.005136  0
 43.682098   41.126575   -3.879363  0
 35.675816   41.511051    1.986114  0
 35.301575   42.284225    2.090402  0
 36.270714   42.859066    0.776883  0
 33.652714   42.311073    3.379810  0
 26.008547   46.736866   -4.927885  0
 25.973589   46.831860   -3.860060  0
 26.610941   46.770710   -3.513410  0
 14.670269   42.347176   -6.327640  0
 11.887853   41.189175   -5.378783  0
  8.410147   42.985939   -2.667860  0
 42.165943   41.140965   -3.774267  0
 36.837887   43.545090   -0.072359  0
 27.099419   46.974380   -4.410261  0
 10.210571   43.121204   -3.600865  0
 38.055748   43.837044   -2.690927  0
 27.452110   47.254681   -4.700742  0
 27.904943   46.263802   -5.534037  0
 26.183971   45.724396   -6.869429  0
 24.103199   45.915005   -6.553497  0
 19.854900   45.065971   -5.567103  0
 17.284746   44.353661   -5.629138  0
 30.431219   46.489700   -7.136082  0
 29.374430   46.231449   -6.116533  0
 28.223082   47.691669   -4.942361  0
 25.204037   44.493568   -7.966541  0
 23.457508   44.602448   -7.507463  0
 37.765114   43.844803   -4.166557  0
 31.341413   45.567478   -8.936451  0
 36.345692   45.984848   -7.831788  0
 32.179882   46.089497   -9.142452  0
 33.576843   46.064384   -9.067412  0
 17.067457   45.225773   67.318527  0
 17.313129   43.882950   67.263306  0
 13.449377   46.246609   66.313225  0
 12.483301   46.038391   65.382607  0
 20.363567   43.900238   66.345459  0
 18.980200   44.579544   67.054886  0
 20.719160   45.715591   66.135544  0
 24.100538   45.048695   64.989937  0
 25.861809   43.429703   64.023453  0
 12.966661   44.989426   61.380249  0
 26.948402   44.509869   61.498390  0
 27.716873   43.133850   60.608189  0
 27.201771   44.366871   59.775570  0
 24.145819   45.119968   56.487579  0
 25.374819   45.949867   58.494465  0
 37.382393   45.484692   59.122955  0
 35.828766   45.968822   59.731777  0
 33.850922   46.195984   60.404560  0
 31.714499   46.689537   60.457317  0
 30.170723   47.275402   59.741405  0
 12.427752   44.080002   58.149090  0
 12.241370   43.328541   55.723934  0
 39.833199   46.273235   56.609230  0
 28.839304   45.684776   59.557575  0
 28.144875   44.787437   59.151340  0
 21.671011   45.503479   54.300156  0
 40.096741   47.269108   54.997150  0
 40.234512   46.663795   53.835518  0
 39.210396   47.426868   53.161491  0
 38.452194   46.880001   51.984150  0
 36.960777   46.927639   51.183861  0
 27.117306   44.686275   56.272488  0
 26.321062   44.339512   54.529785  0
 24.827620   44.759407   52.669907  0
 31.855436   45.470043   47.966503  0
 23.697609   45.010708   51.227024  0
 21.926846   45.667892   49.128357  0
 42.953907   46.204712   51.394627  0
 44.133755   46.416885   50.950245  0
 45.135506   46.236290   50.059826  0
 41.215977   47.271084   51.636250  0
  9.714337   43.611389   46.965294  0
 45.854057   46.801399   48.858665  0
 39.755360   45.928299   51.323483  0
 38.046879   46.351055   50.522514  0
 38.538540   47.380409   51.022633  0
 31.171339   45.313080   43.739651  0
 31.213871   44.935112   45.661076  0
  7.731045   42.841076   44.202759  0
 46.583649   47.036537   47.295876  0
 36.682854   46.981789   48.862991  0
 35.825920   46.939846   47.476315  0
  8.509748   41.939110   42.332378  0
 49.095383   47.038052   43.410606  0
 46.808048   47.263531   44.710182  0
 34.617489   44.974850   45.741726  0
 30.355320   43.858604   41.781654  0
 10.325618   41.129776   41.143150  0
 49.353668   46.469906   41.371399  0
 47.260525   46.741215   41.805820  0
 45.508156   46.663132   42.404423  0
 45.104076   47.034195   44.493488  0
 45.428398   47.238220   47.183243  0
 44.008877   46.349567   43.932274  0
 44.432053   46.970055   45.882248  0
 42.887550   45.763496   43.180153  0
 43.058914   46.768326   45.684471  0
 14.392332   41.815029   38.898399  0
 45.933376   45.576424   40.156822  0
 44.089218   45.160954   40.762962  0
 41.721035   45.296429   41.290096  0
 41.652405   46.126060   43.725281  0
 34.920406   45.413445   43.408321  0
 30.175579   45.554424   40.817226  0
 29.470890   44.250729   39.361855  0
 15.750097   42.901634   37.641975  0
 40.728996   44.520390   37.956615  0
 33.053211   44.753990   38.860321  0
 32.243038   44.020679   36.910393  0
 28.715034   44.568138   37.470123  0
 40.247635   43.210518   33.306221  0
 32.469563   44.540573   34.948097  0
 29.037222   45.029453   35.601349  0
 16.313877   44.097130   35.008797  0
 31.830685   43.832298   34.267090  0
 40.515293   42.475124   31.850048  0
 31.210938   44.009399   33.053791  0
 30.560719   44.815697   32.541264  0
 55.928658   45.866310   35.846348  0
 54.244507   45.709457   37.472519  0
 52.232765   45.122829   37.494492  0
 32.748951   44.760643   32.682983  0
 13.181773   45.780766   33.338303  0
  7.124309   46.223446   34.279266  0
  7.984627   46.859146   33.697624  0
 57.717663   45.458687   30.416672  0
 47.305389   43.126514   33.592422  0
 11.579012   46.755241   33.057262  0
  9.304254   47.222733   33.015209  0
 57.762543   45.259735   28.306894  0
 42.675156   42.931133   31.312021  0
  5.253514   44.682888   28.122894  0
  7.048890   44.264343   26.806267  0
 56.867115   44.563610   26.911947  0
  9.943724   43.944977   24.959518  0
  8.597946   43.731819   25.713604  0
 10.910653   44.326778   23.556150  0
 53.395428   44.515411   23.288769  0
 10.879945   43.965775   23.054605  0
 53.134102   45.794605   21.552204  0
 41.185932   43.353104   21.520792  0
 53.269821   44.024128   21.249609  0
 53.118000   45.239536   20.902822  0
 43.676640   43.693573   20.148233  0
  8.183955   44.284332   21.757812  0
 54.143894   44.733459   20.554207  0
 57.857029   44.622025   20.158268  0
 47.195782   41.857792   17.696878  0
 48.962669   41.036381   16.430489  0
 52.546074   40.073986   14.355662  0
 39.873981   41.553757   18.473568  0
 60.386497   41.439861   15.303238  0
 60.082840   40.388691   13.148111  0
 59.187229   39.468052   12.853545  0
 57.920429   39.501339   12.483236  0
 56.290398   39.735718   12.671008  0
 50.752289   41.656811   14.933948  0
 37.760975   39.147816   15.555647  0
 60.628593   41.803818   13.672034  0
 54.982800   40.876064   12.865897  0
 52.802299   41.279293   13.964312  0
 36.799335   38.499809   14.713839  0
  6.158846   43.878307   15.818165  0
 58.966125   40.925640   11.380319  0
  7.301447   44.934986   14.548568  0
 41.742241   40.564453   16.181664  0
 38.346867   38.568798   14.550541  0
 38.968052   39.836159   15.781365  0
 35.266300   38.333862   11.797746  0
  7.027175   45.085812   14.042149  0
 44.345776   40.839947   15.851769  0
 43.029076   40.071808   15.708566  0
 36.109371   37.887756   11.264979  0
 46.032825   39.365936   14.051162  0
 46.680630   41.083111   13.804357  0
 45.711384   41.031284   15.046889  0
 33.121956   41.269581   10.009116  0
  4.768091   44.034176   12.750383  0
 48.885628   40.081951   12.412663  0
 49.553936   41.860863   11.902121  0
 47.446095   41.926651   12.979248  0
 37.355862   38.924122    9.412705  0
  3.953339   44.092331   11.935843  0
  4.311333   43.576847   10.431166  0
 54.765617   40.758484   10.593576  0
 50.605389   40.502632   11.727053  0
 55.866131   41.680111    7.867860  0
  6.175071   43.370277    8.509185  0
 52.936211   41.434826    5.734921  0
 51.865219   41.815464    5.563017  0
 50.342857   42.940975    6.415779  0
 48.757050   43.408997    7.052725  0
 47.801437   43.199123    6.895147  0
 47.374470   42.786488    5.724325  0
  7.760453   44.163177    7.741981  0
 48.568455   42.501728    4.109053  0
 47.591427   44.074982    5.027647  0
 37.731541   39.075340    3.645979  0
 37.170666   39.586517    5.181596  0
  7.430422   44.215412    6.392347  0
 50.112240   44.749741    3.048992  0
 50.949238   43.265579    0.618459  0
 51.156693   43.885475    1.197596  0
 38.172363   39.837692   -0.596734  0
 37.133614   40.036320    1.104709  0
 38.199333   41.043903   -1.704872  0
  4.295458   43.511120    5.504477  0
  1.493436   43.337799    2.719728  0
  1.549502   43.928829    1.222442  0
 51.108196   43.718258   -0.098311  0
 50.412098   43.128006    0.029713  0
 39.508167   40.939140   -2.937083  0
 33.961166   43.565845    3.081101  0
 26.893330   47.659969   -2.459029  0
 47.864468   42.723339   -0.858796  0
 46.052555   42.977001   -1.565831  0
 44.309006   42.568848   -3.649454  0
 43.291759   42.027126   -4.489076  0
 40.114441   42.356377   -3.336093  0
 34.543446   44.509361    1.325068  0
 26.936798   47.635693   -3.008980  0
 23.682402   46.824650   -5.172149  0
 12.677474   42.388271   -6.352349  0
 12.152440   41.928844   -5.622460  0
  4.699319   43.873535    0.268244  0
  6.990321   43.615395   -0.611154  0
  8.496870   43.516914   -2.457510  0
 27.752481   48.215569   -3.206383  0
 11.692420   42.577003   -4.412393  0
 37.341721   45.199615   -1.876526  0
 37.448769   45.689976   -3.407527  0
 37.267418   45.969498   -5.391049  0
 29.473881   47.845123   -5.731516  0
 28.488272   48.330551   -5.225694  0
 31.246519   47.353092   -7.013944  0
 36.990879   46.787022   -7.199398  0
 32.863316   46.961517   -8.445580  0
 34.239880   46.757893   -8.821691  0
 16.632877   47.204796   66.855324  0
 18.623037   46.594181   66.766853  0
 20.043573   47.623116   65.711990  0
 12.535361   46.463253   64.476730  0
 21.952690   47.354530   65.140633  0
 12.677514   46.621357   63.449131  0
 25.601942   45.452080   63.395870  0
 12.795251   45.903202   61.655907  0
 12.492629   44.853275   59.838959  0
 23.440311   46.943581   56.830715  0
 21.895378   46.725357   55.172359  0
 38.602398   46.378246   57.746925  0
 27.385820   46.178173   57.741894  0
 39.245872   48.615692   53.787727  0
 37.905651   48.773659   52.749687  0
 36.151409   49.311680   51.470749  0
 35.126156   48.387772   50.637089  0
 25.700016   45.940609   55.392887  0
 10.603918   43.374233   51.523502  0
 11.176745   43.306610   53.884090  0
 24.875092   45.600788   53.967590  0
 33.770329   48.285458   49.840088  0
 32.894936   47.801456   49.063457  0
 21.016903   46.929550   50.299194  0
 11.429310   43.342464   49.090027  0
 21.661970   46.649231   49.295959  0
 22.548401   45.604816   49.877155  0
 43.944130   47.633629   50.337154  0
 42.850227   47.810123   51.325527  0
 42.676823   48.813725   50.754253  0
 41.061096   49.035816   51.286663  0
 40.000881   48.715527   51.377834  0
 37.928551   48.332188   50.220551  0
  9.959073   45.358795   47.308914  0
 44.762299   47.410591   49.021400  0
 43.279160   48.211922   49.153904  0
 42.245560   49.094727   50.075008  0
 36.646778   48.770599   48.192696  0
  7.716238   43.375290   45.610268  0
  7.517263   44.648880   45.974110  0
 44.119225   47.341541   47.552563  0
 41.763870   49.067501   48.967129  0
 41.071514   49.093197   50.231861  0
 41.042488   49.660633   49.189472  0
 35.920223   47.587826   46.411007  0
  7.113289   44.290279   44.840092  0
  7.052706   43.968204   42.859207  0
 41.525188   47.803921   46.566246  0
 40.505394   49.759991   48.361553  0
  8.771738   41.981266   41.000687  0
  7.422201   43.317940   41.152008  0
 40.985294   47.053673   45.063591  0
 40.474556   48.016167   45.713123  0
 39.954594   48.902893   46.861279  0
 12.716384   41.964638   38.732391  0
 10.613485   41.480370   39.538368  0
  9.462783   41.503338   40.102150  0
  8.846509   42.756847   39.194866  0
 40.300686   47.278790   44.549736  0
 13.892700   43.067047   37.779881  0
 11.179903   42.923157   37.745117  0
 40.847099   46.452072   42.782673  0
 34.087399   44.669037   40.922508  0
 40.916775   45.733143   40.498020  0
 16.011265   44.095119   36.298244  0
 33.180805   46.027218   37.589169  0
 40.538029   44.933250   36.997326  0
 33.192230   46.005733   35.979252  0
 29.955675   45.602535   33.795395  0
 55.919701   47.088791   34.587650  0
 56.409069   47.996162   31.763584  0
 54.758564   46.949524   36.554771  0
 52.674278   46.377483   37.547459  0
 50.466953   45.299877   36.797714  0
 32.188110   45.354885   31.329483  0
 33.476063   46.371845   31.209272  0
 49.021465   44.506363   35.733391  0
 41.599129   44.038002   32.538300  0
  6.150057   46.290241   33.270378  0
 44.582512   43.365704   32.729996  0
 31.722094   46.428490   30.705853  0
 14.761818   45.809269   31.749388  0
 15.618528   45.849991   31.989958  0
 12.907716   46.697662   32.301117  0
  6.998689   47.042885   33.001369  0
  5.620376   46.796471   31.886967  0
 57.423862   46.478928   28.938316  0
 14.652591   46.234737   30.137020  0
 12.708775   47.051434   31.033182  0
 11.055606   47.504761   32.095695  0
  5.481397   46.671017   29.595905  0
 57.794518   46.188629   28.020521  0
 52.783070   46.563923   27.892504  0
 52.138550   46.407959   28.409851  0
 55.707802   47.381084   28.644562  0
 56.318424   46.761833   27.994158  0
 49.493469   45.924522   27.649561  0
 48.964817   45.964130   28.318956  0
 50.529514   46.495441   28.787380  0
  6.511787   45.573513   27.416832  0
 57.457924   46.102783   27.456816  0
 45.976002   46.241924   27.860794  0
 57.952660   46.576691   25.907375  0
  7.949193   44.465210   25.336239  0
 56.939922   45.853977   25.006771  0
 55.239872   45.690693   23.540775  0
 10.665490   45.913979   23.143967  0
 53.877129   46.044758   22.217327  0
 10.424356   45.902245   21.399181  0
 53.602448   46.912380   20.651514  0
  9.077035   45.755424   20.781023  0
  6.415182   44.946999   20.472248  0
  4.872899   44.426537   20.436998  0
 56.389008   45.779434   19.900074  0
 54.340237   46.515816   19.766991  0
 59.574261   43.913826   18.790369  0
 59.002087   45.245033   19.171738  0
 58.480286   46.388569   19.164959  0
 47.216251   43.406384   17.753635  0
  4.579468   45.055443   18.414310  0
 60.335480   43.784885   17.093674  0
 60.042976   45.629906   17.203161  0
 50.336197   43.073963   15.322991  0
 40.643673   42.688515   18.943771  0
  4.323116   44.068592   17.329386  0
 60.711067   43.849262   14.461581  0
 39.880688   40.949818   17.048676  0
 60.480900   43.806889   12.486416  0
 53.273506   42.498207   14.009486  0
 40.973785   41.580296   17.723532  0
  5.557335   44.504223   16.724766  0
  7.352742   45.695641   15.266566  0
 59.829895   42.476040   11.162021  0
 57.244957   41.471783   11.377018  0
 55.707481   42.398048   12.379865  0
 42.576809   42.067921   17.604919  0
 43.493359   42.054840   17.283264  0
 44.944584   42.233414   16.216757  0
 34.890125   39.833832   11.104608  0
 34.171803   40.739586   11.093863  0
 45.767086   42.322433   15.229554  0
 46.313450   42.393078   14.246455  0
 35.675140   38.904331   10.552639  0
  6.446249   45.598858   14.169703  0
 48.272415   43.288593   12.446383  0
 36.537407   39.460094    9.884951  0
 56.393349   41.130871    9.169943  0
 56.175777   41.063568   10.145254  0
 53.420776   41.726879   11.322025  0
  5.484495   44.328484    9.188976  0
 57.889706   41.971031    9.151148  0
 49.375118   45.093502    7.628213  0
 52.453335   44.482857    6.079434  0
 55.576012   43.291592    6.841112  0
 53.997112   43.846561    6.008435  0
 46.932484   44.628681    7.973204  0
 46.473812   44.328171    6.697290  0
  7.466237   45.459476    8.502990  0
  8.157088   44.880157    6.984841  0
 36.140064   41.021694    5.272020  0
 36.123581   41.006165    2.352131  0
 50.806950   45.051254    1.757051  0
 36.548687   40.912083    0.912756  0
 35.613480   41.915516    3.373929  0
 50.939476   44.259495    0.586650  0
 37.452690   42.070896   -0.228479  0
 33.114723   42.158508    4.697716  0
  5.796285   44.494644    5.918241  0
  3.003822   44.202923    4.352484  0
  1.253257   44.811741    1.985962  0
 38.637310   42.644527   -2.131817  0
  1.580013   45.294693    1.265829  0
 50.029827   43.952412   -0.403877  0
 47.583599   43.821484   -0.375463  0
 49.753662   45.585014    0.682628  0
 46.615421   44.826920   -0.350399  0
 44.944611   43.813980   -2.021592  0
 43.286022   42.899391   -4.528151  0
 43.364426   43.918064   -3.810972  0
 41.676659   43.508446   -4.086912  0
 42.495377   42.701069   -4.274562  0
 35.003139   45.539848    0.090447  0
 21.196228   47.495453   -4.838174  0
 19.400053   46.090111   -5.336896  0
  8.439539   43.899437   -1.836928  0
  6.744879   44.626194    0.022183  0
 15.370865   44.403503   -6.379305  0
 13.811238   43.998993   -6.839976  0
 12.165218   42.832306   -5.913513  0
 10.531008   43.534843   -3.206522  0
 36.760559   46.855999   -2.186693  0
 29.101202   49.619408   -3.587849  0
 29.180071   49.264023   -4.956183  0
 37.027527   47.790615   -3.790417  0
 36.866341   47.921043   -6.393011  0
 32.446251   48.134449   -6.992428  0
 33.919220   47.619019   -8.003916  0
 35.827557   47.516708   -7.617033  0
 14.876150   48.108547   66.157837  0
 13.326210   47.635639   65.265404  0
 18.180498   47.877487   66.147591  0
 23.037113   47.948574   64.234161  0
 12.989590   47.921146   63.767750  0
 25.258919   47.199009   61.913765  0
 23.923513   48.231804   63.085732  0
 12.888093   47.732559   62.546108  0
 26.203072   45.965626   60.459492  0
 24.749622   48.347698   59.987228  0
 12.500389   46.715805   61.255466  0
 24.153366   48.047512   58.079803  0
 11.889370   45.611370   60.017868  0
 10.982035   45.055332   58.518154  0
 36.137455   48.743511   58.146370  0
 37.850422   49.608768   56.042709  0
 34.176971   49.911560   58.536732  0
 32.871502   49.270557   59.276699  0
 31.286690   48.751198   59.372116  0
 27.464828   48.308926   57.868359  0
 29.295858   49.139950   58.519806  0
 20.761721   47.425568   52.262611  0
 10.668242   44.210247   56.343769  0
 38.574947   49.985645   54.185806  0
 25.690264   47.646515   56.262276  0
 24.494362   47.060371   54.287254  0
 23.585058   46.486412   52.045071  0
  9.618943   44.298870   50.284458  0
  9.305936   44.200706   51.549202  0
 33.055866   48.833668   49.410900  0
 10.383491   45.193424   48.345348  0
 22.918089   46.498138   50.573425  0
 32.431160   46.525578   46.875095  0
 22.167109   47.132881   49.002605  0
 39.832512   49.403282   50.896530  0
 38.116684   49.814754   49.422539  0
 21.845875   47.956268   48.483078  0
 39.917229   50.067596   49.805183  0
 37.802517   50.016624   48.354317  0
  8.080644   45.532146   46.376423  0
 39.152107   50.167171   48.093819  0
 37.063065   49.222073   46.743492  0
  6.745872   45.781666   42.662739  0
 38.107964   49.489086   46.833618  0
 36.597336   48.222553   45.689232  0
 30.680706   45.427708   41.915649  0
  6.534191   44.800755   41.389210  0
  6.430115   45.150906   40.449551  0
 39.227619   48.117275   45.290401  0
 35.959724   47.140858   44.092461  0
  7.606733   44.832706   39.172222  0
  9.831016   43.640705   37.585564  0
  8.689675   44.317856   38.020279  0
  7.958606   46.521198   38.580414  0
 35.174736   46.651218   42.199059  0
 34.340931   46.831413   40.456146  0
 12.618877   44.022491   37.070881  0
 11.100343   44.851856   36.965405  0
  9.449004   45.416134   37.433994  0
 14.182305   44.507042   36.922825  0
 12.884454   45.387726   36.693180  0
 28.813822   46.152828   38.776569  0
 14.450587   45.402573   36.361012  0
 33.725922   46.782326   38.990215  0
 40.827873   44.292828   33.638866  0
 41.166512   45.492958   36.566559  0
 34.196007   46.221451   32.611809  0
 34.745255   47.045822   33.401512  0
 54.900288   48.412937   35.182724  0
 53.458271   48.431400   36.875580  0
 50.926796   46.534645   37.317818  0
 30.618488   45.960220   32.560581  0
 47.572872   44.102318   35.254559  0
 46.311283   43.619431   34.120251  0
 44.852615   43.826183   34.466843  0
 42.682091   43.970287   32.424973  0
 30.860899   46.151188   31.619394  0
 16.000378   45.269066   34.438606  0
 15.735701   45.916565   32.680260  0
 56.280907   48.216267   30.014019  0
 54.487282   49.301991   29.977377  0
 55.408527   49.527317   30.690882  0
 52.661579   47.518150   29.184025  0
 52.761677   49.036446   29.781630  0
 49.565273   47.615780   29.362259  0
 32.616966   47.429409   30.490849  0
 30.638569   48.452633   30.349131  0
 15.772538   46.262699   30.448870  0
  7.365442   47.611290   32.460838  0
 46.386696   47.455971   29.334915  0
  7.030110   48.198368   31.310484  0
 44.730652   47.162766   28.772415  0
 13.896510   47.312347   29.189142  0
  6.178977   46.946743   28.385227  0
  6.503991   48.213894   30.181313  0
 54.032249   46.966610   27.773348  0
 46.866890   46.302940   27.228949  0
 57.219906   47.076294   27.770378  0
 57.793324   47.485638   26.663626  0
 55.442509   47.863358   27.821392  0
  6.891596   45.314640   26.485868  0
 57.872955   46.980362   24.955767  0
 57.655708   48.430828   25.044186  0
 51.861641   48.006596   27.383926  0
 50.032776   47.185848   27.177816  0
 48.453678   47.563030   26.809139  0
  9.743497   45.498520   24.011839  0
 56.657848   46.706699   23.856686  0
 57.256001   47.749306   24.062984  0
 54.565464   47.607323   21.662525  0
 56.056984   47.806309   22.891479  0
 40.243641   44.138287   20.896788  0
 42.463467   44.685799   20.197971  0
 39.207954   43.731251   20.602425  0
 54.941975   48.620800   19.837603  0
 45.053677   45.006191   18.639824  0
 40.364857   44.093761   19.601202  0
 46.948723   44.561798   17.561857  0
 59.123734   47.635788   18.255564  0
 57.848900   47.713039   19.128778  0
 56.484104   48.400887   19.301773  0
 49.111649   44.218307   15.929068  0
 60.459736   46.335033   14.632877  0
 59.865501   47.850956   16.668140  0
 41.415337   44.038097   18.737314  0
 42.341759   42.820503   18.162306  0
  5.470618   45.312260   17.668756  0
 53.035896   43.633675   13.854136  0
 50.216053   44.466572   14.899792  0
 43.660286   43.227509   17.230198  0
  6.574250   45.350365   16.763891  0
  7.555001   46.474594   15.502851  0
 58.728096   42.410374    9.979018  0
 59.399841   44.207561    9.937747  0
 57.550457   41.994797   10.575138  0
 45.138187   43.779335   15.579900  0
 46.405602   43.483616   13.896528  0
 34.803860   41.478931    9.675717  0
 36.210365   40.599396    9.656167  0
  4.865852   45.513111   13.621527  0
  3.955247   45.844921   12.965732  0
 55.878475   42.412384   11.620935  0
 53.979752   42.920647   11.910848  0
 51.403599   43.373142   11.810622  0
  4.054590   45.687508   11.382744  0
  5.194042   45.576469    9.843945  0
 57.404915   43.337978    7.643462  0
 58.364021   43.972099    8.247291  0
 33.883480   41.574665    7.468499  0
 54.174061   45.379189    6.101069  0
 52.460678   47.166916    6.522888  0
 50.371174   47.048847    7.657049  0
 47.602112   46.522285    9.034128  0
 46.038792   46.411968    9.019926  0
 45.652927   46.217686    7.932757  0
 46.040291   46.266125    6.983246  0
 36.446152   40.972195    7.655719  0
  9.210487   47.222050    7.879292  0
 46.921127   47.144894    6.288588  0
 49.413673   46.637402    3.715087  0
 50.343922   47.020832    2.579534  0
 49.905922   47.677067    1.810520  0
 48.843025   47.419476    0.889454  0
 36.600647   43.110573    0.780834  0
  4.270248   45.267834    5.616943  0
  3.015163   46.102024    3.002391  0
 46.653900   46.376144    0.024472  0
 47.200813   47.744164    0.809188  0
 44.514011   45.744003   -1.510114  0
 45.831875   46.652317   -0.051649  0
 38.169697   43.891228   -1.375438  0
 27.869349   48.175964   -1.559268  0
 27.610884   47.925941   -1.275832  0
 43.116135   45.375908   -3.197627  0
 39.217598   44.016674   -2.632104  0
 40.795864   44.257980   -3.344987  0
 33.562992   46.547539    0.847855  0
 34.047947   45.282715    2.531514  0
 26.613033   47.247372   -3.423407  0
  3.052126   45.670013    0.806573  0
 42.333244   44.782093   -4.256198  0
 28.340429   48.856266   -1.328192  0
 28.563488   49.105976   -2.167493  0
 19.541306   47.476997   -5.316202  0
  9.454845   44.175816   -1.874198  0
  8.062813   45.463032    0.070806  0
 34.014744   47.467621   -0.121771  0
 34.933990   47.244400   -0.810121  0
 29.029839   49.408417   -2.635749  0
 17.669693   46.222847   -5.344543  0
 12.397255   43.577126   -6.329900  0
 11.866466   43.607677   -4.898241  0
 35.367085   48.446285   -1.524234  0
 36.293129   48.395664   -2.400614  0
 29.784607   50.734562   -3.837288  0
 36.469059   49.270584   -3.310812  0
 36.604465   49.490917   -4.930744  0
 30.677883   50.919380   -4.615300  0
 31.052876   50.063240   -5.591175  0
 35.846184   49.311237   -6.025964  0
 35.261467   48.498440   -6.689289  0
 33.541023   48.604012   -6.835929  0
 16.935242   49.057476   65.700081  0
 13.989370   48.691128   65.072929  0
 19.413584   49.780323   65.046867  0
 21.280666   49.637741   64.472603  0
 23.711075   49.652367   61.904705  0
 22.418648   50.516293   63.160328  0
 13.871058   49.212772   63.741882  0
 13.631064   49.237011   62.430882  0
 23.840960   49.570732   58.323616  0
 12.314425   47.824322   61.099815  0
 22.887859   49.219658   56.484310  0
 10.888148   46.832012   59.793118  0
 31.810980   51.029873   57.995323  0
 21.147278   48.763214   54.012417  0
 36.411716   52.649292   55.197811  0
 35.347820   52.044918   56.577305  0
 37.430275   51.609318   54.679134  0
 27.590603   50.586296   57.125053  0
 29.262445   51.258949   57.399509  0
  9.360506   44.367943   54.866959  0
  9.250848   45.322235   56.784039  0
 25.960938   49.746071   56.157028  0
 25.036291   48.883274   55.411045  0
 24.542908   48.954037   54.022774  0
  8.339170   45.139008   54.573978  0
 37.127850   51.776115   53.615189  0
 35.952126   51.285961   52.463150  0
 35.032864   50.894367   51.116749  0
 24.038643   48.146400   53.278061  0
  8.131350   45.117821   52.835304  0
  8.638026   45.208675   50.813477  0
 33.791748   50.226780   50.118332  0
 23.698875   47.888390   51.369595  0
 32.822777   49.498623   49.440006  0
 33.773029   48.619469   48.277641  0
 23.509962   47.876289   49.836266  0
 32.891598   47.050323   45.010925  0
  6.998218   45.816799   45.021584  0
 37.339985   48.493992   45.128040  0
  6.176980   46.616692   41.289566  0
  6.252682   46.549137   39.817238  0
 29.593908   46.960831   40.103722  0
 12.032002   47.073971   36.711857  0
 10.620804   46.738602   37.232437  0
 41.442142   46.467449   40.066460  0
 34.192055   47.827000   37.856697  0
 33.910927   47.073620   36.501266  0
 41.836433   45.512268   36.042801  0
 34.683960   47.357117   34.696617  0
 29.734400   46.505241   36.249706  0
 42.425434   45.114174   35.226715  0
 48.567402   45.607430   36.652515  0
 49.016800   47.316769   37.537731  0
 47.113625   44.746513   36.277058  0
 47.682098   46.960800   37.698513  0
 49.603416   46.258503   37.140038  0
 45.371376   44.243587   35.807323  0
 46.188881   45.399128   37.092201  0
 44.370621   45.587303   36.837669  0
 43.397484   44.645283   34.822460  0
 54.657063   50.264545   32.923870  0
 51.823074   48.522305   37.386768  0
 50.496284   47.980274   37.448708  0
 35.223007   48.278755   32.500366  0
 55.184341   50.009418   31.653587  0
 30.784006   46.966518   31.914598  0
 30.369833   47.871914   31.111050  0
 51.038273   50.357506   30.460396  0
 50.667553   49.345146   29.865673  0
 49.696712   50.275284   30.497246  0
 47.684071   49.487148   30.653545  0
 34.147884   49.259632   31.493305  0
 44.282978   49.351448   30.762302  0
 31.248663   49.134510   30.290070  0
 15.206491   47.358562   29.111151  0
  8.926003   48.339802   32.154037  0
 44.502644   47.101574   27.823195  0
 43.493973   47.731987   28.487804  0
 11.268456   48.144539   30.869267  0
  9.751369   48.834591   31.519865  0
  7.956833   48.963245   31.350325  0
 12.543183   49.454082   28.586006  0
 12.149606   48.500237   29.757650  0
 46.177895   47.184921   27.201374  0
 56.722267   48.469933   27.329025  0
 53.962414   48.338577   27.499426  0
 53.825291   49.455139   27.263584  0
  6.267512   45.787708   26.133425  0
  6.599318   45.393482   24.650402  0
  7.960959   45.414383   23.983177  0
 52.338295   49.978401   26.812336  0
 49.890900   48.787251   26.384544  0
 56.869919   49.551250   23.584770  0
 56.032585   49.626240   22.424128  0
 41.744984   45.005470   19.571262  0
 55.433262   49.692638   21.346996  0
 44.352703   45.360291   18.242428  0
  9.300802   46.700035   19.505703  0
  6.259283   45.711903   19.372732  0
  4.811138   45.267265   19.361221  0
 10.349999   47.121880   20.633347  0
  8.347047   46.912064   17.700813  0
  7.913232   46.411545   19.160730  0
 56.523239   49.960281   19.387375  0
 57.935200   49.557419   18.821135  0
 47.603764   45.165882   16.105932  0
 59.514629   50.099731   15.710907  0
 58.875561   50.174290   17.571676  0
 42.469055   44.668186   18.070665  0
  6.588866   45.706356   17.448299  0
  8.058057   46.618618   18.260159  0
 59.933510   48.499027   12.760678  0
 43.822315   44.380104   16.788260  0
 43.641884   45.220161   17.462284  0
 44.725849   44.868687   15.964764  0
  7.917011   47.636311   16.892179  0
 59.605999   47.441360   10.808440  0
 53.675777   43.748966   12.734070  0
 51.347603   44.676624   13.801582  0
  6.854353   47.115726   15.574798  0
 59.190845   46.086227    9.426048  0
 52.115852   44.406517   12.723935  0
 45.867233   44.788364   14.872865  0
 47.332260   44.459198   13.526228  0
 48.237095   45.115150   14.012550  0
 58.372059   46.274059    8.253323  0
 50.742527   44.380482   12.366266  0
 49.292107   44.312035   12.544460  0
  4.796656   46.636093   14.247499  0
 35.752647   41.405441    8.817432  0
  5.330442   46.934635    9.752360  0
 48.087925   49.131134    9.780772  0
  6.812291   47.357147    9.119026  0
 56.973545   44.942814    7.071796  0
 55.681568   46.857723    6.954982  0
 53.620571   47.898216    6.656322  0
 52.018902   49.235100    7.292860  0
 45.201294   47.873940    9.346073  0
 45.295055   48.681797    8.740262  0
 34.770222   41.713364    6.196304  0
 33.842247   42.498585    4.792283  0
 35.094288   42.730228    3.135998  0
 48.521614   47.689274    4.727834  0
 49.078712   48.147587    2.925503  0
 34.276791   43.276634    3.537171  0
  7.371562   46.062851    6.610970  0
 35.777699   43.323318    1.811374  0
 35.937824   44.597580    1.620088  0
  3.553979   45.868748    4.848639  0
  4.216292   47.293934    5.899390  0
 48.139336   48.366184    1.687280  0
 45.416199   47.033230    0.726856  0
 44.757145   46.698868   -0.584332  0
 44.376694   47.317375    0.727594  0
 36.762939   44.766167    0.538958  0
 43.829323   46.353683   -2.559248  0
 37.189991   44.729618   -0.661962  0
 38.218536   45.866184   -2.343401  0
 28.063761   48.640503   -0.249625  0
 42.952084   46.481834   -3.354655  0
 40.362911   45.634068   -3.095677  0
  6.916049   45.564453    0.693725  0
  5.252877   46.581470    1.244470  0
  3.331401   46.950485    1.798499  0
 29.031540   49.274448   -1.498046  0
 26.242718   47.162464   -4.228934  0
  8.604085   45.418182   -0.636609  0
 32.751026   48.168488   -0.637113  0
 33.763557   48.612720   -1.419317  0
 30.174343   49.360958   -1.442209  0
 30.054594   50.361820   -2.678279  0
 15.696486   46.749187   -6.263858  0
 12.893209   44.397846   -6.920671  0
 10.798376   43.426140   -4.046257  0
 35.313957   49.286674   -2.514297  0
 30.755981   50.956436   -3.454030  0
  8.310604   43.450645   -5.250934  0
  7.258526   43.500641   -6.174317  0
  8.374063   43.718170   -7.205727  0
  7.032142   43.373367   -4.371255  0
  8.141253   43.570133   -3.477881  0
 35.749210   50.270554   -4.375535  0
 32.671238   50.575211   -5.604085  0
  5.149036   44.025211   -4.768306  0
  5.537446   43.913231   -6.296618  0
 35.675320   50.078831   -5.388502  0
 34.395851   50.024445   -5.934569  0
 17.739695   50.919273   63.975941  0
 15.448342   49.631802   64.796204  0
 22.352365   51.510078   62.344040  0
 20.559526   51.539951   63.499405  0
 15.484183   50.405396   63.522972  0
 22.823511   51.664658   60.921013  0
 15.417182   50.923668   62.667618  0
 22.929773   51.682354   58.924828  0
 13.858753   50.309849   62.098103  0
 22.586569   50.963490   56.867409  0
 12.167446   49.354485   61.206871  0
  9.110521   48.393166   59.287258  0
  9.423029   46.509151   58.468964  0
 21.258934   49.787285   54.592175  0
 33.425289   53.669609   56.166157  0
 28.969324   52.612900   56.127735  0
  7.991591   46.846828   57.153091  0
  7.407238   47.047859   55.890583  0
