#!ascii file
 55.627865   35.852264   33.687859  0
  9.950748   35.967415   31.041937  0
 57.502628   34.839790   31.229942  0
 50.938145   35.341511   31.913322  0
 49.569695   36.285660   31.950834  0
 45.124966   35.426476   31.442360  0
 43.237270   35.725624   31.240322  0
 41.455067   35.635132   31.083332  0
 40.295547   35.477982   31.203045  0
 10.814198   35.366291   30.858501  0
 11.957607   35.782082   30.569889  0
 57.256500   35.405121   30.053061  0
 13.783371   36.136120   29.629421  0
 56.650562   35.739666   28.890678  0
 13.998448   35.828773   28.817545  0
 55.353401   35.635445   27.972378  0
 53.973522   35.207310   27.982540  0
 53.545170   35.275204   27.283295  0
 13.293520   36.071384   27.682959  0
 53.138596   35.145645   26.303406  0
 52.965191   34.778053   24.997751  0
 10.027018   36.595264   25.925264  0
  6.415342   35.301373   25.789373  0
  8.172283   35.704403   25.744003  0
 53.643810   34.572414   23.843199  0
  3.931690   36.833927   23.940355  0
 54.801994   35.193428   24.314119  0
 54.990906   35.378998   23.487873  0
 35.498104   35.973373   24.001915  0
  3.622837   36.136177   23.384336  0
 42.183575   36.626396   23.257704  0
 49.854973   35.936241   22.007761  0
 34.342808   36.239933   22.031694  0
 49.037235   34.928879   19.400755  0
 48.172390   35.560169   20.430731  0
 49.000591   35.672108   21.247261  0
 34.866806   35.958088   20.935308  0
 47.071716   35.435001   19.986137  0
 45.949772   35.442589   20.582050  0
 35.756279   35.440586   19.984097  0
 37.271976   35.995163   19.063253  0
 37.504902   35.792934   18.424551  0
  3.740677   36.701683   17.412416  0
 37.306664   34.908627   16.732262  0
 36.644699   35.956875   17.885685  0
  4.387306   35.329124   16.560745  0
 35.853722   34.869957   16.234856  0
 34.660263   35.004494   15.866070  0
  6.828223   36.324844   13.624709  0
  4.761221   35.849148   15.561735  0
 33.686901   35.295799   15.129043  0
 33.615829   34.938366   12.936317  0
 32.520924   35.893589   13.822001  0
 32.062420   35.740185   12.662907  0
  7.712984   36.258400   12.255431  0
 30.583445   35.221752   10.657829  0
 30.720808   35.900787   11.709071  0
  8.146912   37.824039   11.706710  0
 30.087362   35.820740    9.630241  0
  9.698101   35.981720    8.943549  0
 30.537086   35.782784    8.674716  0
 10.398241   37.295162    6.851624  0
 31.348680   36.345367    7.012044  0
 31.292141   36.426701    7.659412  0
 30.750090   35.895172    6.266767  0
  9.900858   35.235065    4.663107  0
 29.443161   35.521122    5.590666  0
 27.717731   35.821098    4.505706  0
 10.227235   35.524220    3.116657  0
 26.670345   35.680565    2.907936  0
  9.941216   35.078449    2.119170  0
 10.653696   36.464405    1.912910  0
 25.573757   35.418690    1.759793  0
  9.804700   35.507343    0.858597  0
 17.038099   35.782215    1.079487  0
 12.062837   36.182640    1.594027  0
 10.758647   35.665730    0.914310  0
 24.071686   36.187355    0.037964  0
 23.375237   35.783276   -1.079228  0
  9.733706   35.400734   -0.400729  0
 22.592154   35.251904   -2.851963  0
 17.869717   35.636909   -1.657700  0
 16.907375   35.616230   -3.351351  0
 16.760530   34.734692   -3.932771  0
 17.191742   35.697567   -4.435009  0
 18.584455   35.208458   -4.862993  0
 41.482227   35.887779   -8.722424  0
 42.925179   35.985210  -10.039553  0
 43.010494   35.833023  -10.916254  0
 36.660809   36.312443  -11.484627  0
 36.423843   36.224293  -12.304406  0
 42.405838   35.677593  -11.403514  0
 38.711227   36.030560  -12.505293  0
 37.861095   35.986351  -13.295956  0
 37.574997   35.572926  -14.182652  0
 37.014374   36.212582  -13.269344  0
 38.106602   35.528160  -15.391480  0
 37.361164   35.833366  -15.466956  0
 38.201569   36.289448  -16.226433  0
 36.516594   36.031475  -16.099720  0
 38.375488   36.049675  -16.921526  0
 35.485470   36.468262  -16.500711  0
 31.749996   36.008167  -17.176712  0
 31.088316   37.241489  -18.337225  0
 37.530479   35.978329  -17.747690  0
 35.940399   35.977947  -18.358139  0
 30.756176   36.528015  -19.020039  0
 33.707584   37.014786  -18.759121  0
 32.293930   35.801281  -19.480827  0
 31.246328   35.744663  -19.862709  0
 31.647083   37.261639  -19.164797  0
 31.438976   35.397621  -20.597403  0
 30.784937   35.501080  -20.671040  0
 31.767258   35.858337  -21.629351  0
 32.644917   35.990532  -22.560221  0
 33.815365   35.644154  -23.285854  0
 26.182463   36.547249  -23.203041  0
 36.797668   34.956856  -24.291952  0
 34.611656   36.604465  -23.961132  0
 30.752495   35.973598  -24.429537  0
 26.653696   36.420628  -23.492098  0
 31.783484   35.974148  -24.751781  0
 33.780109   36.174999  -25.395435  0
 16.225050   36.571602   66.017448  0
 16.171768   36.701317   64.656525  0
 12.662742   37.360252   65.169243  0
 11.905938   37.559586   64.118790  0
 11.802032   36.993435   62.988270  0
 12.342014   36.570549   61.531300  0
 28.803413   35.564217   60.723499  0
 27.569330   35.627037   60.536015  0
 15.921025   36.779915   62.655338  0
 15.971807   37.001274   61.410603  0
 30.098103   36.276489   59.350941  0
 28.749676   36.092705   58.994343  0
 25.652685   36.683495   60.603588  0
 27.659250   35.938385   59.500320  0
 24.636232   37.318378   60.855175  0
 24.229771   36.757290   60.383774  0
 24.324377   37.889019   60.415806  0
 17.056690   36.843395   59.300457  0
 30.574606   36.350677   58.535831  0
 23.755953   37.444073   59.738071  0
 13.753439   36.763611   58.617172  0
 30.278492   36.807617   57.248650  0
 23.432793   37.001335   58.360535  0
 13.888661   36.742039   57.150002  0
 30.605055   37.006065   55.919769  0
 22.578878   37.469997   56.941715  0
 18.746149   36.763466   56.418083  0
 14.496457   36.188046   55.933006  0
 30.697977   36.596119   55.069462  0
 22.631102   36.663445   55.855534  0
 30.757299   36.360283   53.459938  0
 14.014116   36.075054   53.866837  0
 39.936523   35.846809   53.182686  0
 38.385712   35.807068   53.901741  0
 37.777882   35.364788   52.848816  0
 40.558659   36.521088   53.198338  0
 38.585110   36.851643   54.487461  0
 37.621716   36.012157   54.133568  0
 35.478287   36.083000   53.213230  0
 37.211346   36.814854   54.455112  0
 13.931105   35.583996   52.742046  0
 39.256702   35.390785   52.012375  0
 41.269062   35.425476   51.225574  0
 41.677803   36.197651   51.816223  0
 32.823246   37.525768   53.246971  0
 31.712873   37.194622   53.390720  0
 12.407704   36.236488   53.102448  0
 11.782301   36.353214   52.459606  0
 41.790066   36.846527   50.988575  0
 41.367256   37.003742   52.026939  0
 11.617426   36.734150   51.480915  0
 42.112247   36.306999   49.754108  0
 11.777050   35.988010   48.881428  0
 41.005711   36.096001   48.143806  0
 12.830759   36.709263   47.378082  0
 38.956539   36.321541   47.419712  0
 40.123867   36.651100   48.453861  0
 14.262699   36.482044   46.876381  0
 36.841904   35.526867   45.770683  0
 35.415535   36.198353   46.843201  0
 33.246216   36.113670   46.238770  0
 31.565557   35.982872   45.120132  0
 17.102091   36.476616   43.870140  0
 16.024555   36.690170   45.205589  0
 30.520605   35.927757   43.781471  0
 30.401373   36.957596   45.311108  0
 50.764828   37.274349   43.572105  0
 49.413193   36.597412   43.502609  0
 46.498451   36.228844   42.148952  0
 30.229420   35.930885   42.468346  0
 29.656298   36.730270   43.789749  0
 17.193550   37.211620   42.945839  0
 52.028107   36.730019   41.419628  0
 43.901058   36.269882   41.343170  0
 30.815062   35.927452   41.055351  0
 29.260027   36.969471   41.005791  0
 18.164156   37.228577   41.825840  0
 41.647144   37.010464   40.854053  0
 19.115940   36.672489   40.596401  0
 37.433601   36.583736   40.323086  0
 34.444080   36.827400   39.927666  0
 30.504875   36.885391   40.033642  0
 45.951733   36.749344   38.900326  0
 20.054308   36.407455   37.805725  0
 10.403245   36.596565   37.643375  0
 42.641151   36.803738   37.591766  0
 41.812382   37.427364   37.104183  0
 39.742893   37.129417   36.236015  0
 12.473540   37.271587   36.301933  0
 11.319029   37.211197   36.876579  0
 38.474545   36.885338   35.393475  0
 10.167948   36.878025   36.076397  0
 37.558777   36.956833   33.511627  0
 18.241192   37.045048   35.114483  0
 16.462448   37.074726   35.055389  0
 14.375241   37.514870   35.278000  0
 10.157909   36.856583   34.029636  0
 55.027290   36.374386   34.243225  0
 53.930344   37.316154   34.551186  0
 55.108276   37.019489   34.188145  0
 55.685398   36.769577   33.137600  0
  9.805387   37.581509   31.597958  0
 56.481468   35.920448   32.720432  0
 57.264347   35.824406   31.072027  0
 52.483959   37.326801   34.035877  0
 50.685390   37.333916   33.102478  0
 37.937416   37.542000   31.758062  0
  9.925425   37.613876   30.373476  0
 46.682133   36.375320   31.471474  0
 45.227013   36.946461   31.082449  0
 39.387863   36.404758   30.807955  0
 38.613876   36.959492   30.993521  0
 10.381918   37.205139   30.172871  0
 57.047298   36.415417   29.999268  0
 40.969307   37.511669   29.904325  0
 13.023736   36.897049   29.903198  0
 56.992020   36.981781   28.740835  0
 57.086216   36.717613   28.131804  0
 56.464535   36.358501   27.319294  0
 55.123623   35.779148   26.125149  0
 57.274681   37.130505   26.180725  0
 12.188045   37.122013   26.468985  0
 56.634415   36.458469   25.804050  0
 57.550098   36.634876   24.334896  0
 56.480560   35.839500   24.152300  0
  5.958153   36.671883   25.132406  0
 57.173069   36.263474   23.636576  0
 37.727840   38.505184   24.252888  0
 36.137264   37.302315   24.107761  0
 56.455879   36.405441   23.194674  0
 54.420712   35.983761   23.173943  0
 51.570576   36.241100   22.801817  0
 34.677280   36.974449   23.035198  0
 44.599365   37.019138   21.604017  0
 47.271030   36.557251   21.098005  0
 45.952667   36.607628   20.945835  0
 35.960918   37.185940   20.032923  0
 36.865685   36.954685   18.990631  0
 34.470985   35.931110   17.177864  0
 34.551193   36.793999   17.867582  0
 33.227478   36.517479   16.884525  0
 32.110359   36.706738   15.463028  0
  3.993868   37.178219   16.215544  0
  5.681782   36.333961   14.654147  0
 31.386238   37.148750   13.961736  0
  7.265902   37.347103   13.198422  0
 30.639324   37.082367   12.956059  0
 30.061491   36.288612   10.624041  0
 29.806019   36.599861   11.455713  0
 29.127525   37.510208   11.049034  0
 29.784576   36.853619    9.616343  0
  9.422889   36.789352    9.583010  0
 10.142376   37.785244    7.909272  0
 30.723026   37.241352    8.489694  0
 30.396734   37.226891    6.985855  0
 28.514523   37.252995    6.452962  0
 10.411639   36.670441    4.485028  0
 10.340933   37.512276    5.058938  0
 26.637062   36.624428    3.238158  0
 26.896677   37.753616    4.467028  0
 10.489653   36.634109    2.846530  0
 25.480812   36.667488    1.796199  0
 13.560171   37.403816    2.187487  0
 15.964752   36.985451    1.801869  0
 11.435599   36.941269    1.706231  0
 17.870279   36.774376   -0.038954  0
 17.947943   36.919254   -0.887916  0
 23.604183   36.670391   -2.096014  0
 17.596996   36.586983   -2.072657  0
 22.921284   36.025803   -3.493179  0
 17.031290   36.334618   -2.897469  0
 22.406336   35.935616   -4.575607  0
 17.204355   36.377281   -3.575801  0
 21.712610   35.471687   -5.079724  0
 19.623081   36.022179   -4.123331  0
 20.533787   36.600082   -3.877652  0
 21.173958   35.986389   -4.733198  0
 18.564222   36.826138   -3.253161  0
 41.843803   37.721920   -9.027458  0
 42.228561   38.510437   -9.567263  0
 40.894894   37.426506   -8.997885  0
 42.558067   37.048763  -10.643341  0
 37.712765   37.793739  -10.904152  0
 41.295261   37.288696  -11.345969  0
 39.302181   36.937969  -12.078847  0
 38.208290   37.057095  -12.666035  0
 37.202648   36.763493  -12.790009  0
 37.378017   36.719021  -16.120174  0
 38.482708   38.244080  -16.993961  0
 37.930912   37.948601  -16.490389  0
 38.420986   37.892563  -17.809752  0
 33.041836   37.556255  -16.985205  0
 37.590591   37.044598  -18.120823  0
 31.731628   37.460548  -17.572212  0
 35.199722   37.513382  -18.561926  0
 37.356716   38.107552  -18.363016  0
 30.970951   37.671364  -18.944695  0
 30.640093   36.164188  -21.355148  0
 32.768265   37.135983  -23.183741  0
 31.113001   37.356644  -22.223488  0
 29.999689   37.375732  -21.992378  0
 28.790510   36.746208  -22.077745  0
 27.310780   37.560463  -22.631922  0
 26.473009   37.292370  -22.962889  0
 35.816139   35.947643  -24.899225  0
 35.097969   36.934490  -24.654713  0
 30.160002   37.063713  -24.452467  0
 27.767281   37.479580  -23.707434  0
 29.330973   37.880714  -24.223106  0
 32.052010   37.446629  -25.301205  0
 34.663849   37.010048  -25.260862  0
 33.055767   38.008411  -25.514996  0
 14.381114   37.339039   66.116890  0
 14.462667   37.888355   65.385262  0
 14.762386   37.949085   64.313812  0
 13.426540   37.824631   65.610741  0
 14.948869   37.924706   62.553677  0
 15.502770   37.832939   61.084183  0
 11.684134   37.949001   61.575027  0
 12.593944   37.302906   60.454674  0
 16.256882   38.139420   59.589985  0
 26.436497   36.574425   59.260872  0
 25.427334   37.483433   59.504406  0
 17.490681   37.649731   57.907932  0
 29.320290   36.746841   57.505375  0
 27.234917   36.538109   57.673664  0
 24.884876   38.293690   59.387436  0
 24.177605   38.672062   59.529320  0
 26.208746   37.214397   55.831196  0
 25.573305   37.669079   56.524323  0
 23.516962   37.637955   59.056683  0
 23.219336   37.960629   58.498192  0
 30.089155   37.717365   56.114380  0
 27.430096   36.908001   56.068890  0
 27.992781   37.382893   55.132023  0
 12.978353   36.918449   55.182869  0
 31.238096   37.504906   54.499428  0
 21.585684   37.660156   56.126694  0
 20.759293   37.043598   55.486118  0
 19.319548   37.251637   55.950096  0
 39.043823   37.849129   54.145866  0
 38.142685   38.122879   54.526573  0
 11.894323   36.849514   53.807034  0
 11.747097   37.599331   54.699520  0
 11.592170   37.307880   53.087452  0
 40.299404   37.319180   53.251331  0
 35.756283   38.127777   54.102280  0
 34.312290   37.185871   53.279213  0
 40.470840   37.315212   50.106049  0
 40.375008   38.049187   51.707943  0
 11.618886   36.944706   49.029480  0
 39.097897   37.137028   49.072151  0
 37.127323   37.370396   49.211857  0
 34.477245   36.928520   48.003532  0
 35.294403   37.747459   49.412975  0
 11.938799   37.176445   47.753456  0
 32.783283   36.914143   47.288322  0
 14.431164   37.333935   45.770576  0
 31.741360   37.585598   47.368855  0
 29.661493   37.679115   45.044949  0
 51.947559   37.655781   42.062256  0
 49.753864   38.250286   43.538578  0
 48.859192   37.897713   43.249542  0
 47.756134   37.298809   42.704872  0
 28.932892   37.320953   42.956314  0
 15.873413   37.587524   44.367958  0
 45.162586   37.272583   41.695366  0
 28.214426   38.202919   41.332882  0
 50.827232   37.839863   41.199108  0
 19.197922   38.788940   41.000397  0
 20.146839   38.439625   39.280823  0
 37.385979   37.889969   40.362183  0
 34.307873   37.803799   39.893253  0
 32.924999   37.430065   39.722954  0
 31.836557   37.319965   39.617867  0
 30.702227   37.930809   39.052715  0
 47.326168   38.928932   39.960358  0
 20.436064   38.050991   37.843086  0
 45.036335   38.341595   38.530491  0
 42.949482   39.211319   37.197205  0
 41.240871   38.414795   36.384571  0
 20.057993   38.470200   35.820282  0
 10.686457   37.355804   36.564880  0
 19.434725   37.498249   35.548431  0
 10.484700   37.843761   35.219158  0
 38.216236   38.393253   33.685230  0
 10.431974   38.276939   34.006641  0
 55.010017   37.825695   34.184010  0
 54.572601   37.867508   34.558311  0
 54.782494   37.711636   33.118893  0
 56.178379   36.529617   31.602690  0
 55.014610   37.190922   31.859568  0
 49.005692   37.787613   32.410744  0
 54.970509   37.106754   30.434031  0
 47.184273   37.635498   31.549902  0
 42.870102   37.139729   30.177769  0
 38.531376   38.181587   30.755911  0
 56.151451   36.880730   30.062201  0
 55.337612   37.282555   29.188814  0
 43.448147   38.253368   29.704367  0
 39.663357   38.229092   29.972343  0
 13.993045   37.983536   28.943953  0
 11.788509   37.839153   29.781374  0
 14.366243   38.068813   28.142962  0
 57.016979   37.721466   27.250227  0
 14.225018   38.021053   27.291004  0
 57.314201   38.021484   26.019775  0
 13.719107   37.974224   26.743235  0
 57.762428   37.207832   24.609358  0
 57.611778   37.902142   25.185617  0
  8.414531   37.365841   25.044811  0
  4.465930   37.438625   24.268497  0
 57.728325   37.306370   23.260788  0
 39.834263   38.370453   24.077816  0
 54.972683   36.746925   23.093189  0
 51.991314   37.052864   23.002583  0
 49.205452   37.123199   22.271776  0
 47.879898   37.983471   21.771139  0
 42.366245   38.366127   23.038651  0
 34.661682   38.133934   22.532785  0
 34.673340   37.991550   21.724304  0
 46.179581   38.043354   21.367025  0
 45.031651   38.052502   21.472605  0
 36.054180   38.132179   19.696049  0
 35.962669   37.674072   18.760475  0
 33.919823   38.035454   18.036879  0
  3.131880   38.946842   19.950348  0
 32.670864   38.111492   17.170481  0
 32.031281   37.491589   16.188410  0
 31.238314   38.403839   15.056926  0
  4.697733   37.814201   15.216290  0
 29.717070   37.385696   12.272206  0
 29.220465   38.193581   10.302217  0
  8.527178   38.318943   10.532541  0
  9.325550   37.745785    9.549682  0
  9.679885   38.685379    8.179790  0
 30.608358   37.835903    7.892376  0
 48.677143   36.789742    6.703325  0
 49.051411   36.677006    5.859454  0
 49.778389   36.759403    6.627717  0
 50.100105   37.370327    6.250499  0
 49.030834   37.493267    5.542754  0
 48.116589   37.400055    5.569381  0
 27.359455   38.120354    6.052109  0
 26.617327   37.643929    3.042043  0
 10.421445   37.459019    2.919747  0
 14.750309   38.195652    2.339537  0
 12.033681   38.336731    1.803485  0
 10.945943   37.845299    1.899810  0
 25.183306   37.642979    1.025117  0
 17.155703   37.771328    1.009092  0
 23.992220   36.990402   -0.542375  0
 25.121973   37.974682    0.374742  0
 17.969412   37.738625   -1.641479  0
 17.789179   36.999199   -2.698743  0
 18.602140   38.007202   -2.253514  0
 23.275570   36.595383   -4.126099  0
 19.966518   37.693985   -2.801584  0
 21.138523   37.742226   -3.324822  0
 21.587650   37.005653   -4.183138  0
 22.503885   36.766144   -4.578118  0
 24.594416   36.391064   -7.028267  0
 26.193842   37.128967   -6.048103  0
 23.686874   36.291359   -6.187466  0
 23.203278   36.203373   -7.012692  0
 22.710466   36.761574   -6.461999  0
 23.101170   37.061935   -7.201307  0
 22.895010   37.443626   -6.766801  0
 23.951172   36.535160   -7.403481  0
 25.508741   37.384911   -7.362204  0
 39.407253   37.552731   -9.679293  0
 42.480400   38.644043  -10.274277  0
 42.250645   37.996086  -10.914183  0
 37.061657   37.497383  -11.992372  0
 39.908707   38.216370  -11.912189  0
 39.011738   37.932888  -12.435664  0
 37.554893   37.875465  -12.454843  0
 38.569874   38.553284  -12.491903  0
 35.931381   38.474380  -16.838678  0
 33.874168   38.736050  -17.181345  0
 32.802525   38.498634  -17.721081  0
 36.362713   38.747295  -18.471762  0
 35.030979   39.143982  -18.195923  0
 33.103767   38.502670  -18.201565  0
 31.967461   38.080936  -18.422705  0
 28.283873   38.665623  -22.616266  0
 34.373100   38.016006  -24.796450  0
 33.502907   38.190296  -24.203974  0
 27.385401   38.365532  -23.513487  0
 30.380085   38.540623  -24.597820  0
 32.079674   38.558922  -25.328661  0
 33.246101   38.628666  -25.317463  0
 13.803926   38.914913   65.083817  0
 12.636512   38.794567   64.886833  0
 14.313383   38.849644   64.063370  0
 11.610660   38.775837   63.813496  0
 14.976416   38.960484   61.992115  0
 11.378785   38.693306   62.023239  0
 16.059788   39.153942   59.969463  0
 11.986384   38.463547   59.908829  0
 17.325439   38.836609   58.178921  0
 12.573890   38.004784   58.223972  0
 11.662881   38.888115   57.988136  0
 29.465683   37.571278   56.161560  0
 24.855053   38.819206   57.982021  0
 24.697950   39.192383   58.985325  0
 22.755053   38.699165   58.570145  0
 18.015755   37.951698   57.153225  0
 12.033710   37.920353   56.513744  0
 30.541716   38.647106   55.323990  0
 28.715935   38.020786   54.936443  0
 29.807186   38.641766   55.352806  0
 24.946915   38.494602   56.146950  0
 21.605268   38.677147   57.319088  0
 18.671434   38.326122   56.799202  0
 19.481888   38.582619   56.629730  0
 11.439512   38.647324   56.213161  0
 31.265396   38.528446   54.873615  0
 32.070911   38.535309   54.224350  0
 28.799965   38.707325   54.221188  0
 24.845764   38.200596   54.130051  0
 24.331322   39.177788   55.203960  0
 20.493248   38.556553   56.614895  0
 11.544934   38.108711   54.411644  0
 38.334793   39.023609   54.208439  0
 39.108910   38.670021   53.553822  0
 36.996681   38.292381   54.519260  0
 27.637686   38.102402   53.130020  0
 26.216852   37.850601   52.848301  0
 25.267052   37.931591   53.275719  0
 40.006329   38.280125   52.748726  0
 34.295235   39.297073   54.189812  0
 33.163902   39.606361   54.344376  0
 12.214602   37.835796   52.005871  0
 39.289391   38.416718   51.404419  0
 37.826790   38.103989   50.589748  0
 11.975591   37.385658   50.255512  0
 12.797887   38.128323   50.117233  0
 35.649632   38.897758   50.864037  0
 33.215652   37.881081   48.821838  0
 33.571045   38.938667   50.024044  0
 12.034783   38.029018   48.714806  0
 31.794004   38.950459   48.908607  0
 11.793325   38.184959   47.586002  0
 30.438648   38.698059   47.044968  0
 12.715492   37.938683   46.293434  0
 11.894408   38.499950   46.810528  0
 12.523887   38.954170   45.961689  0
 14.469381   38.739292   44.798519  0
 49.828041   39.560810   43.487545  0
 50.583336   39.767227   43.074715  0
 51.384293   39.237545   42.503792  0
 29.124462   38.805080   44.950737  0
 28.273397   38.507126   42.675228  0
 51.356468   39.210342   41.880253  0
 47.135220   38.274899   42.821373  0
 16.157988   38.546013   43.496616  0
 44.232292   38.446136   41.960869  0
 16.994423   38.771328   42.842663  0
 40.424557   38.589607   40.969559  0
 28.241159   38.866940   39.549271  0
 50.000629   39.371918   41.184010  0
 35.127766   38.415321   40.223862  0
 29.198971   38.076511   39.307106  0
 33.171997   39.025234   39.529224  0
 32.097252   38.461861   39.059353  0
 30.111782   39.089443   37.728954  0
 20.510162   39.820587   36.092392  0
 11.157214   38.115833   35.768051  0
 39.307308   38.603561   34.781162  0
 19.261013   38.931438   34.378235  0
 15.915207   38.389469   34.157196  0
 12.667554   38.883732   34.783737  0
 18.028702   39.773968   33.154186  0
 17.121387   38.635525   33.800621  0
 15.782248   39.664230   33.221691  0
 10.970248   38.906647   34.614128  0
 54.523788   38.427837   33.924744  0
 54.266109   38.497147   34.857357  0
 53.398392   39.066345   35.091881  0
 51.752949   38.915710   34.594040  0
 50.350525   38.724506   33.605793  0
 37.895752   38.490726   32.598564  0
 10.411140   39.265205   33.264011  0
  9.998481   39.767147   32.048996  0
 53.552769   38.970570   32.859138  0
 53.922783   39.400558   34.258934  0
 49.240433   38.833817   32.791218  0
 52.919567   37.746857   29.958809  0
 52.950218   38.232506   31.221254  0
 52.470482   39.062374   31.368654  0
 47.827888   38.551323   31.765772  0
 47.037163   39.318123   30.987480  0
  9.850130   38.915035   30.305937  0
 51.714729   38.796570   29.555014  0
 44.711651   39.577915   29.678596  0
 10.345894   38.743500   29.736950  0
 53.497177   37.783363   28.045118  0
 53.049706   37.643158   28.800442  0
 52.179169   38.144863   28.592281  0
 42.585011   40.020344   29.139671  0
 40.930309   39.314686   29.323238  0
 13.720671   38.819435   28.880526  0
 12.767980   39.130257   29.057793  0
 55.965069   37.942749   27.423967  0
 54.806110   37.781540   27.770708  0
 56.955925   38.162083   26.515659  0
 10.131955   38.541077   24.821409  0
  8.378842   38.614742   24.263754  0
  6.229818   38.343727   24.423557  0
 57.873379   38.304344   23.727381  0
 36.678482   38.997440   23.989317  0
  4.392171   39.219135   23.688944  0
 57.438309   38.040592   22.350948  0
 57.864407   38.931919   22.161684  0
 55.853390   37.556248   22.723761  0
 53.173016   38.092957   22.780827  0
 50.357677   38.218975   22.515917  0
 35.355656   38.748962   23.400816  0
  3.226379   38.535435   22.339386  0
 56.529324   38.370983   22.076422  0
 54.360199   38.754383   22.247080  0
 43.912235   38.873318   21.912436  0
 35.355923   39.030163   20.691833  0
 35.729313   38.766533   19.278725  0
 34.920372   38.863575   18.617937  0
 31.838608   39.203674   16.113308  0
  3.415996   40.465595   17.591921  0
 30.423630   38.529865   13.812671  0
  7.562540   38.996677   13.169661  0
 29.367159   39.444420   13.106562  0
 28.940289   38.654266   12.014338  0
 28.816204   39.858952   11.637617  0
  8.412140   39.305588   11.089363  0
 29.944056   38.630699    9.071821  0
 29.437872   39.582680    9.829062  0
  8.590784   38.933365    9.851156  0
  9.106112   39.518299    8.775094  0
 50.453976   37.510574    7.309368  0
 49.103672   37.065174    7.330045  0
 50.523907   37.393448    6.822093  0
 49.931980   37.941860    8.204021  0
  9.854593   38.478996    6.036354  0
 48.191116   36.975605    5.973183  0
 47.725830   37.463287    6.614979  0
 29.416117   38.512478    7.586893  0
 28.366262   39.580250    7.626688  0
 26.986885   39.157558    5.859011  0
 10.005594   38.278175    3.074103  0
 26.957016   38.717514    3.922188  0
 26.925611   38.460842    2.853294  0
 26.198248   38.101238    1.815744  0
 10.378662   38.345745    1.930540  0
 15.965517   38.919224    2.021177  0
 13.338472   38.893944    2.227629  0
 17.731306   38.202835   -0.244045  0
 10.936496   38.743225    1.374932  0
 24.746822   37.867214   -0.910643  0
 18.077547   38.977192   -1.285691  0
 17.505512   39.653946    0.141169  0
 24.481426   37.551117   -2.883216  0
 18.896252   39.333935   -1.671605  0
 22.126043   37.800476   -4.131506  0
 19.762337   38.836922   -2.006891  0
 24.562841   37.140102   -4.739065  0
 22.843958   36.587074   -5.333418  0
 25.642763   38.091259   -2.979904  0
 26.682751   37.561642   -5.196749  0
 22.347485   37.253750   -4.951206  0
 29.501078   37.771996   -5.686307  0
 31.202784   38.372692   -5.214489  0
 30.792561   38.398357   -4.243225  0
 27.846333   38.364994   -3.717079  0
 27.832617   37.523182   -6.054435  0
 22.724585   37.558899   -5.493424  0
 29.976498   38.180214   -6.184499  0
 31.555889   38.783558   -5.441243  0
 27.756218   37.581017   -6.501427  0
 27.170040   37.758945   -7.017061  0
 41.428349   38.999249   -9.298292  0
 40.444115   39.097389   -9.516109  0
 39.462330   39.601357  -10.255538  0
 42.189034   39.262310  -11.001285  0
 37.874470   39.280827  -11.834774  0
 37.857929   38.933056  -12.312713  0
 40.800694   39.912922  -11.642537  0
 38.111958   38.986042  -17.938730  0
 36.873245   39.233852  -17.150410  0
 35.221508   39.402775  -17.573439  0
 36.867855   39.623856  -18.210016  0
 31.945059   38.643551  -23.768471  0
 30.398949   39.029289  -22.858402  0
 31.119005   39.196159  -23.940960  0
 29.152481   39.214676  -22.633591  0
 27.413698   38.537838  -23.119465  0
 32.826157   38.956547  -24.884199  0
 28.446644   38.898094  -24.170780  0
 31.481068   38.848873  -24.804693  0
 14.160865   39.828682   64.429512  0
 13.531524   39.903236   64.957359  0
 12.328590   39.894005   64.609863  0
 11.731188   40.843819   63.857014  0
 11.306827   40.035404   62.483818  0
 11.484541   39.532570   60.213009  0
 17.014843   39.582073   59.016273  0
 23.940104   39.461746   59.762783  0
 23.238041   39.361176   59.477875  0
 24.280636   39.777451   59.090630  0
 22.011742   39.487152   58.581852  0
 11.491809   39.647041   58.029934  0
 18.317005   39.956913   58.334190  0
 11.753606   39.975746   57.148872  0
 24.509298   39.807449   57.477295  0
 11.508479   38.954128   55.174683  0
 31.164852   39.988819   55.129314  0
 31.922031   39.929993   54.907120  0
 30.513693   40.395580   55.079826  0
 29.737841   39.790451   54.768936  0
 37.411022   39.462246   54.602455  0
 36.072128   39.927063   54.699051  0
 28.974606   39.714970   53.750565  0
 23.409260   39.648010   53.036617  0
 22.989294   40.804520   54.657509  0
 11.877579   38.363361   53.773552  0
 12.380247   39.320869   54.559898  0
 38.844460   39.151131   52.492001  0
 38.267075   39.805828   53.636620  0
 28.028233   39.111706   52.064350  0
 24.013142   39.097252   51.663738  0
 13.108245   38.652901   52.576584  0
 14.465141   39.822720   53.122543  0
 37.724880   39.022316   51.620636  0
 36.984783   39.906776   52.183144  0
 37.897320   40.091125   52.919460  0
 26.873219   38.972038   50.933449  0
 28.205072   40.401459   51.449848  0
 25.837341   38.588921   51.119255  0
 24.962738   38.860489   50.853687  0
 14.200466   38.951809   51.234013  0
 27.315388   40.073997   50.287128  0
 14.302315   39.078484   49.843410  0
 34.606571   39.874115   51.207027  0
 25.181284   39.755836   49.417439  0
 13.022470   38.832272   48.662399  0
 32.290653   40.194351   50.143902  0
 14.155994   39.890293   48.039196  0
 30.988251   40.176731   49.044743  0
 12.560522   39.507778   46.834217  0
 12.110098   38.915356   47.385502  0
 29.937368   40.730061   47.716469  0
 12.780047   40.047871   45.779621  0
 13.572720   40.109406   44.924137  0
 48.376030   39.420525   43.449543  0
 28.712250   40.129623   44.705338  0
 15.428112   40.240173   43.552856  0
 46.554024   39.373482   43.286831  0
 27.812824   39.970184   41.869122  0
 45.554230   39.984398   43.534393  0
 42.827446   39.466225   42.220818  0
 17.913481   39.937737   42.263969  0
 27.804623   39.887691   39.830570  0
 38.132450   39.215290   40.915913  0
 35.741585   39.328556   40.854454  0
 34.222176   39.101864   40.227432  0
 33.792843   39.866776   40.086727  0
 19.962177   40.542381   39.393272  0
 45.859909   40.730999   39.174042  0
 32.598934   39.674694   38.409500  0
 28.955353   39.557636   37.870472  0
 20.500713   39.792931   38.252106  0
 44.289818   40.027538   37.931980  0
 31.212772   39.644005   37.171753  0
 20.608509   39.668545   37.168762  0
 41.123959   39.266670   35.852032  0
 40.314613   39.587261   35.125023  0
 39.137283   39.513599   34.135761  0
 52.303402   39.896820   35.096569  0
 52.948174   40.518509   35.128826  0
 53.543617   40.291603   34.961277  0
 38.348698   39.994480   33.060631  0
 11.114683   40.047882   33.861652  0
 53.202271   40.928444   33.997372  0
 50.589989   39.934338   33.966805  0
 48.992329   39.665840   32.437439  0
 52.692268   40.307911   32.145882  0
 38.333660   41.134430   32.045792  0
  9.818289   40.272316   30.647675  0
 51.646503   39.883667   29.885895  0
 38.495049   40.069893   30.933447  0
 39.202705   39.999653   30.040506  0
 51.362049   39.096596   27.829212  0
 51.280102   39.704323   28.554567  0
 40.229141   40.102039   29.464352  0
 13.637880   40.157742   28.128935  0
 10.882895   39.674343   29.148928  0
 51.988831   38.761742   26.928545  0
 51.060963   40.113640   26.902464  0
 14.329621   40.185402   27.506727  0
 14.519759   39.991863   26.799566  0
 54.322445   38.557392   26.106936  0
 53.057243   39.018852   25.522655  0
 51.327488   39.818626   25.791836  0
 14.168589   39.518822   26.230942  0
 56.298756   38.555462   25.861155  0
 52.342922   39.762978   24.711439  0
 57.221725   38.857796   24.761219  0
 56.119724   39.205357   24.831844  0
 54.765732   39.636093   24.176088  0
 13.138589   39.696259   25.384613  0
 57.735695   39.640949   22.755095  0
  5.434939   39.869488   23.658503  0
  3.538125   38.900566   23.246998  0
 41.233318   40.135586   23.378572  0
 35.110725   39.966091   22.795553  0
 34.995136   40.080128   22.084307  0
 51.104053   39.120899   22.122036  0
 48.622066   39.142059   21.713076  0
 35.143108   39.886822   21.343529  0
 56.609947   39.349163   21.152098  0
 46.952145   39.343376   21.376856  0
 45.151669   39.698368   21.384670  0
 35.734707   39.552280   19.717014  0
 35.264290   39.770554   18.877781  0
 33.501022   39.397247   17.709366  0
 30.170578   39.975819   14.142794  0
 30.972269   39.847244   15.062097  0
  4.213534   40.377110   16.056612  0
  5.427694   39.683159   14.860307  0
  8.369312   39.647873   12.214353  0
 29.032459   40.109436   10.774226  0
 48.336205   38.824951    9.046919  0
 50.796013   39.455532    8.816782  0
 49.459515   39.420925    9.293472  0
 47.146866   39.142811    9.211911  0
 47.622826   38.220219    8.019049  0
 29.686068   38.893303    8.271151  0
 29.322657   39.769108    8.884748  0
  8.549708   39.750977    9.910904  0
 51.403763   39.686752    8.198871  0
 50.937778   38.767731    7.342134  0
 46.184032   39.402149    8.724818  0
 46.867550   38.479591    7.189325  0
  9.246470   39.726265    7.857113  0
 46.960457   38.563347    6.005377  0
 27.590441   40.477943    7.221333  0
  9.044960   39.721302    5.936238  0
 50.302235   38.938366    6.767691  0
 48.117626   38.192627    5.507850  0
 49.032375   39.345043    6.455655  0
 26.966734   40.010384    5.163591  0
  9.165483   39.285938    3.170763  0
  8.828706   39.889481    4.498082  0
 27.397627   39.646469    3.386598  0
 27.276924   39.076382    1.898052  0
 14.948857   39.730965    2.235304  0
 14.032718   39.941330    2.211372  0
  9.766759   39.084732    1.411758  0
 26.541405   38.888859   -0.101235  0
 17.001743   40.651840    0.870739  0
 11.574629   39.419476    1.202060  0
 27.437111   39.002228   -1.122035  0
 21.251410   39.870174   -1.555397  0
 22.083984   39.550003   -2.383957  0
 18.002947   40.329037   -0.695829  0
 31.786665   38.869320   -2.894125  0
 33.117279   39.003284   -3.941233  0
 28.877308   38.908493   -2.367067  0
 30.806032   39.314899   -1.601391  0
 22.691765   38.663082   -4.013953  0
 33.148556   39.366051   -4.816232  0
 34.635841   39.701145   -4.058060  0
 34.361965   39.862511   -4.653409  0
 23.177876   40.078045   -3.411234  0
 23.644060   38.927570   -5.506464  0
 30.283367   39.190491   -6.079191  0
 31.652040   39.502403   -5.213961  0
 24.642838   38.601387   -6.959761  0
 28.072672   38.811958   -6.855788  0
 26.742523   38.799614   -7.185108  0
 25.732698   38.687965   -7.244409  0
 41.828003   40.763012   -9.639194  0
 42.261620   40.561020  -10.097572  0
 40.874371   40.339680   -9.626665  0
 38.718159   40.140907  -11.294550  0
 39.311211   40.067280  -12.171120  0
 37.489056   39.495476  -17.660795  0
 36.253578   39.942623  -17.885674  0
 29.537672   39.779331  -23.305927  0
 28.248726   39.674049  -23.520895  0
 29.335197   39.928860  -23.887535  0
 30.442814   39.238087  -24.349600  0
 28.356417   39.670967  -24.110207  0
 14.131337   40.769035   64.425751  0
 12.926037   40.839367   64.831223  0
 15.066370   40.454636   62.729927  0
 16.565872   40.344486   60.402786  0
 11.534931   40.565113   61.467598  0
 11.832142   40.408375   59.886810  0
 23.721575   40.467926   59.393646  0
 22.507362   40.446159   59.365067  0
 23.938343   41.051163   58.202961  0
 21.049423   39.998146   58.341187  0
 23.692390   40.915710   56.444038  0
 19.828875   39.937054   57.893551  0
 12.228629   40.047691   56.302433  0
 13.870049   40.558083   55.691006  0
 37.695087   40.545639   54.419212  0
 36.983795   40.737755   54.953011  0
 37.589775   41.065319   53.683441  0
 34.326942   41.007107   54.859856  0
 29.858080   41.176025   54.563343  0
 29.049213   41.141808   53.286369  0
 36.334000   41.300785   52.699661  0
 22.007145   40.810127   50.863823  0
 15.336284   40.242516   52.156460  0
 15.365323   40.648827   53.194561  0
 33.107563   41.529755   51.304684  0
 23.762831   39.712227   49.946350  0
 15.288251   39.987370   50.900787  0
 26.329235   40.326054   49.342052  0
 22.673164   40.437927   49.625301  0
 15.058239   40.177338   49.086155  0
 15.429834   41.059895   49.740318  0
 25.353788   40.490597   48.767578  0
 23.058683   40.824627   48.586494  0
 23.911541   41.030304   48.105244  0
 13.111987   40.446697   46.393421  0
 48.881676   40.610233   43.298313  0
 28.191704   41.011147   43.334824  0
 28.705770   41.679161   44.998798  0
 50.555672   40.703167   42.213646  0
 47.109585   40.696243   43.574764  0
 45.842033   40.834286   44.013786  0
 44.803040   40.917633   44.233253  0
 43.746353   40.420223   43.554501  0
 42.069187   40.419842   42.861408  0
 49.808552   40.811153   41.259426  0
 39.818012   40.299118   42.037655  0
 37.955738   40.266056   41.718201  0
 35.797188   40.632332   41.895947  0
 35.378429   40.046204   41.422436  0
 27.660112   40.852058   40.619965  0
 18.917707   40.506367   41.178532  0
 47.794510   40.790810   40.261086  0
 34.614254   40.356270   41.171902  0
 33.693634   40.844185   39.385094  0
 32.133049   40.442722   36.771030  0
 33.082623   40.922478   37.597763  0
 28.143618   40.774746   38.108971  0
 43.864861   40.522339   37.689655  0
 42.832851   40.421715   37.067142  0
 30.242247   40.846493   35.785763  0
 28.978703   41.044945   36.398670  0
 41.938900   40.367840   36.432915  0
 41.026012   40.409134   35.703926  0
 39.357933   40.456970   34.347557  0
 20.140718   40.713509   34.192142  0
 19.197039   40.893299   33.005508  0
 12.015634   40.774532   33.397217  0
 51.375740   40.995403   34.316612  0
 50.185257   40.922611   33.213169  0
 10.420112   41.094799   32.783764  0
 52.755165   41.219864   32.500149  0
 48.861355   40.539722   31.826023  0
 17.102707   41.328850   31.999144  0
 15.452824   41.436909   32.018711  0
 13.964674   41.417988   32.370071  0
  9.833032   41.715126   31.353142  0
 52.308193   41.076828   30.413204  0
 48.291801   41.030437   31.033152  0
 46.429581   41.123241   30.053371  0
 10.086177   40.217915   29.411573  0
 51.347599   41.016380   27.618666  0
 41.185986   41.012375   29.255367  0
 11.903582   40.983707   28.075729  0
 12.916847   40.733120   28.017204  0
 51.156048   40.559479   25.158392  0
 14.304289   41.172024   25.314398  0
 51.742264   40.802200   23.916887  0
 56.862381   39.982201   23.363914  0
 53.797485   40.371849   23.292040  0
 52.740582   40.720245   23.232021  0
 39.134403   40.347469   23.809160  0
 10.908926   41.108650   23.413071  0
  8.856236   39.717453   23.640482  0
  7.053535   39.845665   23.756172  0
  3.738326   40.084572   22.831694  0
 57.503510   40.337856   21.238585  0
 55.929546   40.803558   22.529509  0
 42.401718   40.867371   22.696121  0
 37.254730   41.801247   23.215210  0
 36.017784   41.030033   23.118731  0
  8.577806   41.021229   22.944851  0
  4.809498   41.226299   22.796274  0
  3.296216   40.116638   21.757517  0
 57.389256   39.895294   20.913887  0
 53.267029   39.933990   20.970636  0
 50.248337   40.210369   20.909855  0
 48.710407   39.961525   21.230125  0
 55.287079   40.188332   19.985842  0
 46.568352   40.445591   20.961502  0
 44.332294   41.528374   21.457159  0
 35.933090   40.725891   20.254330  0
  3.165218   41.120098   19.542004  0
 56.670616   40.670673   19.870325  0
 35.712345   40.526924   19.208191  0
 34.702236   40.692020   18.086988  0
 32.847477   40.358192   16.584276  0
 31.604004   40.697369   15.506454  0
  7.171397   40.552963   13.870826  0
 29.178139   40.848515   13.000301  0
  8.395640   40.810329   12.885910  0
 29.338331   40.888760   10.362713  0
 28.966803   41.097523    9.286719  0
  8.715920   40.276939   10.761201  0
  8.568655   40.824921   10.211404  0
  8.710953   40.588829    9.066916  0
 48.058460   40.822830   10.168383  0
 47.275974   40.072178   10.008472  0
 46.177891   39.095474    6.388662  0
  9.197315   40.689854    7.230443  0
 51.310406   40.401699    7.753452  0
 50.189003   40.547726    7.286237  0
 47.276066   39.637398    5.998982  0
 46.200802   39.448734    5.753921  0
 27.140562   40.930408    6.471605  0
  9.116547   40.841873    5.084486  0
  8.391988   40.105946    3.259202  0
  8.261708   40.858917    3.917712  0
 28.285831   40.770035    3.215485  0
 28.144148   39.943504    2.429982  0
  7.926891   40.654762    1.843737  0
 28.122789   39.506092    1.148118  0
 29.668453   40.351070    1.543571  0
 13.082011   41.129719    1.655404  0
 12.206538   40.523743    1.332356  0
  8.985339   39.726044    1.192500  0
  8.511591   40.517914    0.781788  0
 29.390007   39.562790   -0.012923  0
 15.932631   41.021427    1.582766  0
 11.445621   40.161205    0.749972  0
 10.560974   39.487373    0.445333  0
  9.454713   39.930950   -0.143518  0
 31.746801   40.036430   -0.645566  0
 10.370121   40.311939   -0.404056  0
 33.538422   39.763657   -2.430009  0
 33.448456   40.522991   -1.459525  0
 34.780384   40.585655   -3.172397  0
 22.294994   40.998676   -1.148637  0
 20.586138   40.859455   -0.713085  0
 18.622929   41.028461   -0.717249  0
 23.641375   41.403484   -2.120900  0
 34.973843   40.190617   -4.572001  0
 24.151714   41.128811   -4.110698  0
 34.135902   40.916653   -4.661705  0
 32.198257   40.587708   -4.450600  0
 30.078205   39.946491   -5.386537  0
 25.221090   39.967148   -5.982936  0
 24.637154   40.825455   -4.972339  0
 27.784672   39.958450   -6.550834  0
 26.515087   40.132343   -6.426125  0
 40.466557   40.909515  -10.072542  0
 39.634216   40.951553  -10.967052  0
 38.817173   40.375401  -11.914700  0
 41.578461   40.897385  -11.041524  0
 40.103958   40.930248  -11.588542  0
 13.817544   42.008987   64.492569  0
 12.610447   41.782711   64.402473  0
 14.617980   41.773708   64.224281  0
 12.370071   42.227474   63.823460  0
 15.198987   41.285202   63.346901  0
 11.464331   41.125996   62.692574  0
 12.106001   42.111183   63.053734  0
 17.356573   41.162773   60.701942  0
 17.165438   42.048244   62.166733  0
 12.241417   41.657467   61.769730  0
 13.174462   41.750065   60.285851  0
 21.012291   41.181519   59.505917  0
 22.307234   42.222897   60.471985  0
 23.186333   41.117718   59.721130  0
 19.416840   40.969639   59.134682  0
 18.770142   42.001640   61.050537  0
 12.941902   40.792671   58.364231  0
 23.656519   41.709042   59.325558  0
 23.501780   41.794277   57.381420  0
 14.445215   41.449913   57.529152  0
 14.875011   41.082439   55.226017  0
 35.638912   41.914330   55.415874  0
 36.671829   42.212414   55.406815  0
 32.352287   41.838299   55.300766  0
 22.896723   42.395695   56.892784  0
 37.451645   42.302975   54.925694  0
 21.752428   41.553764   53.120441  0
 15.352999   41.898304   55.257111  0
 15.638630   41.496880   53.046387  0
 37.024696   42.041008   53.441311  0
 28.544123   42.626637   52.223980  0
 28.028288   41.441422   50.881100  0
 15.587904   41.780952   51.773327  0
 31.766758   42.855255   50.839420  0
 27.242634   41.361481   49.786892  0
 21.250431   41.965069   48.871082  0
 30.848255   42.839172   49.885536  0
 26.007648   41.521355   48.719387  0
 15.293764   41.811802   47.968105  0
 30.124283   42.919292   48.512142  0
 24.519405   41.622997   47.862144  0
 14.598275   41.097828   47.285027  0
 13.179829   41.251488   45.209988  0
 13.640402   41.356037   44.298153  0
 43.415630   41.598156   44.972286  0
 44.288841   42.006039   44.966541  0
 45.785751   41.720364   44.069389  0
 42.690052   41.227455   44.349899  0
 14.641979   41.322395   43.597431  0
 48.954865   42.042294   42.262325  0
 47.650719   41.895176   43.011330  0
 49.538391   41.854031   41.630199  0
 40.779099   41.535645   44.025871  0
 28.064350   42.013615   42.037998  0
 15.685421   41.856678   42.854374  0
 37.915325   41.600616   43.452698  0
 36.292664   41.838608   43.209236  0
 35.382957   41.564388   42.249508  0
 34.633842   41.316307   41.127533  0
 17.717667   41.273346   42.000374  0
 18.240828   42.057671   40.730331  0
 19.287296   41.391747   40.079884  0
 48.444145   42.006824   40.771824  0
 47.297482   41.687603   40.157211  0
 27.775196   41.902493   39.372353  0
 44.602676   41.026630   38.478004  0
 43.470612   41.095806   37.870430  0
 20.427931   41.415653   36.934666  0
 42.079178   41.100246   37.284527  0
 28.208002   41.899006   36.726948  0
 40.859680   41.214420   36.613201  0
 39.854500   41.333347   35.582035  0
 32.971478   42.294621   35.792290  0
 31.340235   41.075909   35.546024  0
 32.026424   41.724602   35.126259  0
 29.624479   41.787735   34.704620  0
 20.514847   42.195786   34.684738  0
 39.092026   41.325802   34.414169  0
 38.665337   41.766014   33.777550  0
 52.187511   41.448414   34.235645  0
 52.425076   41.826321   33.297932  0
 51.308281   41.901081   33.247478  0
 38.367851   41.607494   32.943245  0
 12.129955   42.462555   32.075253  0
 52.842449   42.131233   31.983555  0
 50.123497   42.289764   32.006332  0
 18.084988   42.564472   31.436777  0
 10.940637   42.400295   32.229542  0
  9.956719   42.654907   31.496771  0
 53.059822   42.394493   30.702454  0
 39.112610   42.194721   30.983942  0
 52.533905   42.035019   28.944416  0
 48.648430   42.118961   30.928446  0
  9.697408   41.603027   29.755053  0
 45.001743   41.710739   29.544786  0
 43.596676   41.895920   29.329149  0
 42.195393   41.767685   29.271805  0
 39.984230   41.785839   29.970766  0
 10.460148   41.696693   28.290773  0
 13.663445   41.608292   27.116690  0
 51.161728   41.818565   25.570490  0
 14.605296   41.661705   25.935476  0
 51.174469   41.470516   24.294024  0
 14.616070   42.792866   24.944012  0
 13.277805   41.483143   24.185448  0
 57.072380   40.924839   21.770798  0
 40.842293   41.805588   23.175776  0
 39.232273   42.385704   23.238098  0
 35.917023   41.883938   22.035484  0
  6.590795   41.544777   22.827536  0
  3.986676   41.727001   21.884813  0
 56.051975   41.792778   21.230108  0
 54.175224   41.635002   21.800562  0
 35.842823   41.542625   21.380529  0
 56.832993   41.668091   20.390455  0
 52.512241   40.782749   19.302326  0
 50.426662   40.695255   20.142420  0
 48.789703   40.874138   20.367624  0
 45.807640   41.167107   20.797195  0
  3.631701   42.732925   20.250294  0
 55.393875   40.983646   18.499096  0
 56.098507   41.166031   18.658905  0
 54.404430   40.805954   18.693533  0
 48.305492   41.865440   19.615925  0
 50.327999   41.387917   19.095098  0
 47.108852   41.763142   20.146362  0
 36.278408   41.384453   19.433062  0
 35.600380   41.434887   18.303963  0
  3.416049   42.715126   18.604681  0
 33.930000   41.252125   16.657141  0
  3.718214   42.277267   17.187767  0
 32.441353   41.439842   15.645150  0
 30.195820   41.552040   14.295723  0
  5.158256   41.797707   15.740843  0
  7.637515   42.287212   14.199015  0
 29.251375   42.036453   12.302843  0
 29.142010   41.364025   11.524800  0
  9.269242   41.268936   11.895847  0
  9.371395   42.498650   11.302492  0
 44.667397   40.831715   11.042373  0
 43.304924   41.011578   10.819699  0
 45.008053   40.308094    9.672819  0
 45.916817   40.464993   10.490170  0
 45.068947   41.863731   11.849554  0
 29.570978   42.295029   11.216928  0
 29.525745   42.274792   10.383431  0
 46.524235   41.338650   10.935527  0
 43.585888   40.821198    8.111950  0
  8.400642   41.479324    9.718211  0
 51.646481   41.024658    9.030940  0
 50.111942   41.627716    9.870418  0
 51.902485   41.250095    8.427942  0
 45.217056   39.952572    7.377983  0
  9.098233   41.772240    8.211356  0
 43.492069   40.575191    5.915949  0
  9.807803   41.958282    7.059863  0
 48.148594   41.510967    7.510566  0
 46.861557   41.454250    7.102859  0
 46.343025   40.702011    5.788744  0
 45.358974   39.725861    5.790353  0
 46.326996   39.702648    5.304234  0
 45.647148   39.741703    4.668169  0
 46.477230   40.696911    4.921205  0
 44.245964   40.254627    4.040845  0
 42.885014   40.878498    4.288174  0
 27.313105   42.395744    6.318322  0
 27.526051   41.435703    4.790911  0
 46.747768   40.086235    4.211529  0
 46.926319   41.314545    3.970428  0
 46.992668   40.761238    3.138612  0
 46.308716   40.258717    3.103377  0
 45.209702   40.310577    2.996916  0
 42.715725   41.149658    3.337812  0
