#!ascii file
26760  27031  27032  0
26760  27032  26761  0
26755  27033  26752  0
26756  27029  27034  0
26756  27034  26757  0
26757  27034  27035  0
26757  27035  27030  0
27030  27035  27036  0
27030  27036  27037  0
27030  27037  27031  0
26761  27032  27038  0
26518  27039  26517  0
26517  27039  26763  0
26762  27040  26755  0
26762  26763  27041  0
26762  27041  27040  0
26755  27040  27033  0
26761  27038  26764  0
26518  27042  27039  0
26518  26765  27043  0
26518  27043  27042  0
27039  27042  27044  0
27039  27044  27041  0
27039  27041  26763  0
26310  26521  27045  0
26310  27045  26766  0
26521  27046  27045  0
26521  26522  27046  0
26522  26312  26768  0
26522  26768  27046  0
26769  26764  27047  0
26524  26766  27048  0
26524  27048  26770  0
27045  27046  27049  0
27046  27050  27049  0
27046  26768  27051  0
27046  27051  27050  0
26768  26769  27051  0
26772  26773  27052  0
26772  27052  26774  0
26773  27053  27052  0
26773  26770  27053  0
26770  27048  27054  0
26770  27054  27055  0
26770  27055  27053  0
27048  26766  27056  0
27048  27056  27054  0
26771  26774  27057  0
26771  27057  26776  0
26774  27052  27058  0
26774  27058  27057  0
27052  27053  27059  0
27052  27059  27058  0
27053  27055  27059  0
26777  26776  27060  0
26777  27060  27061  0
26776  27057  27060  0
26781  27062  26780  0
27063  26780  27062  0
26781  27064  27062  0
26780  27063  26778  0
27065  26778  27063  0
26778  27065  26779  0
27064  26781  26535  0
26784  26786  26536  0
27066  26784  26783  0
27064  26535  27067  0
26535  26787  27068  0
26535  27068  27067  0
26784  27066  26786  0
26789  27069  26790  0
26541  26790  26791  0
26540  26550  27070  0
27066  27071  26792  0
27066  26792  26786  0
27066  27072  27071  0
27073  27071  27072  0
26789  26793  26800  0
26789  26800  27069  0
26790  27069  27074  0
26791  26790  27074  0
27074  26803  26791  0
26550  27075  27070  0
27071  27076  26796  0
27071  26796  26792  0
27071  27073  27076  0
27077  26803  27074  0
26803  27077  26806  0
26809  27078  26811  0
26811  27078  26546  0
27079  26546  27078  0
26546  27079  26547  0
26550  26549  27080  0
26550  27080  27075  0
27081  27076  27073  0
26796  27076  26795  0
26800  26799  27082  0
26800  27082  27083  0
26800  27083  27069  0
27079  27084  26814  0
27079  26814  26547  0
27079  27085  27084  0
27086  27084  27085  0
26549  26349  26815  0
26549  26815  27080  0
27087  27076  27081  0
27076  27087  26795  0
26795  27087  26797  0
26799  26813  27082  0
27084  26816  26556  0
27084  26556  26814  0
27084  27086  26816  0
27088  26797  27087  0
26797  27088  26798  0
26813  26798  27088  0
27089  27082  26813  0
26558  26817  26818  0
27090  26818  26817  0
26817  26816  27091  0
27086  27091  26816  0
26557  27092  26815  0
26815  27092  27093  0
27087  27094  27088  0
27090  27095  26818  0
27096  27097  27098  0
27096  27099  27097  0
27093  27097  27099  0
27097  27093  27092  0
26819  27092  26557  0
26569  26820  26825  0
27100  26825  26820  0
26820  26818  27095  0
26564  26822  26821  0
27101  26821  26822  0
26821  27101  26563  0
27102  26563  27101  0
26563  27102  26823  0
27096  27098  27103  0
27104  27096  27103  0
26834  27098  27097  0
27097  27092  26834  0
26819  26834  27092  0
26568  26825  26827  0
27100  26827  26825  0
26822  27105  27101  0
26822  26565  27105  0
27106  27105  26565  0
26826  26823  27102  0
26832  27103  27098  0
27107  27104  27103  0
27098  26834  26832  0
26836  26834  26819  0
26819  26824  26836  0
26565  26828  27106  0
26826  27108  26830  0
27103  26832  27107  0
26832  26835  27107  0
27109  27107  26835  0
27110  26836  26824  0
26824  26567  27110  0
27111  27110  26567  0
26837  27111  26567  0
26827  26844  26571  0
26827  27112  26844  0
26830  27108  26845  0
27113  26845  27108  0
26835  26841  27109  0
27114  27109  26841  0
26836  27110  26842  0
26577  26845  26852  0
26852  26845  27115  0
27113  27115  26845  0
27116  27114  26841  0
26857  26842  27110  0
27110  27111  26857  0
27111  26837  26849  0
27117  26838  27118  0
26576  27118  26838  0
26841  26854  27116  0
27119  27116  26854  0
26857  27111  26858  0
27120  26858  27111  0
27111  26849  27120  0
26850  26843  27121  0
26576  26583  27118  0
27118  26583  27122  0
27123  26851  27124  0
26852  27124  26851  0
26854  27125  27119  0
26854  26860  27125  0
27126  27125  26860  0
26870  26858  27120  0
27120  26849  26870  0
26849  26582  26870  0
26850  27121  26580  0
26872  27127  27128  0
27128  27122  26872  0
26583  26872  27122  0
26580  27121  27129  0
27130  27127  26879  0
26872  26879  27127  0
27131  27130  26879  0
26863  26851  27123  0
27132  26873  26863  0
26873  27132  26584  0
26585  26584  27132  0
26860  26865  27126  0
27133  27126  26865  0
26865  26874  27133  0
27134  27133  26874  0
26580  27129  26893  0
27131  26879  26885  0
26878  26885  26879  0
26886  27131  26885  0
26863  27123  27132  0
27132  27135  26585  0
26585  27135  27136  0
26585  27136  26880  0
26880  27136  26881  0
26881  27137  26590  0
26590  27137  27138  0
26590  27138  26592  0
26592  27138  27139  0
26592  27139  26887  0
26874  26876  27134  0
27140  27134  26876  0
26876  26882  27140  0
27141  27140  26882  0
26889  26887  27142  0
26889  27142  26890  0
26882  26884  27141  0
27143  27141  26884  0
26884  26892  27143  0
26601  26896  26886  0
27144  26886  26896  0
26892  26894  27143  0
27145  27143  26894  0
27146  26899  27147  0
27147  26899  26897  0
27147  26897  27148  0
26897  26898  27149  0
26897  27149  27148  0
26898  26900  27149  0
26900  26607  26891  0
26894  26901  27150  0
26894  27150  27145  0
27151  26618  26902  0
27151  26902  26903  0
26903  27152  27151  0
26903  26899  27146  0
26903  27146  27152  0
26901  26904  27150  0
26618  27151  27153  0
26618  27153  26617  0
26620  26905  26906  0
26906  26912  26407  0
26621  26910  27154  0
26915  26919  26918  0
26915  27155  27156  0
26915  27156  26919  0
26909  26923  26910  0
26638  26911  27157  0
26638  27157  27158  0
27158  26914  26638  0
26914  27158  27159  0
26914  27159  26913  0
26626  26404  26920  0
26921  27160  26907  0
26907  27160  27161  0
26907  27161  26922  0
26925  26639  27162  0
26925  27162  27163  0
26639  26917  27164  0
26639  27164  27162  0
26634  26924  26635  0
26404  26637  27165  0
26404  27165  26920  0
26921  26920  27166  0
26921  27166  27160  0
26922  27161  26923  0
26930  26926  27167  0
26930  27167  27168  0
26926  26925  27163  0
26926  27163  27167  0
26928  27169  26924  0
27170  26924  27169  0
26924  27170  26635  0
27171  26635  27170  0
26635  27171  26929  0
27166  26920  27165  0
27166  27172  27160  0
27161  27160  27172  0
26643  27173  26641  0
26927  26641  27173  0
26643  27174  27173  0
27175  26929  27171  0
26932  27176  26637  0
27177  26637  27176  0
26930  27168  26649  0
26934  27178  26643  0
26931  26929  27175  0
26931  27175  27179  0
26931  27179  26935  0
26645  27180  26647  0
26645  26935  27180  0
27181  26935  27179  0
26648  27182  26933  0
26651  27183  26421  0
26936  26421  27183  0
26646  26647  27184  0
26647  27180  27184  0
27180  26935  27181  0
26648  26940  27182  0
26938  26424  26937  0
26651  26422  26938  0
26646  27184  26939  0
26939  27184  27185  0
26653  27186  26940  0
26652  26939  26941  0
26653  26942  27187  0
27188  26433  26030  0
26030  26430  27189  0
26655  26941  26943  0
27190  26942  26944  0
27187  26942  27190  0
26943  26941  27191  0
26658  26659  26656  0
27192  26656  26659  0
26659  26945  27192  0
27193  27192  26945  0
27194  26943  27191  0
26432  26437  27195  0
26945  26946  27193  0
26943  27194  26661  0
27196  26661  27194  0
26946  26664  27197  0
26664  26665  26950  0
26664  26950  27197  0
27198  27197  26950  0
26661  27196  26949  0
27199  26949  27196  0
27196  27200  27199  0
27201  27199  27200  0
27202  27201  27200  0
26947  27203  26667  0
27204  26667  27203  0
27205  26950  26951  0
26951  26949  27205  0
27206  27205  26949  0
26949  27199  27206  0
27201  27206  27199  0
26953  26667  27204  0
27207  26953  27204  0
27208  26952  26443  0
27209  26953  27207  0
26953  27209  26954  0
27210  26955  26954  0
26447  27208  26443  0
26957  26955  27210  0
26955  26957  26956  0
27210  27211  26957  0
27210  27212  27211  0
26959  26957  27211  0
27213  27211  27212  0
27211  27213  26959  0
26959  27213  26960  0
26674  26673  27214  0
27215  27216  26673  0
27217  26960  27213  0
27218  26452  27219  0
26960  27217  26961  0
27220  26961  27217  0
26961  27220  26679  0
27221  26679  27220  0
26679  27221  26680  0
27222  26680  27221  0
26452  26962  27223  0
26680  27222  26963  0
26962  26455  27224  0
26964  27224  26455  0
26966  26965  27225  0
27226  27225  26965  0
26968  27226  26965  0
27226  26968  26963  0
26683  26963  26968  0
27226  26963  27227  0
27228  27227  26963  0
26963  27222  27228  0
27229  26970  26967  0
27230  27229  26967  0
26967  26966  27230  0
26969  27231  27232  0
26969  27232  26964  0
27233  27231  26969  0
27229  26972  26970  0
27229  27234  26972  0
26969  26971  27233  0
26974  27233  26971  0
26973  26972  27234  0
27234  27235  26973  0
26976  26973  27235  0
26974  26977  27236  0
26978  27236  26977  0
27235  27237  26976  0
26980  26976  27238  0
27238  26976  27239  0
26692  26982  27240  0
26983  27240  26982  0
26983  26984  27241  0
27242  27241  26984  0
26984  26985  27242  0
27243  27242  26985  0
26985  26988  27244  0
26985  27244  27243  0
26988  27006  27245  0
26988  27245  27244  0
26997  26998  26999  0
26998  27000  27246  0
26998  27246  26999  0
27000  27001  27247  0
27000  27247  27246  0
27001  27248  27247  0
27004  27249  27250  0
27004  27250  27002  0
27005  26724  27012  0
27005  27012  27006  0
27006  27012  27013  0
27006  27013  27251  0
27006  27251  27252  0
27006  27252  27245  0
26999  27253  27008  0
26999  27246  27254  0
26999  27254  27253  0
27246  27255  27254  0
27009  27010  27256  0
27009  27256  27257  0
27009  27257  27016  0
27010  27011  27258  0
27010  27258  27256  0
27011  27002  27250  0
27011  27250  27258  0
27013  26741  27018  0
27013  27018  27259  0
27013  27259  27251  0
27259  27018  27019  0
27259  27260  27251  0
27259  27019  27261  0
27259  27261  27260  0
27008  27253  27262  0
27008  27262  27014  0
27253  27254  27262  0
27254  27255  27263  0
27015  27016  27257  0
27015  27257  27264  0
27015  27264  27017  0
27019  27014  27265  0
27019  27265  27261  0
27014  27262  27266  0
27262  27254  27263  0
27262  27263  27267  0
27262  27267  27266  0
26745  27022  26744  0
27020  27017  27264  0
27020  27264  27268  0
27020  27268  27269  0
27020  27269  27021  0
27266  27270  27271  0
27022  26750  27272  0
27023  27021  27269  0
27023  27269  27273  0
27023  27273  27274  0
27271  27270  27275  0
27271  27275  27276  0
26750  27025  27277  0
26750  27277  27272  0
27023  27274  27024  0
27278  27024  27274  0
27276  27275  27279  0
27025  27027  27280  0
27025  27280  27277  0
27027  27024  27278  0
27027  27278  27280  0
27031  27037  27032  0
27033  27281  26752  0
27282  26752  27281  0
27283  26752  27282  0
26752  27283  27029  0
27284  27029  27283  0
27029  27284  27034  0
27285  27034  27284  0
27034  27285  27035  0
27286  27035  27285  0
27035  27286  27036  0
27287  27036  27286  0
27036  27287  27037  0
27288  27037  27287  0
27037  27288  27032  0
27038  27032  27288  0
27040  27289  27033  0
27281  27033  27289  0
27040  27290  27289  0
27047  26764  27038  0
27042  27043  27291  0
27042  27291  27044  0
27044  27292  27041  0
27044  27291  27293  0
27044  27293  27292  0
27041  27292  27040  0
27290  27040  27292  0
26765  27294  27043  0
27295  27043  27294  0
27043  27295  27291  0
27296  27291  27295  0
27293  27291  27296  0
26766  27045  27297  0
26766  27297  27056  0
27045  27049  27298  0
27045  27298  27297  0
27049  27050  27299  0
27049  27299  27298  0
27050  27051  27300  0
27050  27300  27299  0
27051  26769  27301  0
27051  27301  27300  0
26769  27047  27301  0
27054  27302  27055  0
27054  27056  27303  0
27054  27303  27302  0
27058  27304  27057  0
27058  27059  27305  0
27058  27305  27304  0
27059  27055  27306  0
27059  27306  27305  0
27055  27302  27307  0
27055  27307  27306  0
27061  27060  27308  0
27061  27308  27309  0
27057  27304  27310  0
27057  27310  27060  0
27311  27063  27062  0
27312  26779  27065  0
26779  27312  26782  0
27313  26783  26782  0
27062  27067  27311  0
27062  27064  27067  0
26783  27313  27066  0
27072  27066  27313  0
26787  26540  27314  0
27070  27314  26540  0
27072  27315  27073  0
27316  27073  27315  0
27081  27073  27316  0
27083  27074  27069  0
27074  27083  27077  0
27077  27317  26806  0
26806  27317  26809  0
26809  27317  27078  0
27078  27318  27079  0
27085  27079  27318  0
27319  27075  27080  0
27320  27077  27083  0
27321  27083  27082  0
27322  27085  27318  0
26815  27319  27080  0
27323  27087  27081  0
27082  27089  27321  0
27324  27321  27089  0
27085  27091  27086  0
27085  27322  27091  0
27319  26815  27093  0
27094  27087  27323  0
26817  27091  27325  0
26817  27325  27090  0
27093  27099  27319  0
27099  27326  27319  0
27327  27326  27099  0
27088  27094  27328  0
26813  27088  27089  0
27095  27090  27329  0
27096  27330  27327  0
27096  27327  27099  0
27331  27330  27096  0
27088  27328  27332  0
27088  27332  27333  0
27088  27333  27089  0
26820  27095  27334  0
26820  27334  27100  0
27096  27104  27331  0
27335  27105  27336  0
27106  27336  27105  0
27335  27337  27105  0
27338  27335  27336  0
27105  27337  27339  0
27105  27339  27101  0
27101  27339  27340  0
27101  27340  27102  0
27102  27340  26826  0
26827  27100  27341  0
26827  27341  27112  0
27336  27106  27342  0
26828  27342  27106  0
27336  27342  27338  0
27343  27338  27342  0
26826  27340  27344  0
26826  27344  27108  0
27107  27109  27345  0
27346  27345  27109  0
27117  27347  27342  0
27342  27347  27343  0
27342  26828  27117  0
26838  27117  26828  0
27108  27344  27113  0
27109  27114  27346  0
27348  27347  27349  0
27117  27349  27347  0
27348  27343  27347  0
26852  27115  27124  0
27350  27351  27115  0
27115  27351  27352  0
27115  27352  27124  0
27115  27113  27350  0
27114  27116  27346  0
27353  27346  27116  0
27112  26843  26844  0
27354  27355  27356  0
27355  27354  27357  0
27355  27357  27358  0
27358  27349  27122  0
27118  27122  27349  0
27358  27357  27348  0
27358  27348  27349  0
27349  27117  27118  0
27124  27352  27359  0
26843  27112  27121  0
27356  27355  27127  0
27356  27127  27360  0
27355  27358  27128  0
27355  27128  27127  0
27358  27122  27128  0
27359  27361  27123  0
27359  27123  27124  0
27359  27362  27361  0
27125  27363  27116  0
27125  27116  27119  0
27125  27126  27364  0
27125  27364  27363  0
27360  27127  27130  0
27360  27130  27365  0
27361  27366  27123  0
27361  27367  27366  0
27126  27368  27364  0
27130  27131  27365  0
27366  27367  27369  0
27126  27133  27370  0
27126  27370  27368  0
27133  27134  27370  0
27131  27371  27365  0
27131  26886  27372  0
27131  27372  27371  0
27369  27367  27373  0
27123  27366  27374  0
27123  27374  27132  0
27132  27375  27135  0
27132  27374  27375  0
27136  27376  26881  0
26881  27376  27137  0
27137  27377  27138  0
27138  27377  27139  0
26887  27139  27142  0
27134  27140  27378  0
27134  27378  27370  0
27140  27141  27379  0
27140  27379  27378  0
27141  27380  27379  0
26893  27129  27381  0
26886  27144  27382  0
26886  27382  27372  0
27366  27369  27374  0
27142  26891  26890  0
27141  27143  27380  0
27143  27383  27384  0
27143  27384  27380  0
27144  26896  27382  0
27385  27148  27149  0
27385  27149  27386  0
27385  27386  27387  0
27386  27149  26900  0
27386  27388  27387  0
27386  26900  26891  0
27386  26891  27142  0
27386  27142  27388  0
27143  27145  27383  0
27145  27389  27383  0
26893  27381  26895  0
27390  27152  27146  0
27390  27146  27147  0
27147  27148  27391  0
27147  27391  27390  0
27145  27150  27389  0
27150  27392  27389  0
27150  26904  27392  0
26895  27381  27393  0
26896  26895  27394  0
26895  27395  27394  0
27153  26905  26617  0
26904  26619  27396  0
26619  27397  27396  0
27393  27398  26895  0
26895  27398  27395  0
26906  26905  27399  0
26619  26621  27397  0
27154  27397  26621  0
26912  26906  27400  0
26906  27399  27400  0
27400  27157  26911  0
27400  26911  26912  0
27158  27401  27159  0
27159  27155  26913  0
27159  27402  27155  0
27155  26915  26913  0
27155  27403  27156  0
27404  26919  27156  0
27405  26919  27404  0
26910  27406  27154  0
26917  26919  27405  0
26917  27405  27407  0
26923  27406  26910  0
27163  27162  27408  0
27164  26917  27407  0
27164  27407  27162  0
26923  27161  27406  0
27409  27168  27410  0
26928  26927  27411  0
26928  27411  27169  0
27169  27412  27170  0
26637  27177  27165  0
27165  27177  27172  0
27165  27172  27166  0
26927  27173  27413  0
26927  27413  27411  0
27170  27412  27171  0
27414  27171  27412  0
27171  27414  27175  0
27415  27172  27177  0
27416  27172  27415  0
27172  27416  27161  0
27168  27409  26649  0
27417  26649  27409  0
26643  27178  27174  0
27418  27413  27173  0
27419  27179  27175  0
27175  27414  27419  0
27420  27419  27414  0
26932  26933  27176  0
27421  27176  26933  0
27422  27174  27178  0
27174  27422  27173  0
27418  27173  27422  0
27179  27419  27181  0
27423  27181  27419  0
27419  27420  27423  0
27182  27424  26933  0
26933  27424  27421  0
26649  27417  26650  0
27425  26650  27417  0
27183  27426  26936  0
27427  26934  26936  0
26934  27427  27178  0
27422  27178  27427  0
27180  27181  27184  0
27428  27184  27181  0
27181  27423  27428  0
27429  27423  27420  0
27430  27424  27182  0
26650  27425  26937  0
26938  27431  26651  0
27432  26651  27431  0
26651  27432  27183  0
27426  27183  27432  0
27426  27433  26936  0
27434  27185  27184  0
27184  27428  27434  0
27435  27434  27428  0
27428  27423  27435  0
27429  27435  27423  0
26939  27185  27436  0
27437  27436  27185  0
27185  27434  27438  0
27185  27438  27437  0
27439  27434  27435  0
26939  27436  26941  0
27440  27437  27438  0
26653  27187  27186  0
26030  27189  27188  0
26657  27189  26430  0
27441  27191  26941  0
26941  27436  27441  0
27436  27437  27441  0
27442  27441  27437  0
27443  27190  26944  0
27190  27443  27187  0
27187  27443  27186  0
27189  26657  27444  0
27445  27444  26657  0
26657  26656  27445  0
26432  27195  26944  0
26433  27188  26438  0
26947  26438  27188  0
26656  27192  27445  0
27446  27445  27192  0
27192  27193  27446  0
27191  27441  27194  0
27447  27194  27441  0
27448  27195  26437  0
27449  27446  27193  0
27193  26946  27449  0
26946  27197  27449  0
27450  27449  27197  0
27194  27447  27196  0
27200  27196  27447  0
27451  27200  27447  0
26437  26952  27448  0
27197  27198  27450  0
27452  27450  27198  0
27198  26950  27453  0
27205  27453  26950  0
27198  27453  27452  0
27454  27453  27205  0
27200  27451  27202  0
27455  27202  27451  0
27456  27455  27451  0
27457  27204  27203  0
27205  27206  27454  0
27458  27454  27206  0
27206  27201  27458  0
27459  27458  27201  0
27460  27202  27455  0
27455  27456  27460  0
27204  27457  27461  0
27201  27202  27459  0
27202  27460  27459  0
27461  27207  27204  0
27461  27462  27207  0
27207  27462  27209  0
27209  27463  26954  0
27209  27462  27463  0
27463  27464  26954  0
27210  26954  27464  0
27463  27465  27464  0
27212  27210  27464  0
27464  27465  27466  0
27464  27466  27212  0
27212  27466  27467  0
27212  27467  27213  0
27213  27467  27468  0
27469  27216  27215  0
27215  27470  27469  0
27471  27218  27219  0
27213  27468  27472  0
27213  27472  27217  0
27470  27219  27469  0
27219  27473  27469  0
27474  27469  27473  0
27219  26452  27475  0
27223  27475  26452  0
27219  27475  27473  0
27217  27472  27220  0
27473  27476  27474  0
27473  27475  27476  0
27223  26962  27224  0
27232  27224  26964  0
27477  27229  27230  0
27478  27477  27230  0
26966  27225  27230  0
27230  27225  27478  0
27225  27226  27478  0
27479  27478  27226  0
27226  27227  27479  0
27228  27479  27227  0
27477  27480  27229  0
27481  27234  27229  0
27236  26978  27482  0
26978  26979  27482  0
27237  27483  26976  0
26692  27484  27485  0
26692  27240  27484  0
27483  27239  26976  0
27484  27240  27486  0
27240  26983  27487  0
27488  27489  27485  0
26983  27241  27490  0
26983  27490  27487  0
27239  27483  27491  0
27241  27242  27492  0
27241  27492  27490  0
27493  27488  27494  0
27242  27243  27492  0
27243  27244  27495  0
27244  27245  27252  0
27244  27252  27496  0
27244  27496  27495  0
27249  27497  27250  0
27252  27251  27498  0
27252  27498  27496  0
27498  27251  27260  0
27498  27260  27499  0
27498  27499  27500  0
27499  27260  27501  0
27499  27501  27500  0
27246  27247  27502  0
27246  27502  27255  0
27256  27258  27503  0
27256  27503  27504  0
27256  27504  27257  0
27258  27250  27497  0
27258  27497  27503  0
27260  27261  27505  0
27260  27505  27501  0
27255  27502  27506  0
27255  27506  27263  0
27257  27504  27507  0
27257  27507  27264  0
27508  27264  27507  0
27261  27509  27510  0
27261  27510  27505  0
27263  27506  27511  0
27263  27511  27267  0
27506  27512  27511  0
26744  27022  27513  0
27268  27264  27514  0
27268  27514  27515  0
27268  27515  27269  0
27264  27508  27514  0
27266  27267  27270  0
27267  27511  27516  0
27267  27516  27270  0
27022  27272  27513  0
27273  27269  27515  0
27517  27274  27273  0
27509  27279  27518  0
27270  27516  27519  0
27270  27519  27275  0
27520  27275  27519  0
27272  27277  27521  0
27274  27517  27278  0
27522  27278  27517  0
27279  27275  27520  0
27279  27520  27518  0
27280  27278  27522  0
27280  27522  27277  0
27281  27523  27282  0
27524  27523  27281  0
27282  27523  27283  0
27525  27283  27523  0
27283  27525  27284  0
27526  27284  27525  0
27284  27526  27285  0
27527  27285  27526  0
27285  27528  27286  0
27287  27286  27528  0
27287  27529  27288  0
27530  27288  27529  0
27287  27531  27529  0
27288  27530  27038  0
27524  27281  27289  0
27532  27289  27290  0
27285  27527  27528  0
27533  27287  27528  0
27529  27531  27530  0
27534  27530  27531  0
27530  27535  27038  0
27047  27038  27535  0
27290  27292  27536  0
27292  27293  27536  0
27537  27536  27293  0
27530  27301  27535  0
27047  27535  27301  0
27530  27534  27301  0
27295  27538  27296  0
27539  27296  27538  0
27296  27539  27293  0
27537  27293  27539  0
27056  27297  27303  0
27540  27303  27297  0
27297  27298  27540  0
27541  27540  27298  0
27298  27299  27541  0
27300  27541  27299  0
27300  27301  27534  0
27300  27534  27542  0
27543  27544  27309  0
27302  27303  27307  0
27545  27307  27303  0
27546  27545  27303  0
27303  27540  27546  0
27547  27546  27540  0
27540  27541  27547  0
27548  27547  27541  0
27541  27300  27548  0
27542  27548  27300  0
27549  27543  27309  0
27550  27304  27305  0
27551  27306  27307  0
27307  27545  27551  0
27552  27551  27545  0
27309  27308  27549  0
27553  27308  27060  0
27060  27310  27553  0
27554  27553  27310  0
27310  27304  27554  0
27550  27554  27304  0
27063  27311  27065  0
27313  26782  27312  0
27311  27555  27065  0
27556  27065  27555  0
27311  27067  27555  0
27557  27555  27067  0
27065  27556  27312  0
27558  27313  27312  0
27067  27068  27557  0
27559  27557  27068  0
27313  27558  27072  0
27560  27072  27558  0
27314  27068  26787  0
27072  27560  27315  0
27561  27316  27315  0
27068  27314  27559  0
27562  27314  27070  0
27316  27561  27081  0
27077  27320  27317  0
27563  27078  27317  0
27078  27563  27318  0
27564  27318  27563  0
27070  27075  27562  0
27319  27562  27075  0
27083  27321  27320  0
27565  27320  27321  0
27563  27317  27565  0
27566  27318  27564  0
27318  27566  27322  0
27319  27567  27562  0
27081  27568  27323  0
27569  27325  27322  0
27091  27322  27325  0
27569  27322  27566  0
27567  27319  27326  0
27570  27567  27326  0
27325  27569  27571  0
27325  27571  27090  0
27326  27327  27570  0
27089  27333  27572  0
27089  27572  27324  0
27095  27329  27334  0
27329  27090  27573  0
27571  27573  27090  0
27330  27574  27327  0
27330  27331  27574  0
27575  27574  27331  0
27331  27104  27576  0
27331  27576  27575  0
27334  27577  27100  0
27335  27578  27337  0
27335  27338  27579  0
27335  27579  27578  0
27104  27107  27345  0
27104  27345  27580  0
27104  27580  27576  0
27580  27345  27581  0
27100  27582  27341  0
27583  27338  27343  0
27583  27343  27584  0
27583  27585  27338  0
27583  27584  27585  0
27338  27585  27579  0
27340  27586  27344  0
27345  27346  27581  0
27341  27587  27588  0
27341  27588  27112  0
27589  27584  27348  0
27589  27348  27590  0
27589  27590  27591  0
27584  27343  27348  0
27344  27350  27113  0
27346  27592  27581  0
27357  27591  27590  0
27357  27354  27593  0
27357  27593  27591  0
27590  27348  27357  0
27351  27350  27344  0
27351  27344  27594  0
27351  27594  27352  0
27346  27353  27592  0
27595  27354  27356  0
27595  27593  27354  0
27353  27116  27596  0
27112  27588  27597  0
27112  27597  27121  0
27356  27360  27598  0
27356  27598  27595  0
27362  27359  27352  0
27362  27352  27599  0
27363  27596  27116  0
27363  27364  27600  0
27363  27600  27596  0
27360  27365  27601  0
27360  27601  27598  0
27361  27362  27602  0
27361  27602  27367  0
27364  27368  27603  0
27364  27603  27600  0
27121  27597  27604  0
27121  27604  27129  0
27605  27365  27371  0
27605  27601  27365  0
27367  27602  27606  0
27367  27606  27373  0
27607  27608  27137  0
27607  27137  27376  0
27607  27609  27608  0
27607  27376  27610  0
27608  27377  27137  0
27370  27611  27368  0
27135  27375  27612  0
27135  27612  27136  0
27136  27612  27610  0
27136  27610  27376  0
27377  27613  27614  0
27377  27614  27139  0
27377  27608  27615  0
27377  27615  27613  0
27139  27614  27142  0
27370  27378  27616  0
27370  27616  27611  0
27378  27379  27616  0
27379  27380  27617  0
27129  27604  27618  0
27129  27618  27381  0
27373  27619  27369  0
27374  27369  27620  0
27613  27385  27387  0
27613  27387  27614  0
27613  27615  27621  0
27613  27621  27385  0
27614  27387  27388  0
27614  27388  27142  0
27380  27622  27617  0
27380  27384  27622  0
27384  27383  27623  0
27382  27624  27372  0
27382  27625  27624  0
27619  27626  27369  0
27391  27148  27385  0
27391  27385  27621  0
27383  27389  27627  0
27383  27627  27623  0
27382  26896  27394  0
27382  27394  27625  0
27151  27152  27628  0
27151  27628  27153  0
27152  27390  27629  0
27152  27629  27628  0
27390  27391  27629  0
27389  27392  27627  0
26904  27630  27392  0
26904  27396  27630  0
26905  27153  27631  0
27153  27632  27631  0
26905  27631  27399  0
27633  27399  27631  0
27400  27399  27633  0
27401  27157  27400  0
27157  27401  27158  0
27402  27159  27401  0
27634  27155  27402  0
27155  27634  27403  0
27635  27405  27404  0
27407  27405  27635  0
27163  27408  27636  0
27163  27636  27167  0
27162  27407  27637  0
27162  27637  27408  0
27168  27167  27410  0
27167  27636  27410  0
27161  27638  27406  0
27639  27406  27638  0
27411  27413  27169  0
27640  27169  27413  0
27169  27640  27412  0
27641  27412  27640  0
27412  27641  27414  0
27177  27642  27415  0
27638  27161  27416  0
27413  27418  27640  0
27643  27640  27418  0
27640  27643  27641  0
27644  27414  27641  0
27414  27644  27420  0
27176  27421  27177  0
27642  27177  27421  0
27642  27645  27415  0
27646  27415  27645  0
27647  27415  27646  0
27415  27647  27416  0
27422  27648  27418  0
27418  27648  27643  0
27649  27643  27648  0
27650  27420  27644  0
27430  27421  27424  0
27417  27651  27425  0
27652  27422  27427  0
27422  27652  27648  0
27649  27648  27653  0
27648  27652  27653  0
27420  27650  27429  0
27654  27425  27655  0
27425  27654  26937  0
26937  27654  26938  0
27431  26938  27654  0
27427  26936  27433  0
27427  27656  27652  0
27657  27652  27656  0
27435  27429  27439  0
27658  27429  27650  0
27659  27430  27182  0
27182  26940  27659  0
27432  27660  27426  0
27661  27426  27660  0
27426  27661  27433  0
27662  27433  27661  0
27663  27438  27434  0
27434  27439  27663  0
27664  27663  27439  0
27439  27429  27664  0
27665  27664  27429  0
27429  27658  27665  0
26940  27186  27659  0
27438  27663  27440  0
27666  27440  27663  0
27663  27664  27666  0
27667  27666  27664  0
27664  27665  27667  0
27668  27665  27658  0
27669  27659  27186  0
27437  27440  27442  0
27440  27666  27442  0
27670  27442  27666  0
27666  27667  27670  0
27671  27667  27665  0
27665  27668  27671  0
26944  27672  27443  0
27669  27186  27443  0
27188  27189  27673  0
27189  27444  27674  0
27444  27445  27675  0
27442  27670  27676  0
27677  27670  27667  0
27667  27671  27677  0
27678  27443  27672  0
27669  27443  27678  0
27445  27446  27675  0
27679  27675  27446  0
27441  27442  27447  0
27680  27447  27442  0
27442  27676  27680  0
27681  27680  27676  0
27676  27670  27681  0
27682  27681  27670  0
27670  27677  27683  0
27670  27683  27682  0
26947  27684  27203  0
27685  27679  27446  0
27446  27449  27685  0
27686  27449  27450  0
27447  27680  27451  0
27680  27681  27451  0
27457  27203  27684  0
27452  27686  27450  0
27452  27453  27687  0
27454  27687  27453  0
27451  27681  27456  0
27681  27682  27456  0
27688  27456  27682  0
27682  27683  27689  0
27682  27689  27688  0
27448  26952  27690  0
27691  27687  27454  0
27454  27458  27691  0
27692  27691  27458  0
27693  27692  27458  0
27694  27460  27456  0
27456  27688  27694  0
27695  27694  27688  0
27688  27689  27695  0
27208  27690  26952  0
27458  27459  27693  0
27696  27693  27459  0
27697  27696  27459  0
27459  27460  27697  0
27698  27697  27460  0
27460  27694  27698  0
27694  27695  27698  0
27699  27698  27695  0
27695  27689  27700  0
27695  27700  27699  0
27699  27700  27701  0
27461  27702  27462  0
27697  27698  27703  0
27704  27703  27698  0
27705  27704  27698  0
27462  27702  27706  0
27698  27699  27705  0
27707  27705  27699  0
27463  27462  27708  0
27462  27706  27709  0
27462  27709  27708  0
27465  27463  27708  0
27710  27208  26447  0
27465  27708  27711  0
26447  26674  27710  0
27214  27710  26674  0
27465  27711  27466  0
27466  27712  27467  0
27467  27712  27713  0
27467  27713  27468  0
27216  27469  27714  0
27468  27715  27716  0
27468  27716  27472  0
27469  27474  27717  0
27475  27223  27717  0
27472  27718  27220  0
27220  27718  27221  0
27474  27476  27475  0
27474  27475  27717  0
27223  27224  27717  0
27719  27478  27479  0
27719  27479  27720  0
27719  27720  27721  0
27719  27721  27722  0
27719  27722  27478  0
27479  27228  27723  0
27479  27723  27720  0
27228  27724  27723  0
27221  27724  27222  0
27224  27232  27725  0
27480  27477  27726  0
27477  27722  27726  0
27477  27478  27722  0
27228  27222  27724  0
27232  27231  27725  0
27480  27481  27229  0
27233  27727  27231  0
26974  27236  27728  0
26974  27728  27233  0
27729  27236  27482  0
27729  27482  27730  0
27729  27728  27236  0
26979  27731  27482  0
27485  27484  27486  0
27486  27240  27487  0
27486  27487  27732  0
27485  27733  27488  0
27487  27734  27732  0
27487  27490  27734  0
27491  27483  27735  0
27491  27735  27736  0
27737  27488  27733  0
27737  27738  27488  0
27490  27492  27739  0
27494  27488  27738  0
27492  27243  27495  0
27492  27495  27739  0
27493  27494  27740  0
27741  27742  27740  0
27495  27496  27743  0
27496  27498  27744  0
27496  27744  27743  0
27744  27498  27500  0
27744  27500  27745  0
27746  27497  27747  0
27500  27501  27748  0
27500  27748  27745  0
27504  27503  27749  0
27503  27497  27746  0
27503  27746  27749  0
27501  27750  27748  0
27507  27504  27751  0
27504  27749  27751  0
27505  27752  27501  0
27750  27501  27752  0
27505  27510  27752  0
27515  27514  27753  0
27514  27508  27754  0
27514  27754  27753  0
27509  27755  27510  0
27510  27755  27752  0
27516  27511  27756  0
27273  27515  27757  0
27273  27757  27517  0
27515  27753  27758  0
27515  27758  27757  0
27509  27518  27755  0
27755  27518  27759  0
27519  27516  27760  0
27519  27760  27520  0
27517  27757  27761  0
27517  27761  27522  0
27762  27759  27518  0
27518  27520  27762  0
27763  27762  27520  0
27520  27760  27763  0
27761  27521  27277  0
27277  27522  27761  0
27764  27523  27765  0
27523  27524  27765  0
27766  27765  27524  0
27523  27764  27525  0
27767  27525  27764  0
27525  27768  27526  0
27527  27526  27768  0
27525  27767  27768  0
27769  27768  27767  0
27287  27533  27531  0
27289  27532  27524  0
27770  27524  27532  0
27524  27770  27766  0
27771  27766  27770  0
27768  27769  27527  0
27772  27527  27769  0
27527  27772  27528  0
27773  27528  27772  0
27528  27773  27533  0
27774  27533  27773  0
27533  27774  27531  0
27534  27531  27774  0
27536  27775  27290  0
27776  27290  27775  0
27536  27537  27775  0
27777  27775  27537  0
27290  27776  27532  0
27778  27532  27776  0
27532  27778  27770  0
27771  27770  27778  0
27779  27774  27773  0
27294  27544  27295  0
27543  27295  27544  0
27295  27543  27538  0
27780  27538  27543  0
27538  27780  27539  0
27781  27539  27780  0
27539  27782  27537  0
27777  27537  27782  0
27539  27781  27782  0
27783  27782  27781  0
27774  27542  27534  0
27774  27779  27542  0
27543  27549  27780  0
27784  27780  27549  0
27780  27784  27781  0
27785  27781  27784  0
27781  27785  27783  0
27786  27783  27785  0
27545  27546  27552  0
27547  27552  27546  0
27547  27548  27787  0
27779  27787  27548  0
27547  27787  27788  0
27548  27542  27779  0
27549  27308  27784  0
27553  27784  27308  0
27784  27553  27785  0
27554  27785  27553  0
27785  27554  27786  0
27550  27786  27554  0
27305  27306  27789  0
27305  27789  27550  0
27306  27551  27789  0
27790  27551  27552  0
27552  27547  27790  0
27788  27790  27547  0
27791  27555  27557  0
27312  27556  27558  0
27557  27559  27791  0
27792  27791  27559  0
27793  27792  27559  0
27794  27315  27560  0
27315  27794  27561  0
27559  27314  27795  0
27562  27795  27314  0
27559  27795  27793  0
27796  27793  27795  0
27797  27081  27561  0
27562  27798  27795  0
27795  27798  27796  0
27081  27797  27568  0
27320  27565  27317  0
27799  27563  27565  0
27563  27799  27564  0
27800  27566  27564  0
27798  27562  27801  0
27567  27801  27562  0
27323  27568  27802  0
27321  27324  27565  0
27572  27565  27324  0
27565  27572  27803  0
27801  27567  27804  0
27570  27804  27567  0
27801  27804  27805  0
27806  27805  27804  0
27323  27802  27807  0
27323  27807  27094  0
27804  27570  27574  0
27327  27574  27570  0
27804  27574  27806  0
27808  27806  27574  0
27574  27575  27808  0
27809  27808  27575  0
27094  27810  27328  0
27334  27329  27811  0
27573  27811  27329  0
27334  27811  27577  0
27575  27576  27812  0
27575  27812  27809  0
27577  27813  27582  0
27577  27582  27100  0
27578  27579  27585  0
27337  27814  27339  0
27337  27578  27814  0
27339  27814  27340  0
27580  27581  27815  0
27580  27815  27576  0
27582  27587  27341  0
27585  27584  27816  0
27814  27586  27340  0
27589  27817  27816  0
27589  27816  27584  0
27589  27591  27817  0
27586  27594  27344  0
27586  27814  27818  0
27586  27818  27594  0
27581  27592  27819  0
27591  27820  27817  0
27591  27593  27820  0
27594  27818  27821  0
27594  27821  27352  0
27595  27822  27593  0
27593  27822  27820  0
27823  27599  27352  0
27823  27352  27821  0
27353  27596  27824  0
27353  27824  27592  0
27595  27598  27825  0
27595  27825  27822  0
27822  27826  27820  0
27826  27822  27827  0
27602  27362  27599  0
27602  27599  27828  0
27596  27600  27829  0
27596  27829  27824  0
27598  27601  27830  0
27598  27830  27825  0
27825  27831  27822  0
27822  27831  27827  0
27827  27831  27832  0
27827  27832  27826  0
27832  27602  27828  0
27832  27828  27826  0
27600  27603  27833  0
27600  27833  27829  0
27597  27834  27604  0
27601  27835  27830  0
27601  27605  27836  0
27601  27836  27835  0
27825  27837  27831  0
27831  27837  27838  0
27831  27838  27832  0
27832  27838  27606  0
27832  27606  27602  0
27610  27839  27840  0
27610  27840  27607  0
27610  27612  27839  0
27607  27840  27841  0
27607  27841  27609  0
27603  27368  27611  0
27603  27611  27842  0
27603  27842  27833  0
27605  27371  27843  0
27605  27843  27836  0
27837  27844  27838  0
27375  27845  27612  0
27375  27846  27845  0
27609  27847  27608  0
27608  27847  27848  0
27608  27848  27615  0
27611  27849  27842  0
27611  27616  27849  0
27616  27379  27617  0
27604  27834  27618  0
27371  27372  27624  0
27371  27624  27843  0
27374  27850  27846  0
27374  27846  27375  0
27374  27620  27850  0
27851  27621  27615  0
27851  27615  27848  0
27851  27852  27621  0
27616  27617  27853  0
27616  27853  27849  0
27617  27622  27854  0
27617  27854  27853  0
27384  27623  27855  0
27384  27855  27622  0
27844  27856  27838  0
27838  27856  27606  0
27606  27856  27373  0
27369  27626  27620  0
27621  27629  27391  0
27621  27852  27629  0
27623  27857  27855  0
27623  27627  27857  0
27618  27858  27381  0
27373  27856  27859  0
27373  27859  27619  0
27619  27859  27626  0
27628  27629  27860  0
27392  27861  27627  0
27381  27858  27393  0
27153  27628  27862  0
27153  27862  27632  0
27392  27630  27861  0
27630  27396  27863  0
27398  27393  27864  0
27394  27865  27866  0
27394  27866  27625  0
27396  27867  27863  0
27394  27395  27868  0
27394  27868  27865  0
27633  27631  27869  0
27396  27397  27867  0
27870  27395  27398  0
27395  27871  27868  0
27397  27872  27867  0
27633  27873  27400  0
27874  27873  27633  0
27875  27395  27876  0
27395  27875  27871  0
27400  27873  27401  0
27402  27401  27873  0
27873  27874  27402  0
27634  27402  27874  0
27877  27403  27634  0
27403  27878  27156  0
27404  27156  27878  0
27403  27877  27878  0
27878  27879  27404  0
27880  27404  27879  0
27878  27877  27879  0
27881  27879  27877  0
27879  27882  27880  0
27879  27881  27882  0
27883  27882  27881  0
27884  27882  27883  0
27397  27154  27872  0
27406  27872  27154  0
27404  27880  27635  0
27885  27635  27880  0
27880  27882  27885  0
27884  27885  27882  0
27407  27635  27637  0
27886  27637  27635  0
27635  27885  27886  0
27887  27886  27885  0
27885  27884  27888  0
27889  27888  27884  0
27890  27636  27408  0
27408  27637  27890  0
27886  27890  27637  0
27891  27410  27636  0
27409  27410  27892  0
27409  27892  27417  0
27893  27639  27638  0
27894  27641  27643  0
27641  27894  27644  0
27893  27638  27416  0
27895  27643  27649  0
27643  27895  27894  0
27896  27894  27895  0
27894  27896  27644  0
27650  27644  27896  0
27421  27897  27642  0
27421  27430  27897  0
27898  27645  27642  0
27645  27898  27646  0
27899  27646  27898  0
27646  27899  27647  0
27900  27647  27899  0
27647  27900  27416  0
27901  27416  27900  0
27416  27901  27893  0
27655  27425  27651  0
27902  27649  27653  0
27649  27902  27895  0
27903  27895  27902  0
27895  27903  27896  0
27904  27650  27896  0
27897  27430  27905  0
27651  27906  27655  0
27907  27655  27906  0
27655  27907  27654  0
27908  27654  27907  0
27654  27908  27431  0
27432  27431  27908  0
27652  27657  27653  0
27909  27653  27657  0
27653  27909  27902  0
27910  27902  27909  0
27902  27911  27903  0
27912  27903  27911  0
27902  27910  27911  0
27650  27904  27658  0
27913  27658  27904  0
27905  27430  27914  0
27915  27914  27430  0
27430  27659  27915  0
27908  27916  27432  0
27432  27916  27660  0
27917  27433  27662  0
27433  27917  27427  0
27918  27427  27917  0
27427  27918  27656  0
27919  27656  27918  0
27656  27919  27657  0
27920  27910  27909  0
27668  27658  27913  0
27921  27915  27659  0
27660  27922  27661  0
27662  27661  27922  0
27923  27657  27919  0
27924  27919  27918  0
27657  27923  27909  0
27920  27909  27923  0
27659  27669  27921  0
27925  27671  27668  0
27674  27673  27189  0
27444  27675  27674  0
27677  27671  27926  0
27927  27926  27671  0
27671  27925  27927  0
26944  27195  27672  0
27678  27928  27669  0
27188  27673  27929  0
27188  27929  26947  0
27673  27674  27929  0
27674  27675  27930  0
27675  27679  27931  0
27677  27926  27683  0
27932  27683  27926  0
27926  27927  27932  0
27933  27932  27927  0
27927  27925  27934  0
27927  27934  27935  0
27927  27935  27933  0
27936  27195  27448  0
27690  27936  27448  0
27195  27936  27937  0
27195  27937  27672  0
27672  27937  27938  0
27672  27938  27678  0
27678  27938  27928  0
26947  27929  27684  0
27931  27679  27939  0
27940  27939  27679  0
27679  27685  27940  0
27686  27685  27449  0
27941  27683  27932  0
27932  27933  27941  0
27942  27941  27933  0
27933  27935  27942  0
27943  27940  27685  0
27685  27686  27943  0
27686  27452  27943  0
27944  27943  27452  0
27683  27941  27689  0
27945  27941  27942  0
27452  27687  27944  0
27946  27944  27687  0
27687  27691  27947  0
27687  27947  27946  0
27691  27692  27693  0
27691  27693  27948  0
27691  27948  27947  0
27689  27941  27700  0
27941  27945  27700  0
27949  27702  27461  0
27949  27461  27457  0
27696  27697  27703  0
27696  27950  27693  0
27703  27704  27951  0
27704  27705  27951  0
27699  27701  27707  0
27951  27705  27952  0
27951  27952  27953  0
27951  27953  27954  0
27951  27954  27703  0
27705  27707  27955  0
27705  27955  27952  0
27707  27701  27956  0
27707  27956  27955  0
27953  27952  27957  0
27953  27957  27958  0
27952  27955  27957  0
27955  27956  27959  0
27955  27959  27957  0
27708  27709  27711  0
27710  27214  27960  0
27711  27961  27466  0
27466  27961  27962  0
27466  27962  27712  0
27712  27962  27963  0
27712  27963  27713  0
27713  27715  27468  0
27713  27963  27964  0
27713  27964  27715  0
26673  27216  27965  0
26673  27965  27214  0
27216  27714  27965  0
27716  27715  27966  0
27716  27966  27472  0
27469  27717  27967  0
27469  27967  27714  0
27717  27968  27969  0
27472  27966  27718  0
27718  27724  27221  0
27718  27970  27724  0
27967  27717  27969  0
27717  27224  27968  0
27224  27725  27968  0
27971  27722  27721  0
27971  27721  27972  0
27971  27972  27973  0
27721  27720  27974  0
27721  27974  27972  0
27720  27723  27975  0
27720  27975  27974  0
27723  27724  27970  0
27723  27970  27975  0
27726  27722  27971  0
27725  27231  27727  0
27727  27976  27977  0
27727  27233  27978  0
27727  27978  27976  0
27233  27728  27978  0
27729  27730  27979  0
27729  27979  27728  0
27730  27482  27980  0
26979  27981  27731  0
27982  27981  26979  0
27485  27486  27732  0
27485  27732  27983  0
27485  27983  27733  0
27983  27732  27984  0
27732  27734  27490  0
27732  27490  27985  0
27732  27985  27984  0
27737  27733  27986  0
27737  27986  27987  0
27737  27987  27738  0
27490  27739  27988  0
27490  27988  27985  0
27494  27738  27989  0
27990  27494  27989  0
27739  27495  27991  0
27739  27991  27988  0
27992  27993  27994  0
27992  27995  27993  0
27996  27993  27995  0
27997  27740  27494  0
27997  27494  27990  0
27998  27740  27997  0
27495  27743  27999  0
27495  27999  27991  0
28000  27745  27996  0
27993  27996  27994  0
28001  28002  27741  0
28001  27741  27740  0
28001  27740  27998  0
28001  27998  28003  0
28001  28003  28002  0
27743  27744  27999  0
27744  27745  28000  0
27744  28000  27999  0
27745  28004  27996  0
27996  28004  27994  0
27994  28004  28005  0
27745  27748  28004  0
28006  28004  27748  0
28004  28006  28005  0
28007  28005  28006  0
27748  27750  28006  0
28008  28007  28006  0
28009  27750  27752  0
27750  28009  28006  0
28008  28006  28009  0
27753  27754  27758  0
27752  27755  28009  0
27759  28009  27755  0
28008  28009  27759  0
27757  27758  27761  0
27759  27762  28010  0
27763  28010  27762  0
27759  28010  28008  0
28010  27763  28011  0
27765  27766  27764  0
27769  27767  27764  0
27766  28012  27764  0
28013  27764  28012  0
27766  27771  28012  0
28014  28012  27771  0
27764  28013  27769  0
28015  27769  28013  0
27769  28016  27772  0
27769  28015  28016  0
28017  28016  28015  0
27775  28018  27776  0
28019  27776  28018  0
27775  27777  28018  0
28020  28018  27777  0
27776  28019  27778  0
28021  27778  28019  0
27778  28021  27771  0
28014  27771  28021  0
28016  28017  27772  0
27779  27772  28017  0
27772  27779  27773  0
27782  28022  27777  0
28020  27777  28022  0
27782  27783  28022  0
28023  28022  27783  0
28017  27787  27779  0
27783  27786  28023  0
27787  28024  27790  0
28025  27790  28024  0
27790  27788  27787  0
28025  27550  27789  0
27789  27551  28025  0
27551  27790  28025  0
27555  27791  27556  0
27791  28026  27556  0
28027  27556  28026  0
27791  27792  28026  0
28028  28026  27792  0
27556  28027  27558  0
28029  27558  28027  0
27558  28029  27560  0
27792  27793  28028  0
28030  28028  27793  0
28031  27561  27794  0
27796  28030  27793  0
28032  28030  27796  0
27561  28031  27797  0
28033  27797  28031  0
27796  27798  28032  0
27797  28033  27568  0
28034  27568  28033  0
27802  27568  28034  0
27800  27564  27799  0
28035  27798  27801  0
27799  27565  27803  0
27801  27805  28035  0
28036  28035  27805  0
27802  28037  28038  0
27802  28038  27807  0
28039  27803  27572  0
27805  27806  28036  0
27807  28038  28040  0
27810  27094  27807  0
27807  28040  27810  0
27333  27332  27572  0
27572  28041  28039  0
27572  27332  28041  0
27571  27569  28042  0
27566  28042  27569  0
27806  27808  28043  0
27809  28043  27808  0
27806  28043  28036  0
28044  28036  28043  0
27328  27810  28045  0
27328  28045  27332  0
27811  27573  28046  0
28043  27809  28044  0
27809  27812  28047  0
27813  27577  27811  0
27813  27811  28048  0
27578  27585  28049  0
27578  28049  27814  0
27812  27576  27815  0
27812  27815  28047  0
27582  27813  28050  0
27582  28050  27587  0
27816  28051  27585  0
27585  28051  28049  0
27815  28052  28047  0
27815  27581  28053  0
27815  28053  28052  0
27817  28054  27816  0
28049  28055  27818  0
28049  27818  27814  0
27581  27819  28056  0
27581  28056  28053  0
27587  28057  27588  0
27820  28058  27817  0
27817  28058  28054  0
28054  28058  28059  0
28060  28061  27823  0
28060  27823  28055  0
28055  27823  27821  0
28055  27821  27818  0
27819  27592  28062  0
27819  28062  28056  0
27588  28057  28063  0
27820  27826  28058  0
28058  27826  27828  0
28058  27828  28059  0
28059  27828  28061  0
28061  27828  27599  0
28061  27599  27823  0
27592  27824  28062  0
27824  28064  28062  0
27588  27834  27597  0
27588  28063  27834  0
27829  28065  28064  0
27829  28064  27824  0
27829  27833  28066  0
27829  28066  28065  0
27834  28063  28067  0
27835  27825  27830  0
27840  28068  27841  0
27841  27847  27609  0
28069  27833  27842  0
28069  27842  28070  0
28069  28071  28066  0
28069  28066  27833  0
28069  28070  28071  0
27834  28067  28072  0
27835  28073  28074  0
27835  28074  27825  0
27835  27836  28075  0
27835  28075  28073  0
27825  28076  27837  0
27825  28074  28076  0
27845  28077  28078  0
27845  28078  27612  0
27845  27846  28077  0
27612  28078  27839  0
28070  27842  28079  0
28070  28080  28071  0
27842  27849  28079  0
27843  28081  28075  0
27843  28075  27836  0
28070  28079  28082  0
28070  28082  28080  0
28079  27849  28083  0
27849  27853  28083  0
27854  27622  27855  0
27854  27855  28084  0
27854  28084  28085  0
27854  28085  27853  0
27834  28072  27618  0
27618  28072  27858  0
27624  27625  27843  0
27837  28086  27844  0
27626  28087  27620  0
27629  27852  28088  0
27629  28088  28089  0
28084  27855  28090  0
28084  28090  28085  0
27857  28091  27855  0
27625  27866  28092  0
27625  28092  28093  0
27625  28093  27843  0
27844  28094  27856  0
27844  28086  28094  0
27626  27859  28087  0
27860  27629  28089  0
27860  27862  27628  0
27858  27864  27393  0
27858  28095  27864  0
