#!ascii file
29803  30061  30062  0
29803  30062  29806  0
29806  30063  29597  0
29597  29810  29366  0
29597  30063  29810  0
29595  29807  29809  0
29805  29600  30064  0
29805  30064  29804  0
29807  30065  29809  0
29807  29598  29814  0
29807  29814  30065  0
29809  30065  30066  0
29809  30066  29808  0
29808  30066  29812  0
29600  29813  30064  0
29811  30067  30068  0
29811  30068  29604  0
29604  30068  30069  0
29604  30069  29814  0
30070  29820  29819  0
30070  29819  30071  0
30070  30072  29820  0
30070  30071  30073  0
30070  30073  30072  0
29813  29603  29817  0
29816  29812  30074  0
29816  30074  29818  0
30071  29819  29821  0
30071  29821  29824  0
29820  30075  29611  0
30076  29611  30075  0
29818  30074  29607  0
30077  29607  30074  0
29824  30078  30071  0
30079  29611  30076  0
30080  30079  30076  0
29611  30079  29612  0
29187  29825  30081  0
29187  30081  29817  0
29607  30077  29826  0
30082  29826  30077  0
29827  30078  29824  0
29827  29828  30078  0
30079  30080  29615  0
30079  29615  29612  0
29828  30083  30084  0
30080  30085  29617  0
30080  29617  29615  0
29383  29830  29825  0
29829  29826  30082  0
29829  30082  30086  0
30083  29828  29614  0
30085  30087  29617  0
29619  29829  30086  0
29619  30086  30088  0
30089  29619  30088  0
29614  29616  30090  0
29614  30090  30083  0
30087  30091  29835  0
30087  29835  29617  0
30087  30092  30091  0
29832  29834  30093  0
29616  29839  30090  0
30089  29840  29619  0
29620  29836  30094  0
29620  30094  29837  0
29837  30093  29834  0
29837  30094  30095  0
29837  30095  30093  0
29839  29843  30096  0
29839  30096  30090  0
30091  30097  29835  0
29622  29841  30098  0
29622  30098  29836  0
29836  30098  30099  0
29836  30099  30094  0
30100  30101  30102  0
29844  29835  30097  0
29624  30103  29618  0
30104  30103  29624  0
29840  30105  29625  0
29633  29625  30105  0
29847  30101  29848  0
30106  29848  30101  0
30101  30100  30106  0
30097  30107  29844  0
29624  29854  30104  0
29850  29633  30105  0
29841  29851  30098  0
30108  30098  29851  0
29859  29848  30106  0
30109  29859  30106  0
29860  29844  30107  0
29855  30110  29856  0
30111  29856  30110  0
29851  29857  30112  0
29859  30109  30113  0
29640  29865  29854  0
29856  30111  29643  0
30114  29643  30111  0
29643  30114  29647  0
30115  29647  30114  0
29851  30112  30116  0
30112  29857  30117  0
29861  30117  29857  0
29859  30113  29648  0
29860  30118  29865  0
29650  29647  29870  0
30119  29870  29647  0
30115  30119  29647  0
30112  30117  30120  0
30112  30120  30116  0
30121  30116  30120  0
30122  30117  29861  0
29861  29862  30122  0
29862  29866  30122  0
29873  29648  30113  0
29869  29867  29868  0
30123  29870  30119  0
30124  30120  30117  0
30125  30121  30120  0
30117  30122  30124  0
30126  30124  30122  0
30122  29866  30126  0
29871  30126  29866  0
30113  30127  29873  0
29864  29655  30128  0
30129  30128  29655  0
30130  29656  29657  0
29657  29867  30131  0
29657  30131  30130  0
30120  30124  30132  0
30120  30132  30125  0
30133  30125  30132  0
29874  30126  29871  0
29873  30134  29876  0
30134  29877  29876  0
29877  30134  30135  0
29877  30135  30129  0
29656  30130  30136  0
29656  30136  29878  0
30137  30132  30124  0
30138  30133  30132  0
30124  30126  30137  0
30139  30137  30126  0
30126  29874  30139  0
29877  30129  29880  0
29655  29880  30129  0
30132  30137  30138  0
30140  30138  30137  0
30141  30137  30139  0
30142  30140  30137  0
30139  29874  30141  0
30143  30141  29874  0
29874  29875  30143  0
29661  30143  29875  0
30137  30141  30142  0
30144  30141  30143  0
29661  30144  30143  0
30141  30144  30145  0
30146  30144  29661  0
29417  30146  29661  0
30144  30146  30147  0
29417  29882  30148  0
29881  30149  30150  0
29881  30151  29663  0
29881  30150  30151  0
29663  30151  29664  0
29884  29664  30151  0
30151  30152  29884  0
29884  30152  29673  0
29884  29673  29883  0
29669  29668  29670  0
29886  30153  29677  0
29670  29890  29669  0
30154  29669  29890  0
29669  30154  29885  0
29887  29885  30154  0
30153  30155  29677  0
30156  29890  29891  0
30156  29891  30157  0
29890  30156  30154  0
30154  29893  29887  0
29888  29677  30158  0
29891  29894  30159  0
29891  30159  30157  0
29893  30160  29896  0
29893  30154  30161  0
29893  30161  30160  0
29888  29898  29437  0
29888  30158  29898  0
30162  29894  29899  0
30162  30159  29894  0
30160  30163  30164  0
30160  30164  29896  0
30160  30161  30163  0
29896  30164  29901  0
29896  29901  29895  0
29899  29904  30165  0
29899  30165  30162  0
30163  30166  30164  0
30164  30167  30168  0
30164  30168  29901  0
30164  30166  30167  0
29901  30168  29900  0
29897  29905  30169  0
29898  30170  29686  0
29686  30170  29689  0
29689  30170  29903  0
29903  29906  29691  0
29904  29701  30165  0
30167  30166  30171  0
30168  30167  30172  0
30168  30172  29900  0
29900  30172  29908  0
29900  29908  29902  0
29701  29910  30173  0
29701  30173  30165  0
30172  30167  30174  0
30172  30174  30175  0
30172  30175  29908  0
29908  30175  29911  0
29911  30175  29912  0
29911  29912  29909  0
29912  30176  29905  0
29699  29907  30177  0
29699  30177  29913  0
30174  30178  30175  0
30175  30178  30179  0
30175  30179  30180  0
30175  30180  29912  0
29912  30180  30176  0
29700  30181  29448  0
29700  29913  30181  0
29456  29448  30182  0
29456  30182  29916  0
29916  30182  30183  0
29916  30183  29914  0
29703  29707  30184  0
29703  30184  29702  0
29702  30184  30185  0
29702  30185  29910  0
29710  30186  29915  0
30181  30187  29448  0
29448  30187  30183  0
29448  30183  30182  0
29706  29914  30188  0
29706  30188  29923  0
29707  29924  30184  0
30184  29924  30189  0
30184  30189  30185  0
29919  30190  29722  0
29918  29920  30191  0
29920  30192  30191  0
29714  29715  29920  0
29915  30193  29917  0
29915  30186  30193  0
29710  29720  30194  0
29710  30194  30186  0
29924  29722  30190  0
29924  30190  30189  0
29920  29715  30192  0
29720  29721  30195  0
29715  29921  30196  0
29715  30196  30197  0
29921  29925  30196  0
29925  29926  30198  0
29925  30198  30196  0
29926  29927  30199  0
29926  30199  30198  0
29927  29929  30199  0
29929  29928  30200  0
29928  29930  30201  0
29928  30201  30200  0
29930  30202  30201  0
29930  29931  30202  0
29931  29917  30203  0
29917  30193  30203  0
30204  30203  30193  0
30199  29929  30200  0
30199  30200  30198  0
30202  29931  30205  0
29931  30203  30205  0
29728  29711  29923  0
30197  30196  30206  0
30197  30206  30207  0
30196  30198  30208  0
30196  30208  30206  0
30198  30200  30209  0
30198  30209  30208  0
30200  30210  30209  0
30200  30201  30210  0
30201  30202  30211  0
30202  30205  30212  0
30202  30212  30211  0
30205  30203  30213  0
30205  30213  30212  0
30197  30207  30214  0
30207  30215  30216  0
30207  30216  30214  0
30206  30208  30217  0
30208  30218  30217  0
30208  30209  30218  0
30209  30210  30219  0
30209  30219  30218  0
30210  30201  30220  0
30210  30220  30219  0
30201  30211  30220  0
30221  30215  29935  0
30221  29935  30222  0
30221  30223  30215  0
30216  30215  30223  0
30215  30207  29937  0
30215  29937  29935  0
30207  30206  29940  0
30207  29940  29937  0
30206  30217  29940  0
30217  30218  30224  0
30217  30224  29940  0
30218  30225  30224  0
30218  30219  30225  0
30219  30220  30226  0
29726  30227  29933  0
29946  29942  30228  0
29947  30228  29942  0
30228  30222  29946  0
29938  29946  30222  0
30228  30229  30222  0
30221  30222  30229  0
30222  29935  29938  0
29940  30224  29941  0
30230  29941  30224  0
30224  30225  30230  0
30231  30230  30225  0
30232  30231  30225  0
30225  30219  30232  0
30233  29470  29728  0
29949  29941  29951  0
30234  29951  29941  0
29941  30230  30234  0
30235  30234  30230  0
30230  30231  30235  0
30236  30235  30231  0
30237  30227  29729  0
30238  29947  29945  0
29950  29951  29952  0
30239  29952  29951  0
29951  30234  30239  0
30240  30239  30234  0
29954  30237  29729  0
29953  30238  29945  0
30238  29953  30241  0
30242  29953  29952  0
29952  30239  30242  0
29954  29472  29473  0
29954  29473  30243  0
29956  30243  29473  0
29731  29730  30244  0
30245  30244  29730  0
29730  29955  30245  0
30244  30246  29731  0
29731  30246  29732  0
29956  29477  29957  0
30247  30248  30249  0
30247  30250  30248  0
30249  29962  30247  0
30251  30247  30252  0
30247  29962  30252  0
30253  30252  29962  0
30254  30249  30248  0
29732  30255  29958  0
30253  29960  29961  0
29960  30253  29962  0
29962  30249  29963  0
29966  29963  30249  0
29968  29966  30249  0
30249  30254  29968  0
30256  29968  30254  0
29959  30257  29733  0
30258  29733  30257  0
29964  30259  29738  0
29965  29738  30259  0
29964  29969  30259  0
30260  30259  29969  0
29965  30261  29961  0
30262  29961  30261  0
29968  30256  29975  0
30263  29975  30256  0
29975  30263  29976  0
29986  29976  30263  0
30264  29986  30263  0
29733  30265  29977  0
30266  29977  30265  0
29970  29978  30267  0
30268  30267  29978  0
29978  29979  30268  0
29979  29980  30269  0
29981  30269  29980  0
30270  29986  30264  0
29750  29977  30266  0
29979  30269  30268  0
30271  30269  29981  0
29981  29983  30271  0
30272  30271  29983  0
29983  29987  30272  0
29989  30272  29987  0
29986  30270  29990  0
29994  29990  30270  0
30270  30273  29994  0
30274  29994  30273  0
30266  30275  29750  0
30276  29750  30275  0
30266  30277  30275  0
30272  29989  30278  0
29989  29992  30278  0
30279  29995  29994  0
29994  30274  30280  0
29994  30280  30279  0
30281  29748  29757  0
30282  29992  29998  0
30006  29995  30279  0
30279  30283  30006  0
30284  30006  30283  0
30279  30280  30283  0
30285  30286  30287  0
30288  29758  29753  0
29753  30000  30288  0
30289  30000  30001  0
30290  30282  29998  0
30006  30284  30007  0
30012  30007  30284  0
30284  30283  30291  0
30284  30292  30012  0
30013  30012  30292  0
30284  30291  30292  0
30292  30293  30013  0
29769  30022  30281  0
30281  30022  30294  0
30281  29757  29769  0
29998  30009  30290  0
30295  30290  30009  0
30013  30021  30020  0
30013  30293  30294  0
30013  30294  30021  0
30021  30294  30022  0
30285  30296  30297  0
30285  30297  30286  0
29771  30298  30024  0
30024  30298  30299  0
30298  29771  30014  0
30300  30298  30014  0
30014  30015  30300  0
30301  30295  30009  0
30009  30019  30301  0
30024  30302  30023  0
30019  30025  30303  0
30025  30026  30304  0
30025  30304  30303  0
30026  29772  30029  0
30026  30029  30305  0
30026  30305  30304  0
30029  30028  30306  0
30029  30306  30307  0
30029  30307  30305  0
30308  30033  30035  0
30308  30035  30309  0
30308  30309  30310  0
30308  30310  30311  0
30308  30311  30033  0
30023  30302  30312  0
30023  30312  30027  0
30028  30030  30306  0
30030  30031  30306  0
30031  30033  30311  0
30031  30311  30306  0
30035  30037  30309  0
30037  30039  30313  0
30037  30313  30309  0
30039  30040  30314  0
30039  30314  30315  0
30039  30315  30313  0
30314  30316  30315  0
30314  30317  30316  0
30318  30319  30320  0
30318  30320  30321  0
30318  30322  30319  0
30320  30323  30321  0
30323  30320  30324  0
30323  30312  30321  0
30323  30324  30027  0
30323  30027  30312  0
30040  30043  30325  0
30040  30325  30314  0
30314  30325  30317  0
30319  30326  30320  0
30319  30327  30326  0
30044  30046  30327  0
30046  30051  30326  0
30046  30326  30327  0
30326  30051  30049  0
30326  30049  30320  0
30320  30049  30050  0
30046  30045  30051  0
30051  30047  30049  0
30328  29790  30329  0
30328  30329  30330  0
30330  30329  30053  0
30330  30053  30052  0
29790  30056  30329  0
30329  30056  30054  0
30329  30054  30053  0
30056  30058  30054  0
29590  30331  30061  0
29590  29804  30331  0
29806  30062  30332  0
29806  30332  30063  0
30063  30332  30333  0
30063  30333  29810  0
29804  30064  30334  0
29810  30067  29811  0
30065  29814  30069  0
30065  30069  30335  0
30336  30066  30065  0
30337  30066  30336  0
30066  30337  29812  0
30338  29812  30337  0
30072  30073  30339  0
29820  30072  30075  0
30067  30340  30068  0
29812  30338  30074  0
30073  30071  30341  0
30339  30073  30342  0
30073  30341  30343  0
30073  30343  30342  0
30344  30076  30075  0
29817  30345  29813  0
30341  30071  30078  0
30341  30078  30346  0
30341  30346  30343  0
30076  30344  30080  0
30347  30080  30344  0
30086  30082  30077  0
30348  30078  29828  0
30348  29828  30084  0
30348  30349  30078  0
30346  30078  30349  0
30080  30350  30085  0
30080  30347  30350  0
30084  30351  30348  0
30350  30352  30087  0
30350  30087  30085  0
29825  29830  30353  0
29825  30353  30081  0
30084  30083  30354  0
30084  30354  30351  0
30352  30092  30087  0
30355  30092  30352  0
30354  30083  30090  0
30356  30351  30354  0
30091  30092  30355  0
30354  30090  30356  0
30097  30091  30355  0
29618  30103  29830  0
30103  30357  29830  0
30358  29840  30089  0
30359  30093  30095  0
30096  30356  30090  0
30355  30360  30097  0
30361  30097  30360  0
29840  30358  30105  0
30094  30099  30095  0
30095  30099  30359  0
30362  30359  30099  0
30102  30363  30100  0
30364  30100  30363  0
30363  30365  30364  0
30366  30364  30365  0
30367  30096  29843  0
30097  30361  30107  0
30368  30105  30358  0
30098  30369  30099  0
30099  30370  30362  0
30371  30362  30370  0
30372  30362  30371  0
30373  30374  30375  0
30106  30100  30364  0
29843  29849  30367  0
30376  30367  29849  0
30105  30368  29850  0
29855  29850  30368  0
30110  29855  30368  0
30098  30108  30369  0
30370  30099  30369  0
30372  30377  30378  0
30379  30378  30377  0
30378  30379  30375  0
30375  30379  30373  0
30380  30373  30379  0
30106  30364  30109  0
30364  30366  30109  0
30381  30109  30366  0
29400  30376  29849  0
29860  30107  30382  0
29865  30383  29854  0
30384  30111  30110  0
30111  30384  30114  0
29851  30116  30108  0
30385  30108  30116  0
30108  30386  30369  0
30108  30385  30386  0
30369  30386  30370  0
30387  30370  30386  0
30370  30388  30371  0
30372  30371  30388  0
30370  30387  30388  0
30389  30388  30387  0
30377  30390  30379  0
30391  30379  30390  0
30379  30391  30380  0
30392  30380  30391  0
30127  30113  30109  0
30109  30381  30127  0
30393  29860  30382  0
30118  30383  29865  0
30114  30384  30115  0
30394  30115  30384  0
30395  30372  30388  0
30372  30395  30377  0
30396  30377  30395  0
30377  30396  30390  0
30397  30391  30390  0
30391  30397  30392  0
30376  29400  29864  0
30398  30376  29864  0
30119  30115  30123  0
30394  30123  30115  0
30116  30121  30385  0
30399  30385  30121  0
30400  30396  30395  0
30396  30401  30390  0
30390  30401  30397  0
30402  30392  30397  0
30135  30127  30403  0
29864  30128  30398  0
29860  30393  30118  0
29867  29869  30404  0
30405  29867  30404  0
29869  29870  30404  0
30406  30404  29870  0
30123  30406  29870  0
30396  30400  30401  0
30407  30397  30401  0
30397  30407  30402  0
30134  29873  30127  0
30127  30135  30134  0
30135  30128  30129  0
30135  30398  30128  0
30405  30131  29867  0
30121  30125  30408  0
30409  30408  30125  0
30401  30410  30407  0
30407  30411  30402  0
30136  30130  30412  0
30125  30133  30409  0
29878  30136  30413  0
30412  30413  30136  0
29878  30413  29879  0
30414  30138  30140  0
29879  30413  29881  0
30140  30142  30414  0
30415  30414  30142  0
30142  30141  30416  0
30142  30416  30417  0
30142  30417  30415  0
30141  30145  30416  0
29881  30413  30418  0
30416  30145  30419  0
30145  30144  30147  0
30145  30147  30419  0
30147  30146  30420  0
30146  29417  30148  0
30146  30148  30420  0
29881  30418  30149  0
30148  29882  30421  0
29882  29418  29666  0
29882  29666  30421  0
30421  29666  30422  0
30422  29666  30423  0
29666  29427  30423  0
30151  30150  30152  0
30152  30424  29673  0
30423  29427  29435  0
29435  30425  30423  0
29435  29683  30425  0
29886  29673  30426  0
29886  30426  30153  0
30156  30157  30427  0
30156  30427  30154  0
29677  30155  30158  0
30427  30428  30161  0
30427  30161  30154  0
30428  30163  30161  0
30428  30427  30429  0
30428  30430  30163  0
30428  30429  30431  0
30428  30431  30430  0
30163  30430  30166  0
29898  30432  30170  0
29903  30170  30433  0
29903  30433  30434  0
29903  30434  29906  0
30430  30171  30166  0
30169  29905  30435  0
30170  30432  30436  0
30170  30436  30433  0
30434  30177  29907  0
30434  29907  29906  0
30434  30437  30177  0
30171  30430  30438  0
30171  30439  30167  0
30167  30439  30174  0
30176  30435  29905  0
30171  30438  30439  0
30174  30439  30440  0
30174  30440  30178  0
30179  30178  30441  0
30180  30179  30442  0
29913  30177  30443  0
29913  30443  30181  0
29914  30183  30444  0
29910  30185  30173  0
30439  30445  30440  0
30178  30440  30441  0
30181  30446  30447  0
30181  30447  30448  0
30181  30448  30187  0
30187  30448  30449  0
30187  30449  30450  0
30187  30450  30183  0
30183  30450  30444  0
30444  30188  29914  0
30185  30189  30451  0
29919  29918  30452  0
29919  30452  30190  0
29918  30191  30452  0
30447  30453  30448  0
30449  30448  30450  0
30189  30190  30454  0
30189  30454  30451  0
30190  30452  30455  0
30190  30455  30454  0
30452  30191  30456  0
30452  30456  30455  0
30191  30192  30456  0
30186  30194  30457  0
30186  30457  30193  0
29720  30195  30194  0
30192  29715  30197  0
30192  30197  30458  0
29721  29723  30195  0
30459  29923  30188  0
30458  30197  30460  0
30203  30204  30461  0
30203  30461  30213  0
30204  30193  30462  0
30193  30457  30462  0
29723  29932  30463  0
29723  30463  30195  0
29923  30459  29728  0
30460  30197  30214  0
30460  30214  30464  0
30460  30464  30465  0
30460  30465  30458  0
30213  30466  30212  0
30213  30461  30466  0
29932  29933  30463  0
30464  30214  30216  0
30464  30216  30223  0
30464  30223  30467  0
30464  30467  30465  0
30212  30466  30468  0
30212  30468  30211  0
30469  30223  30229  0
30221  30229  30223  0
30467  30223  30469  0
30470  30469  30229  0
30219  30226  30232  0
30471  30226  30220  0
30220  30211  30471  0
30468  30471  30211  0
29933  30227  30472  0
30228  29947  30229  0
30470  30229  29947  0
30231  30232  30236  0
30232  30473  30236  0
30474  30236  30473  0
30232  30226  30473  0
30471  30473  30226  0
30234  30235  30240  0
30475  30240  30235  0
30235  30236  30476  0
30235  30476  30475  0
30477  30475  30476  0
30474  30476  30236  0
30241  30478  30238  0
30479  30478  30241  0
30241  29953  30479  0
30480  30479  29953  0
30239  30240  30481  0
30239  30481  30242  0
30477  30240  30475  0
30233  30482  29470  0
29470  30482  29955  0
29953  30242  30480  0
30483  30480  30242  0
30481  30483  30242  0
30237  29954  30484  0
30243  30484  29954  0
30245  30485  30244  0
30245  30486  30485  0
30485  30486  30244  0
30250  30487  30248  0
30488  30248  30487  0
30489  30487  30250  0
30490  30487  30489  0
30487  30490  30488  0
30491  30488  30490  0
30492  29956  29957  0
30493  29732  30246  0
30247  30251  30250  0
30494  30250  30251  0
30248  30488  30254  0
30495  30254  30488  0
30496  30495  30488  0
30488  30491  30496  0
29732  30493  30255  0
30497  30251  30252  0
30498  30252  30253  0
30254  30495  30499  0
30500  30499  30495  0
30501  29958  30255  0
29958  30501  29959  0
30257  29959  30501  0
29961  30262  30253  0
30498  30253  30262  0
30254  30499  30256  0
30502  30256  30499  0
30503  30502  30499  0
30261  29965  30259  0
30261  30504  30262  0
30256  30502  30263  0
30502  30503  30263  0
30505  30263  30503  0
29733  30258  30265  0
30265  30258  30506  0
29970  30507  29969  0
30508  29969  30507  0
29969  30508  30260  0
30263  30505  30264  0
30505  30509  30264  0
30270  30264  30509  0
30277  30266  30265  0
30510  30507  29970  0
29970  30267  30510  0
30511  30510  30267  0
30267  30268  30512  0
30267  30512  30511  0
30270  30509  30273  0
30513  30514  30287  0
30515  30512  30268  0
30268  30269  30515  0
30516  30515  30269  0
30269  30271  30516  0
30517  30516  30271  0
30518  30517  30271  0
30271  30272  30518  0
30274  30273  30519  0
30520  30521  29748  0
30522  30513  30287  0
30523  30518  30272  0
30272  30278  30523  0
30524  30523  30278  0
30274  30519  30280  0
30280  30519  30525  0
30280  30525  30283  0
30281  30520  29748  0
30287  30286  30522  0
30278  29992  30524  0
30526  30524  29992  0
29992  30282  30526  0
30527  30526  30282  0
30283  30525  30291  0
30292  30291  30520  0
30291  30525  30528  0
30291  30528  30520  0
30293  30292  30520  0
30294  30293  30520  0
30281  30294  30520  0
30287  30529  30285  0
30286  30530  30531  0
30288  30000  30532  0
30288  30532  30533  0
30534  30532  30000  0
30000  30289  30534  0
30282  30290  30535  0
30282  30535  30527  0
30285  30529  30536  0
30285  30536  30537  0
30286  30297  30530  0
30530  30297  30024  0
30530  30024  30299  0
30299  30298  30300  0
29758  30288  30533  0
29758  30533  30016  0
30290  30295  30538  0
30290  30538  30535  0
30537  30539  30540  0
30537  30541  30539  0
30537  30540  30296  0
30537  30296  30285  0
30296  30542  30297  0
30295  30301  30543  0
30295  30543  30538  0
30539  30544  30545  0
30539  30545  30540  0
30539  30541  30546  0
30539  30546  30544  0
30296  30540  30547  0
30296  30547  30542  0
30297  30542  30024  0
30019  30303  30548  0
30019  30548  30301  0
30303  30304  30549  0
30303  30549  30548  0
30304  30305  30550  0
30304  30550  30549  0
30544  30546  30551  0
30544  30551  30552  0
30540  30545  30321  0
30540  30321  30547  0
30547  30321  30553  0
30547  30553  30302  0
30547  30302  30542  0
30542  30302  30024  0
30305  30307  30554  0
30307  30306  30555  0
30307  30555  30556  0
30307  30556  30554  0
30555  30306  30557  0
30555  30557  30558  0
30555  30558  30556  0
30557  30306  30311  0
30557  30311  30310  0
30557  30310  30559  0
30557  30559  30558  0
30310  30309  30560  0
30310  30560  30559  0
30309  30313  30561  0
30309  30561  30560  0
30313  30562  30551  0
30313  30551  30561  0
30562  30313  30315  0
30562  30315  30552  0
30562  30552  30551  0
30552  30315  30316  0
30552  30316  30544  0
30544  30316  30318  0
30544  30318  30545  0
30545  30318  30321  0
30553  30321  30312  0
30553  30312  30302  0
30316  30317  30322  0
30316  30322  30318  0
30325  30563  30317  0
30325  30043  30563  0
30317  30563  30322  0
30322  30327  30319  0
30322  30563  30327  0
30043  30044  30563  0
30044  30327  30563  0
30331  29804  30564  0
30061  30331  30565  0
30061  30565  30062  0
30062  30565  30566  0
30062  30566  30332  0
30333  30332  30567  0
29804  30334  30568  0
29804  30568  30564  0
30333  30567  30569  0
30333  30569  29810  0
29810  30569  30067  0
30335  30570  30065  0
30065  30570  30571  0
30065  30571  30336  0
30067  30569  30572  0
30067  30572  30340  0
30337  30573  30338  0
30337  30336  30573  0
30072  30339  30574  0
30072  30574  30075  0
29813  30575  30064  0
30340  30572  30576  0
30068  30577  30069  0
30068  30578  30577  0
30338  30573  30579  0
30339  30342  30580  0
30339  30580  30574  0
30574  30581  30344  0
30574  30344  30075  0
30340  30576  30068  0
30578  30068  30576  0
30074  30582  30077  0
30074  30338  30582  0
30343  30580  30342  0
30343  30346  30583  0
30343  30583  30580  0
30581  30584  30347  0
30581  30347  30344  0
30345  29817  30585  0
30077  30582  30586  0
30077  30586  30086  0
30349  30587  30346  0
30583  30346  30587  0
30349  30348  30588  0
30349  30588  30587  0
30584  30350  30347  0
30589  30350  30584  0
30585  29817  30081  0
30585  30081  30353  0
30088  30086  30590  0
30591  30348  30351  0
30591  30592  30348  0
30588  30348  30592  0
30350  30589  30352  0
30593  30591  30351  0
30589  30594  30352  0
30355  30352  30594  0
30595  30089  30088  0
30356  30593  30351  0
30594  30360  30355  0
30353  29830  30357  0
30365  30363  30596  0
30597  30596  30598  0
30596  30597  30365  0
30356  30096  30599  0
30360  30600  30361  0
30601  30361  30600  0
30357  30103  30602  0
30104  30602  30103  0
30373  30603  30374  0
30365  30604  30366  0
30096  30367  30599  0
30605  30599  30367  0
30383  30602  30104  0
30358  30606  30368  0
30381  30366  30604  0
30607  30381  30604  0
30367  30376  30605  0
30361  30608  30107  0
30382  30107  30608  0
30361  30601  30608  0
29854  30383  30104  0
30609  30368  30606  0
30368  30609  30110  0
30610  30110  30609  0
30611  30381  30607  0
30110  30610  30384  0
30403  30127  30381  0
30381  30611  30403  0
30608  30612  30382  0
30382  30612  30393  0
30383  30118  30613  0
30614  30613  30118  0
30399  30386  30385  0
30386  30399  30387  0
30389  30387  30399  0
30615  30380  30392  0
30123  30616  30406  0
30399  30617  30389  0
30618  30389  30617  0
30389  30618  30388  0
30388  30618  30395  0
30400  30395  30618  0
30392  30402  30615  0
30403  30619  30135  0
30620  30118  30393  0
30118  30620  30614  0
30616  30405  30404  0
30404  30406  30616  0
30121  30408  30399  0
30617  30399  30408  0
30617  30621  30618  0
30622  30618  30621  0
30623  30618  30622  0
30618  30623  30400  0
30398  30135  30619  0
30624  30617  30408  0
30617  30624  30621  0
30625  30622  30621  0
30623  30626  30400  0
30401  30400  30626  0
30130  30131  30412  0
30408  30409  30627  0
30622  30625  30623  0
30626  30623  30625  0
30401  30626  30410  0
30628  30413  30412  0
30409  30133  30629  0
30630  30629  30133  0
30133  30138  30630  0
30414  30630  30138  0
30631  30407  30410  0
30407  30631  30411  0
30411  30632  30633  0
30634  30413  30628  0
30410  30635  30631  0
30632  30411  30631  0
30634  30418  30413  0
30417  30416  30636  0
30419  30636  30416  0
30637  30417  30636  0
30636  30419  30638  0
30636  30638  30637  0
30419  30147  30420  0
30419  30420  30638  0
30420  30148  30639  0
30420  30639  30640  0
30148  30421  30639  0
30421  30422  30641  0
30421  30641  30639  0
30641  30422  30425  0
30422  30423  30425  0
30150  30642  30152  0
30152  30642  30424  0
30425  30643  30644  0
30424  30426  29673  0
30643  30425  30645  0
30425  29683  30645  0
30426  30646  30153  0
30645  29683  29897  0
30155  30153  30646  0
29897  30647  30645  0
30158  30155  30648  0
30159  30649  30157  0
30157  30649  30429  0
30157  30429  30427  0
30158  30650  29898  0
30159  30162  30649  0
30649  30431  30429  0
29898  30650  30432  0
30162  30651  30649  0
30162  30165  30652  0
30162  30652  30651  0
30649  30651  30653  0
30649  30653  30431  0
30431  30654  30430  0
30431  30653  30654  0
30432  30655  30436  0
30436  30655  30656  0
30436  30656  30657  0
30436  30657  30433  0
30433  30657  30434  0
30434  30657  30658  0
30434  30658  30437  0
30654  30438  30430  0
30654  30653  30659  0
30180  30660  30176  0
30180  30661  30660  0
30176  30660  30435  0
30439  30438  30662  0
30179  30663  30664  0
30179  30664  30442  0
30179  30441  30663  0
30442  30664  30661  0
30442  30661  30180  0
30177  30437  30665  0
30177  30665  30443  0
30173  30185  30666  0
30173  30666  30165  0
30439  30662  30667  0
30439  30667  30445  0
30440  30445  30668  0
30440  30668  30669  0
30440  30669  30441  0
30443  30446  30181  0
30185  30451  30666  0
30446  30670  30447  0
30447  30670  30453  0
30448  30453  30671  0
30448  30671  30450  0
30450  30671  30444  0
30451  30454  30672  0
30455  30456  30673  0
30455  30673  30674  0
30455  30674  30454  0
30456  30675  30673  0
30194  30195  30676  0
30188  30444  30677  0
30188  30677  30459  0
30456  30192  30458  0
30456  30458  30678  0
30456  30678  30675  0
30204  30462  30461  0
30462  30457  30679  0
30195  30463  30680  0
30678  30458  30465  0
30678  30465  30681  0
30678  30681  30682  0
30678  30682  30675  0
30466  30461  30683  0
30461  30462  30684  0
30461  30684  30683  0
30463  29933  30685  0
30463  30685  30680  0
30681  30465  30467  0
30681  30467  30469  0
30681  30469  30686  0
30681  30686  30682  0
30466  30683  30687  0
30466  30687  30468  0
29933  30472  30685  0
30469  30470  30688  0
30469  30688  30686  0
30471  30468  30687  0
30471  30687  30689  0
30233  29728  30459  0
29947  30690  30470  0
30470  30690  30688  0
30473  30471  30691  0
29947  30238  30690  0
30690  30238  30478  0
30690  30478  30692  0
30690  30692  30693  0
30690  30693  30688  0
30692  30478  30479  0
30692  30694  30693  0
30692  30479  30695  0
30692  30695  30694  0
30476  30696  30477  0
30476  30474  30696  0
30227  30237  30697  0
30479  30480  30695  0
30698  30695  30480  0
30481  30240  30699  0
30700  30481  30699  0
30240  30477  30699  0
30701  30482  30702  0
30482  30233  30702  0
30480  30483  30698  0
30703  30698  30483  0
30483  30481  30703  0
30700  30703  30481  0
29955  30482  30245  0
30482  30701  30245  0
30704  30484  30243  0
30705  30244  30486  0
30706  30244  30705  0
30486  30245  30705  0
30701  30705  30245  0
30707  30708  30709  0
30709  30710  30707  0
30709  30711  30710  0
30710  30711  30712  0
30713  30712  30711  0
30712  30704  30714  0
30712  30713  30704  0
30704  30243  30714  0
29956  30714  30243  0
30715  30246  30244  0
30706  30715  30244  0
30489  30708  30490  0
30716  30490  30708  0
30708  30707  30716  0
30712  30707  30710  0
30712  30714  30717  0
30718  30717  30714  0
30714  29956  30718  0
30250  30494  30489  0
30490  30716  30491  0
30719  30716  30707  0
30707  30712  30719  0
30720  30719  30712  0
30712  30717  30721  0
30712  30721  30720  0
30718  30721  30717  0
30718  29956  30722  0
30492  30722  29956  0
30251  30497  30494  0
30723  30494  30497  0
30491  30716  30496  0
30724  30496  30716  0
30716  30719  30724  0
30725  30724  30719  0
30719  30720  30725  0
30493  30726  30255  0
30252  30498  30497  0
30727  30497  30498  0
30495  30496  30500  0
30728  30500  30496  0
30496  30724  30728  0
30722  30492  30729  0
30255  30726  30501  0
30730  30257  30501  0
30262  30504  30731  0
30262  30731  30498  0
30499  30500  30503  0
30500  30728  30503  0
29747  30492  29957  0
30257  30730  30258  0
30259  30732  30261  0
30733  30261  30732  0
30259  30260  30732  0
30734  30732  30260  0
30261  30733  30504  0
30735  30504  30733  0
30731  30504  30735  0
30503  30728  30505  0
30509  30505  30728  0
30736  30509  30728  0
30737  30514  30738  0
30739  30738  30514  0
30740  30265  30506  0
30506  30258  30730  0
30507  30741  30508  0
30742  30508  30741  0
30743  30741  30507  0
30508  30742  30260  0
30734  30260  30742  0
30492  29747  30521  0
30514  30737  30744  0
30277  30265  30740  0
30507  30510  30743  0
30745  30743  30510  0
30510  30511  30745  0
30746  30745  30511  0
30273  30509  30736  0
30747  30273  30736  0
30748  30747  30736  0
30492  30747  30748  0
30521  30747  30492  0
29747  29748  30521  0
30749  30514  30744  0
30514  30513  30750  0
30511  30512  30746  0
30751  30746  30512  0
30512  30515  30751  0
30752  30751  30515  0
30515  30516  30752  0
30753  30752  30516  0
30516  30517  30753  0
30754  30753  30517  0
30517  30518  30754  0
30755  30754  30518  0
30756  30755  30518  0
30273  30747  30519  0
30525  30519  30747  0
30528  30525  30747  0
30747  30521  30528  0
30514  30749  30287  0
30529  30287  30749  0
30513  30522  30750  0
30518  30523  30756  0
30757  30756  30523  0
30758  30757  30523  0
30523  30524  30758  0
30520  30528  30521  0
30531  30522  30286  0
30522  30531  30759  0
30275  30277  30760  0
30524  30526  30761  0
30526  30527  30761  0
30529  30762  30763  0
30532  30534  30764  0
30532  30764  30533  0
30534  30765  30766  0
30527  30535  30767  0
30763  30537  30536  0
30763  30536  30529  0
30763  30768  30537  0
30535  30538  30543  0
30535  30543  30769  0
30535  30769  30767  0
30537  30768  30541  0
30543  30301  30548  0
30543  30548  30770  0
30543  30770  30771  0
30543  30771  30769  0
30770  30548  30771  0
30546  30541  30772  0
30546  30772  30773  0
30548  30549  30774  0
30548  30774  30771  0
30549  30550  30774  0
30550  30305  30554  0
30550  30554  30775  0
30550  30775  30774  0
30775  30554  30776  0
30546  30773  30561  0
30546  30561  30551  0
30554  30556  30776  0
30556  30558  30777  0
30556  30777  30776  0
30559  30560  30558  0
30560  30561  30778  0
30331  30564  30565  0
30566  30567  30332  0
30566  30565  30779  0
30567  30566  30780  0
30568  30334  30064  0
30568  30064  30781  0
30568  30781  30782  0
30568  30782  30564  0
30567  30780  30783  0
30567  30783  30569  0
30569  30783  30572  0
30335  30069  30784  0
30336  30571  30579  0
30336  30579  30573  0
30781  30064  30575  0
30579  30785  30786  0
30579  30786  30338  0
30574  30580  30581  0
30575  29813  30345  0
30575  30345  30787  0
30575  30787  30788  0
30575  30788  30781  0
30576  30572  30789  0
30338  30786  30790  0
30338  30790  30582  0
30580  30583  30791  0
30580  30791  30584  0
30580  30584  30581  0
30586  30582  30790  0
30586  30790  30792  0
30586  30792  30793  0
30586  30793  30086  0
30794  30587  30588  0
30794  30588  30592  0
30794  30795  30796  0
30794  30796  30587  0
30794  30592  30797  0
30794  30797  30795  0
30587  30796  30798  0
30587  30798  30583  0
30583  30798  30799  0
30583  30799  30791  0
30791  30800  30589  0
30791  30589  30584  0
30791  30799  30801  0
30791  30801  30800  0
30787  30345  30585  0
30787  30585  30802  0
30590  30086  30793  0
30592  30591  30797  0
30800  30803  30589  0
30802  30585  30353  0
30802  30353  30804  0
30802  30804  30805  0
30088  30590  30806  0
30591  30593  30807  0
30591  30807  30797  0
30803  30808  30594  0
30803  30594  30589  0
30804  30353  30357  0
30088  30806  30595  0
30593  30356  30809  0
30593  30809  30807  0
30808  30600  30360  0
30808  30360  30594  0
30089  30595  30358  0
30809  30356  30599  0
30809  30599  30810  0
30600  30808  30811  0
30357  30602  30804  0
30812  30813  30814  0
30812  30814  30598  0
30812  30603  30815  0
30812  30815  30813  0
30598  30814  30816  0
30598  30816  30597  0
30597  30604  30365  0
30597  30816  30604  0
30600  30811  30601  0
30358  30595  30606  0
30603  30373  30815  0
30817  30815  30373  0
30604  30816  30607  0
30818  30602  30383  0
30819  30818  30383  0
30820  30606  30595  0
30606  30820  30609  0
30821  30609  30820  0
30609  30821  30610  0
30822  30610  30821  0
30601  30823  30608  0
30824  30608  30823  0
30825  30383  30613  0
30819  30383  30825  0
30826  30610  30822  0
30373  30380  30817  0
30827  30817  30380  0
30607  30828  30611  0
30829  30611  30828  0
30376  30830  30605  0
30608  30824  30612  0
30614  30825  30613  0
30610  30826  30384  0
30384  30826  30394  0
30615  30827  30380  0
30831  30611  30829  0
30611  30831  30403  0
30832  30393  30612  0
30123  30833  30616  0
30834  30616  30833  0
30833  30123  30835  0
30835  30123  30394  0
30826  30835  30394  0
30836  30616  30834  0
30837  30615  30402  0
30403  30831  30619  0
30376  30398  30619  0
30393  30832  30620  0
30836  30838  30405  0
30839  30405  30838  0
30405  30616  30836  0
30411  30837  30402  0
30620  30832  30840  0
30839  30412  30405  0
30131  30405  30412  0
30633  30837  30411  0
30841  30621  30624  0
30621  30841  30625  0
30842  30625  30841  0
30843  30625  30842  0
30625  30843  30626  0
30626  30843  30410  0
30635  30410  30843  0
30844  30630  30414  0
30845  30635  30843  0
30633  30632  30846  0
30847  30418  30634  0
30414  30415  30844  0
30848  30844  30415  0
30415  30417  30637  0
30415  30637  30848  0
30849  30848  30637  0
30850  30635  30845  0
30635  30851  30631  0
30635  30850  30851  0
30852  30631  30851  0
30631  30852  30632  0
30853  30849  30637  0
30637  30638  30853  0
30854  30632  30852  0
30632  30854  30846  0
30638  30420  30855  0
30640  30855  30420  0
30418  30856  30149  0
30640  30639  30857  0
30641  30857  30639  0
30858  30149  30856  0
30857  30641  30859  0
30425  30859  30641  0
30149  30858  30150  0
30642  30150  30858  0
30859  30425  30644  0
30424  30860  30426  0
30424  30861  30860  0
30859  30644  30862  0
30863  30862  30644  0
30426  30860  30864  0
30426  30864  30646  0
30865  30646  30864  0
30644  30643  30863  0
30155  30646  30866  0
30155  30866  30648  0
30865  30866  30646  0
30643  30645  30867  0
30647  30868  30645  0
30169  30647  29897  0
30158  30648  30869  0
30158  30869  30870  0
30158  30870  30650  0
30169  30435  30871  0
30650  30872  30432  0
30435  30873  30871  0
30432  30872  30655  0
30656  30874  30657  0
30657  30874  30658  0
30653  30651  30875  0
30653  30875  30659  0
30660  30873  30435  0
30876  30656  30874  0
30165  30877  30652  0
30654  30662  30438  0
30654  30659  30878  0
30654  30878  30662  0
30663  30441  30669  0
30663  30669  30879  0
30663  30879  30880  0
30663  30880  30664  0
30664  30880  30661  0
30661  30880  30660  0
30165  30666  30877  0
30662  30881  30667  0
30667  30881  30882  0
30667  30882  30445  0
30445  30882  30883  0
30445  30883  30668  0
30668  30883  30879  0
30668  30879  30669  0
30666  30451  30672  0
30443  30884  30885  0
30443  30665  30884  0
30443  30885  30446  0
30672  30454  30674  0
30672  30674  30886  0
30884  30887  30885  0
30885  30887  30888  0
30885  30888  30889  0
30446  30885  30890  0
30446  30890  30670  0
30453  30670  30891  0
30453  30891  30671  0
30671  30891  30677  0
30671  30677  30444  0
30674  30673  30892  0
30674  30892  30886  0
30673  30675  30892  0
30457  30194  30893  0
30194  30676  30893  0
30885  30889  30890  0
30670  30894  30891  0
30675  30682  30892  0
30679  30457  30895  0
30457  30893  30895  0
30195  30680  30676  0
30684  30462  30896  0
30684  30897  30683  0
30462  30679  30896  0
30680  30685  30676  0
30459  30677  30898  0
30899  30682  30686  0
30899  30686  30900  0
30687  30683  30897  0
30900  30686  30901  0
30686  30688  30901  0
30689  30691  30471  0
30472  30697  30685  0
30459  30898  30233  0
30688  30693  30902  0
30688  30902  30903  0
30688  30903  30901  0
30902  30693  30694  0
30902  30694  30904  0
30902  30904  30903  0
30904  30694  30905  0
30474  30473  30906  0
30474  30906  30907  0
30474  30907  30696  0
30473  30691  30906  0
30697  30472  30227  0
30694  30695  30905  0
30477  30696  30908  0
30695  30698  30909  0
30695  30909  30905  0
30699  30910  30700  0
30699  30477  30908  0
30699  30908  30910  0
30237  30911  30697  0
30237  30484  30911  0
30702  30912  30701  0
30698  30703  30913  0
30698  30913  30909  0
30703  30700  30914  0
30703  30914  30913  0
30700  30910  30914  0
30484  30915  30911  0
30916  30917  30706  0
30916  30706  30705  0
30916  30705  30701  0
30916  30701  30912  0
30916  30912  30917  0
30918  30713  30711  0
30713  30918  30915  0
30713  30915  30704  0
30704  30915  30484  0
30709  30919  30711  0
30711  30919  30918  0
30715  30920  30246  0
30489  30921  30708  0
30709  30708  30921  0
30922  30923  30493  0
30922  30493  30246  0
30922  30246  30920  0
30494  30723  30489  0
30921  30489  30723  0
30721  30729  30720  0
30721  30718  30722  0
30721  30722  30729  0
30923  30726  30493  0
30497  30924  30723  0
30497  30727  30924  0
30720  30729  30725  0
30923  30925  30726  0
30926  30727  30498  0
30725  30927  30724  0
30725  30729  30927  0
30726  30928  30501  0
30929  30501  30928  0
30501  30929  30730  0
30926  30731  30930  0
30931  30930  30731  0
30731  30926  30498  0
30927  30728  30724  0
30748  30927  30729  0
30729  30492  30748  0
30506  30730  30932  0
30929  30932  30730  0
30732  30933  30733  0
30735  30733  30933  0
30732  30734  30933  0
30934  30933  30734  0
30735  30931  30731  0
30728  30927  30736  0
30748  30736  30927  0
30935  30744  30737  0
30737  30738  30936  0
30937  30739  30514  0
30740  30506  30938  0
30741  30939  30742  0
30940  30742  30939  0
30741  30743  30939  0
30941  30939  30743  0
30742  30940  30734  0
30934  30734  30940  0
30514  30750  30937  0
30942  30937  30750  0
30743  30745  30941  0
30943  30941  30745  0
30755  30944  30754  0
30744  30945  30749  0
30759  30942  30750  0
30760  30277  30740  0
30745  30746  30943  0
30946  30943  30746  0
30746  30751  30946  0
30947  30946  30751  0
30751  30752  30947  0
30948  30947  30752  0
30752  30753  30948  0
30949  30948  30753  0
30753  30754  30949  0
30755  30756  30757  0
30755  30757  30944  0
30758  30944  30757  0
30759  30750  30522  0
30950  30758  30524  0
30749  30762  30529  0
30749  30951  30762  0
30760  30952  30275  0
30953  30275  30952  0
30524  30761  30950  0
30954  30950  30761  0
30955  30954  30761  0
30763  30762  30956  0
30951  30957  30762  0
30762  30957  30956  0
30958  30956  30957  0
30959  30533  30764  0
30766  30764  30534  0
30761  30527  30955  0
30960  30955  30527  0
30527  30767  30960  0
30961  30960  30767  0
30956  30958  30763  0
30768  30763  30958  0
30962  30015  30016  0
30016  30533  30962  0
30959  30962  30533  0
30767  30769  30961  0
30963  30961  30769  0
30958  30772  30768  0
30541  30768  30772  0
30958  30964  30772  0
30965  30772  30964  0
30966  30967  30968  0
30769  30771  30963  0
30969  30963  30771  0
30970  30969  30771  0
30772  30965  30773  0
30771  30774  30970  0
30774  30775  30971  0
30776  30971  30775  0
30774  30971  30970  0
30561  30773  30778  0
30773  30972  30778  0
30973  30971  30776  0
30974  30973  30776  0
30776  30777  30974  0
30975  30974  30777  0
30777  30558  30975  0
30976  30975  30558  0
30558  30560  30976  0
30778  30976  30560  0
30977  30565  30564  0
30565  30977  30779  0
30978  30779  30977  0
30779  30978  30566  0
30780  30566  30978  0
30979  30570  30335  0
30570  30979  30571  0
30564  30782  30980  0
30981  30980  30782  0
30978  30982  30780  0
30983  30780  30982  0
30780  30984  30783  0
30572  30783  30984  0
30780  30983  30984  0
30985  30784  30069  0
30335  30784  30979  0
30986  30979  30784  0
30979  30785  30571  0
30579  30571  30785  0
30979  30986  30987  0
30979  30987  30785  0
30782  30781  30988  0
30782  30988  30981  0
30984  30989  30572  0
30984  30983  30989  0
30577  30985  30069  0
30785  30987  30990  0
30785  30990  30786  0
30781  30788  30991  0
30781  30991  30988  0
30989  30789  30572  0
30989  30983  30992  0
30786  30990  30993  0
30786  30993  30790  0
30788  30787  30994  0
30788  30994  30995  0
30788  30995  30991  0
30989  30996  30789  0
30576  30997  30578  0
30576  30789  30997  0
30790  30993  30998  0
30790  30998  30792  0
30796  30999  30798  0
30798  30801  30799  0
30798  30999  31000  0
30798  31000  30801  0
30994  30787  30802  0
30994  30802  31001  0
30994  31001  30995  0
30996  30989  31002  0
30793  30792  30998  0
30793  31003  30590  0
31004  30797  30807  0
31004  30795  30797  0
30801  31005  30800  0
30801  31000  31006  0
30801  31006  31005  0
31001  30802  30805  0
31001  31007  30995  0
30996  31008  30789  0
30996  31002  31008  0
30807  31009  31004  0
31005  31010  30803  0
31005  30803  30800  0
30807  30809  31011  0
30807  31011  31009  0
30803  31010  30808  0
31001  30805  30804  0
30806  31012  30595  0
31013  31014  30813  0
31013  30813  31015  0
31013  31015  31016  0
31014  30814  30813  0
30809  30810  31011  0
30808  31010  31017  0
30808  31017  30811  0
30819  31001  30818  0
30819  31007  31001  0
31001  30804  30602  0
31001  30602  30818  0
31015  30813  30815  0
31015  31018  31016  0
30814  31019  31020  0
30814  31020  30816  0
30814  31014  31019  0
30810  30599  31021  0
30810  31021  31022  0
30595  31023  30820  0
31023  31024  30820  0
31015  30815  30817  0
31015  30817  31025  0
31015  31025  31018  0
31020  30828  30607  0
31020  30607  30816  0
31021  30599  30605  0
31021  31026  31022  0
30601  30811  31027  0
30601  31027  30823  0
30819  30825  31028  0
30820  31024  30821  0
30828  31020  31029  0
30828  31029  31030  0
31021  30605  30830  0
31021  30830  30619  0
31021  30619  31026  0
30823  31027  30824  0
30822  31031  30826  0
31025  30817  30827  0
31030  30829  30828  0
30619  30831  31026  0
30824  31032  30612  0
30826  31031  30835  0
30827  30615  31033  0
30619  30830  30376  0
30612  31032  31034  0
30612  31034  30832  0
31035  30834  30833  0
31035  30833  31036  0
31035  31036  31037  0
30833  30835  31038  0
30833  31038  31036  0
30614  30620  31039  0
31040  30838  30836  0
30836  30834  31035  0
30836  31035  31040  0
30832  31041  30840  0
30838  31042  30839  0
30408  30627  30624  0
30840  31043  30620  0
30412  30839  31044  0
30412  31044  30628  0
30627  31045  30624  0
30627  30409  31046  0
30627  31046  31045  0
30624  31045  31047  0
30633  31048  30837  0
31049  31050  31051  0
31044  30634  30628  0
30409  30629  31046  0
31052  31046  30629  0
30624  31047  30841  0
31053  30841  31047  0
30841  31053  30842  0
30842  31054  30843  0
31055  31054  30842  0
30633  30846  31048  0
31056  31051  31050  0
30629  30630  31057  0
30844  31057  30630  0
30629  31057  31052  0
30845  30843  31054  0
31058  31050  31059  0
31050  31058  31056  0
30418  30847  30856  0
30846  30854  31048  0
31060  31048  30854  0
31061  31056  31058  0
30855  30853  30638  0
30851  31062  30852  0
30855  30640  31063  0
31064  31063  30640  0
30640  30857  31064  0
30859  31064  30857  0
30852  31065  30854  0
31066  30854  31065  0
31064  30859  31067  0
30642  30861  30424  0
31067  30859  30862  0
31068  30860  30861  0
30860  31068  30864  0
31067  30862  31069  0
30863  31069  30862  0
31068  31070  30864  0
30864  31070  30865  0
30867  30863  30643  0
30866  31071  30648  0
31072  30648  31071  0
30866  30865  31071  0
30868  30867  30645  0
30871  30868  30647  0
30647  30169  30871  0
31072  30869  30648  0
31073  30650  30870  0
30872  30650  31073  0
31074  30871  30873  0
30875  30651  30652  0
30660  31075  30873  0
31076  30873  31075  0
30873  31076  31074  0
31077  31074  31076  0
31078  30655  30872  0
30655  31078  30656  0
30656  31078  30874  0
31079  30874  31078  0
30874  31079  30658  0
30437  30658  31079  0
30652  31080  30875  0
30652  30877  31080  0
31081  31080  30877  0
31082  30659  30875  0
30659  31082  30878  0
30879  31083  30880  0
31084  30880  31083  0
30880  31084  30660  0
30660  31084  31075  0
31085  31075  31084  0
31086  31075  31085  0
31075  31086  31076  0
31077  31076  31086  0
31087  30437  31079  0
30437  31087  30665  0
30877  30666  31081  0
31088  31081  30666  0
31089  30662  30878  0
30662  31089  30881  0
31090  30881  31089  0
30881  31090  30882  0
31091  30882  31090  0
30882  31091  30883  0
31092  30883  31091  0
30883  31092  30879  0
30879  31092  31083  0
31093  31083  31092  0
31083  31093  31084  0
31094  31084  31093  0
31086  31084  31094  0
31084  31086  31085  0
31086  31095  31077  0
31096  31077  31095  0
30665  31087  30884  0
30887  30884  31087  0
30666  30672  31088  0
31097  31088  30672  0
31093  31098  31094  0
31099  31094  31098  0
31094  31099  31086  0
31095  31086  31099  0
30672  30886  31097  0
31099  31100  31095  0
30887  31101  30888  0
30886  30892  31102  0
30888  31103  30889  0
30888  31101  31104  0
30888  31104  31103  0
30890  30889  30894  0
30890  30894  30670  0
31102  30892  31105  0
30676  31106  30893  0
31103  31107  30889  0
31103  31108  31107  0
30889  31107  31109  0
30889  31109  31110  0
30889  31110  30894  0
30894  31110  31111  0
30894  31111  30891  0
30891  31111  30677  0
31112  30682  30899  0
31112  31105  30892  0
31112  30892  30682  0
30896  30679  31113  0
30896  31113  31114  0
30896  31114  30684  0
30679  30895  31113  0
30676  31115  31106  0
30676  30685  31115  0
31107  31116  31109  0
31107  31108  31116  0
31109  31116  31117  0
31109  31117  31110  0
31110  31117  31111  0
31111  31118  30677  0
30677  31118  30898  0
30899  30900  31119  0
30899  31119  31112  0
30687  30897  31120  0
30687  31120  31121  0
30897  30684  31114  0
30897  31114  31120  0
30685  31122  31115  0
31117  31116  31111  0
30900  30901  31123  0
