#!ascii file
21916  21630  21915  0
21917  21630  21916  0
21630  21917  21631  0
21918  21631  21917  0
21631  21918  21919  0
21920  21919  21918  0
21632  21633  21914  0
21921  21914  21633  0
21635  21922  21627  0
21923  21627  21922  0
21627  21923  21001  0
21637  21001  21923  0
21924  21915  21640  0
21915  21629  21640  0
21642  21640  21629  0
21925  21921  21633  0
21926  21637  21927  0
21637  21926  21638  0
21928  21638  21926  0
21638  21928  21344  0
21639  21344  21928  0
21639  21929  21640  0
21924  21640  21929  0
21643  21925  21633  0
21636  21343  21930  0
21931  21930  21343  0
21932  21643  21019  0
21644  21931  21343  0
21644  21355  21933  0
21645  21933  21355  0
21019  21651  21932  0
21934  20705  21354  0
20705  21934  21020  0
21649  21652  21935  0
21362  21650  21936  0
21023  21655  21937  0
21023  21937  21651  0
21020  21934  21364  0
21935  21652  21938  0
21652  21653  21938  0
21653  21654  21938  0
21362  21939  21366  0
21367  21656  21940  0
21367  21940  21655  0
21364  21941  21657  0
21364  21657  21365  0
21938  21654  21942  0
21656  21943  21940  0
21941  21944  21657  0
21657  21945  21370  0
21657  21944  21945  0
21654  21368  21658  0
21656  21946  21943  0
21370  21945  21947  0
21370  21947  21374  0
21659  21948  21949  0
21659  21949  21658  0
21374  21947  21950  0
21948  21659  21661  0
21374  21950  21951  0
21374  21951  21375  0
21040  21663  21952  0
21040  21952  21378  0
21375  21951  21045  0
21670  21953  21954  0
21670  21954  21955  0
21670  21669  21953  0
21955  21671  21670  0
21956  21957  21674  0
21956  21958  21959  0
21956  21959  21957  0
21957  21675  21674  0
21957  21959  21960  0
21957  21960  21675  0
21664  21665  21961  0
21664  21961  21661  0
21666  21376  21679  0
21044  21393  21663  0
21045  21951  21681  0
21671  21955  21962  0
21671  21962  21672  0
21672  21962  21683  0
21683  21962  21963  0
21963  21964  21673  0
21963  21673  21683  0
21964  21956  21673  0
21956  21674  21673  0
21675  21960  21385  0
21385  21960  21965  0
21385  21965  21676  0
21676  21965  21966  0
21665  21389  21967  0
21665  21967  21961  0
21391  21392  21678  0
21666  21679  21968  0
21679  21969  21968  0
21679  21667  21969  0
21667  21680  21970  0
21667  21970  21969  0
21680  21688  21970  0
21668  21687  21680  0
21668  21662  21689  0
21668  21689  21687  0
21662  21971  21689  0
21676  21966  21972  0
21676  21972  21677  0
21677  21972  21684  0
21686  21967  21389  0
21689  21973  21691  0
21974  21684  21972  0
21975  21684  21974  0
21684  21975  21685  0
21695  21678  21976  0
21688  21697  21977  0
21697  21690  21978  0
21690  21691  21978  0
21692  21400  21979  0
21980  21699  21696  0
21693  21702  21070  0
21703  21698  21065  0
21404  21062  21699  0
21400  21407  21979  0
21981  21979  21407  0
21982  21703  21704  0
21983  21982  21704  0
21704  21414  21983  0
21984  21408  21402  0
21402  21401  21984  0
21401  21700  21985  0
21986  21700  21403  0
21403  21705  21986  0
21712  21981  21407  0
21987  21981  21712  0
21988  21412  21706  0
21701  21707  21413  0
21414  21708  21983  0
21989  21983  21708  0
21990  21989  21708  0
21991  21709  21408  0
21405  21992  21711  0
21405  21404  21992  0
21993  21712  21418  0
21994  21987  21712  0
21418  21411  21993  0
21411  21412  21993  0
21995  21993  21412  0
21708  21713  21990  0
21716  21990  21713  0
21714  21417  21996  0
21709  21996  21417  0
21710  21715  21997  0
21712  21993  21994  0
21716  21998  21990  0
21999  21990  21998  0
22000  21999  21998  0
21728  22000  21998  0
21717  21714  22001  0
21996  22001  21714  0
21715  22002  21997  0
21715  21424  22002  0
21718  21421  21711  0
21716  21725  21998  0
21726  21998  21725  0
21998  21726  21728  0
22003  21717  22001  0
22004  21424  21092  0
21424  22004  22002  0
22005  21422  21718  0
22006  21723  21722  0
21444  22007  21728  0
22007  21444  22008  0
22009  22008  21444  0
22010  22008  22009  0
22011  21432  21717  0
21092  21429  22004  0
21430  21422  22012  0
21422  22005  22012  0
21723  22006  21727  0
21444  21730  22009  0
22013  22010  22009  0
22014  21433  21432  0
21432  22011  22014  0
21430  21733  21436  0
21430  22012  21733  0
21438  22015  21093  0
21093  22015  21426  0
21426  22015  22016  0
21426  22016  21720  0
21720  22016  22017  0
21727  22018  21729  0
22009  22019  22013  0
21433  22014  22020  0
22014  22021  22020  0
21733  22022  21734  0
21734  22023  21438  0
21729  22024  21735  0
21732  21731  21434  0
21732  21736  22025  0
21737  21738  22026  0
21453  21113  21740  0
21117  22027  21739  0
21117  21456  22027  0
21456  22028  22027  0
21735  22024  22029  0
21735  22029  21456  0
21737  22026  22030  0
21737  22030  21736  0
21738  22031  22026  0
21738  21453  22031  0
21453  21740  22032  0
21453  22032  22031  0
21454  21742  21740  0
21739  22033  21455  0
21739  22027  22034  0
21456  22029  22028  0
21741  21455  22033  0
21459  21744  22035  0
21459  22035  21742  0
22036  22037  21465  0
22036  21465  21464  0
22036  21464  22038  0
22037  21747  21465  0
21464  21746  22038  0
21747  22039  21470  0
21470  22039  21750  0
21749  22040  21748  0
21469  21474  22041  0
21469  22041  21746  0
21750  22039  22042  0
21473  21748  22043  0
21473  22043  21756  0
21750  22042  21754  0
21756  22044  21477  0
21474  21478  22045  0
21474  22045  22041  0
21754  22042  22046  0
21477  22044  21484  0
21478  21758  22047  0
21478  22047  22045  0
21479  21481  22048  0
21479  22048  21757  0
21484  22049  21485  0
21484  22044  22049  0
21754  22046  21488  0
22046  22050  21488  0
21152  21761  21760  0
21759  22051  21762  0
21759  21760  22051  0
21482  22052  21758  0
21758  22052  22053  0
21488  22050  22054  0
22055  21761  21483  0
21481  21491  22048  0
22056  22048  21491  0
21485  22057  21486  0
21488  22054  21764  0
22058  21764  22054  0
21483  21765  22055  0
22059  22055  21765  0
21762  22060  21763  0
21491  21771  22056  0
21486  22057  21767  0
21482  21768  22052  0
21494  22061  21495  0
21770  21495  22061  0
21765  21497  22059  0
22062  22059  21497  0
22063  21766  21763  0
21179  22056  21771  0
21777  22056  21179  0
22064  21768  21492  0
21489  21764  21774  0
22065  21774  21764  0
21494  21780  22061  0
22066  22061  21780  0
22061  22067  21770  0
21775  21770  22067  0
21497  21501  22062  0
21781  22062  21501  0
21772  22068  21773  0
22064  21492  21773  0
22069  21774  22065  0
22070  21780  21184  0
21780  22070  22066  0
22071  22066  22070  0
22067  21789  21775  0
21509  21775  21789  0
21766  22072  21776  0
21774  22069  21784  0
22070  21184  21191  0
21789  21510  21509  0
21785  21781  21182  0
21784  22073  21778  0
21783  21778  22073  0
21191  21190  22074  0
22075  22074  21190  0
22076  21792  21789  0
21781  21785  22077  0
21776  22078  21786  0
21782  21194  22079  0
22080  22079  21194  0
22073  22081  21783  0
22082  21783  22081  0
22083  21783  22082  0
21783  22083  21790  0
22084  21190  21195  0
21190  22084  22075  0
22085  22075  22084  0
21793  21792  22086  0
21194  21795  22080  0
22087  21790  22083  0
21790  22087  21787  0
21787  22087  21791  0
21195  21797  22084  0
22086  22088  21793  0
21785  21511  22077  0
22089  22077  21511  0
21786  22090  21794  0
22091  21794  22090  0
22092  22083  22082  0
22088  22093  21793  0
21798  21793  22093  0
22094  22093  22088  0
21524  21804  21511  0
21511  21804  22089  0
22083  22092  22087  0
22087  21801  21791  0
21791  21801  21796  0
22094  21797  21799  0
22095  22094  21799  0
22094  22095  22093  0
21520  22093  22095  0
22093  21520  21798  0
22089  21804  22096  0
21795  21207  22097  0
21211  22097  21207  0
22092  21807  22087  0
21801  22087  21807  0
22098  21807  22092  0
21799  21802  22095  0
22095  21805  21520  0
22096  21804  21812  0
21803  21812  21804  0
22096  21812  22099  0
22096  22099  22100  0
21794  22101  21800  0
21802  21809  22095  0
22095  21809  21810  0
22095  21810  21805  0
21812  21811  22099  0
21800  21813  21525  0
21800  22101  21813  0
22098  22102  21808  0
22098  21808  21807  0
22098  22103  22102  0
21809  21532  21810  0
22099  21811  22104  0
21808  22105  21815  0
21808  22102  22105  0
21816  22106  21536  0
21816  21536  20897  0
21213  22107  21814  0
21213  21537  22108  0
21213  22108  22107  0
21815  22105  21539  0
21539  22105  22109  0
22110  22104  21811  0
22106  22111  21536  0
21536  22111  21818  0
21818  22112  21537  0
21537  22112  22108  0
22109  22113  21539  0
21539  22113  21538  0
21538  22113  21819  0
22114  22104  22110  0
22110  21811  21823  0
21542  21544  21821  0
22114  22110  22115  0
21825  22116  21826  0
21542  21821  22117  0
22114  22118  22119  0
22114  22115  21830  0
22115  22110  21827  0
22110  21823  21827  0
21826  22116  22120  0
21826  22120  21552  0
22118  22114  21828  0
22118  21828  22121  0
22114  21830  21828  0
22115  21827  21831  0
22115  21831  21830  0
21552  22120  21833  0
22121  21828  22122  0
21833  22120  22123  0
22122  21828  21832  0
22122  21832  22124  0
21833  22125  21834  0
22124  22126  22127  0
22124  22127  22122  0
21834  22125  22128  0
21834  22128  21835  0
22126  22124  22129  0
22124  21832  21836  0
22124  21836  22129  0
21837  21835  22130  0
21837  22130  21845  0
21568  21839  21841  0
21841  22131  21840  0
21840  22131  22132  0
21840  22132  21842  0
22129  21836  22133  0
21836  21838  22133  0
21845  22134  21289  0
22134  22135  21290  0
22134  21290  21289  0
22134  22136  22135  0
22135  21852  21290  0
22135  21839  21846  0
22135  21846  21852  0
22133  21856  22137  0
22133  22137  22129  0
22133  21838  21572  0
22133  21572  21856  0
22138  21848  21853  0
21848  22138  21849  0
21855  21849  22138  0
21856  21288  21860  0
21856  21860  22137  0
22139  22137  21860  0
21847  22140  21857  0
21853  22141  22138  0
21853  21854  22141  0
21858  21855  22142  0
21855  22138  22142  0
21855  21858  21850  0
22140  21861  21857  0
21854  21862  21873  0
21854  21873  22141  0
22143  22141  21873  0
22142  22144  21858  0
21858  22144  22145  0
22146  21858  22147  0
21859  21858  22146  0
21860  21867  22139  0
22148  22149  21868  0
21870  21868  22149  0
21868  21294  22148  0
21861  22148  21294  0
21858  22145  22147  0
21865  21859  22146  0
22139  21867  22150  0
21867  21869  22150  0
21873  21874  22143  0
22151  22143  21874  0
22146  22147  21865  0
21876  21877  21583  0
21584  22152  21585  0
22153  21585  22152  0
21585  22153  21869  0
21880  21883  21588  0
21874  21882  22151  0
21879  22154  21584  0
22152  21584  22154  0
22155  21589  21883  0
21589  22155  21590  0
21885  21591  21884  0
21886  22151  21882  0
21887  22156  21886  0
22157  22156  21887  0
21602  21890  21896  0
22158  21889  21891  0
21892  22158  21891  0
22159  20968  21599  0
21887  21888  22157  0
22160  21888  21893  0
21609  21600  21895  0
21895  21610  22161  0
21610  21611  22162  0
22163  22162  21611  0
21611  21896  22164  0
21890  22164  21896  0
21611  22164  22163  0
22165  21892  21605  0
21605  21897  22165  0
20968  22159  20969  0
21900  20969  22159  0
21893  21894  22160  0
22166  22160  21894  0
21894  21612  22166  0
21901  22166  21612  0
21608  21607  22167  0
21609  22167  21607  0
22168  21608  22167  0
21609  21895  22169  0
22161  22169  21895  0
22161  21610  22170  0
22162  22170  21610  0
21897  21898  22171  0
22172  22171  21898  0
21897  22171  22165  0
22166  21901  22173  0
22174  21615  21902  0
21902  21608  22168  0
22175  22173  21901  0
21901  21903  22175  0
22174  22175  21903  0
21903  21904  22174  0
21904  21615  22174  0
21898  21905  22176  0
21898  22176  22172  0
21330  22177  21619  0
22177  22178  21619  0
21907  21619  22178  0
21616  21906  21905  0
21905  21906  22179  0
21908  21909  22180  0
21908  22179  21906  0
21907  22181  21621  0
21909  22182  22180  0
21911  22182  21909  0
22182  22183  22180  0
21910  22184  21911  0
21911  22184  22182  0
21334  22185  21913  0
21626  22186  21912  0
21626  21914  22186  0
21912  22186  22184  0
21912  22184  21910  0
21914  22187  22188  0
21914  22188  22186  0
21335  22189  21634  0
22190  21915  21924  0
21915  22190  21916  0
21917  22191  21918  0
21917  22192  22191  0
21918  22191  21920  0
22187  21914  21921  0
21635  22193  21922  0
21635  21636  22193  0
21922  22194  21923  0
21923  22195  21927  0
21923  21927  21637  0
21923  22194  22195  0
21924  22196  22190  0
21924  21929  22196  0
22191  22192  22197  0
22191  22197  22198  0
22187  21921  21925  0
21636  21930  22193  0
22195  22199  21927  0
21927  22199  21926  0
21926  22199  21928  0
21928  22196  21639  0
21639  22196  21929  0
22197  22200  22198  0
21925  22201  22187  0
21925  21643  22201  0
21349  21342  22202  0
22200  22203  22204  0
21643  21932  22205  0
21349  22202  22206  0
21349  22206  21354  0
21644  21933  22207  0
21644  22207  21931  0
21933  22208  22207  0
21933  21645  22208  0
21645  21646  22208  0
21646  21358  22209  0
21358  21647  22209  0
21647  21648  22210  0
21648  21649  22210  0
22210  21649  22211  0
21649  21935  22211  0
21935  21938  22212  0
21938  21942  22212  0
22213  21937  21655  0
21655  21940  22213  0
22214  22213  21940  0
21940  21943  22214  0
22215  22214  21943  0
21945  21944  22216  0
21945  22216  22217  0
21658  21942  21654  0
21943  21946  22215  0
21945  22217  21947  0
21949  22218  21658  0
21947  22217  21950  0
22219  22220  22221  0
22222  22223  21949  0
21949  21948  22222  0
22224  22220  22219  0
22220  22224  22225  0
22226  22225  22224  0
22227  21953  22228  0
22229  22228  21953  0
21953  22227  21954  0
22230  21955  21954  0
21948  21661  22222  0
22231  22222  21661  0
21379  21378  21971  0
21378  21952  22232  0
21378  22232  21971  0
22233  21971  22232  0
22234  21952  21663  0
21663  21393  22234  0
22235  22234  21393  0
21669  22229  21953  0
21955  22230  21962  0
21963  21962  22236  0
21962  22230  22236  0
22236  21964  21963  0
22236  22237  21964  0
22238  21964  22237  0
21956  21964  21958  0
21964  22238  21958  0
22239  21958  22238  0
21958  22239  21959  0
21661  21961  22231  0
21379  21971  21662  0
21971  22233  21973  0
21681  21951  22240  0
22229  21669  22241  0
21682  22241  21669  0
22231  21961  22242  0
21961  21967  22242  0
21666  21968  22243  0
22244  22243  21968  0
21968  21969  22244  0
22245  22244  21969  0
21969  21970  22245  0
22246  22245  21970  0
21977  22246  21970  0
21971  21973  21689  0
21978  21973  22233  0
21393  21692  22235  0
22247  22241  21682  0
21682  21694  22247  0
22248  22247  21694  0
22249  22250  22251  0
22252  22251  22250  0
22250  22253  22252  0
21960  22254  21965  0
21960  22255  22254  0
21966  21965  22254  0
22242  21967  22256  0
21967  21686  22256  0
22257  22256  21686  0
22258  21976  21678  0
21678  21392  22258  0
21392  21666  22258  0
22259  22258  21666  0
21970  21688  21977  0
21973  21978  21691  0
22240  21693  21681  0
22240  22260  21693  0
21694  21698  22248  0
22261  22248  21698  0
22248  22261  22249  0
22249  22261  22250  0
22262  22250  22261  0
22250  22262  22253  0
22263  22252  22253  0
22252  22263  22264  0
22265  21966  22254  0
21972  21966  22265  0
22257  21686  21685  0
22266  21695  21976  0
22267  21696  21695  0
21976  22258  22266  0
21978  21977  21697  0
22268  21692  21979  0
21979  22269  22268  0
21698  21703  22261  0
22261  21703  21982  0
22261  21982  22270  0
22261  22270  22262  0
22253  22262  22271  0
22253  22271  22263  0
22254  22272  22265  0
21972  22265  21974  0
21975  22273  21685  0
21685  22273  22257  0
21696  22267  21980  0
21979  21981  22269  0
22269  21981  22274  0
21693  22260  21702  0
21982  21983  22270  0
22262  22270  21989  0
22262  21989  22271  0
22265  22275  21974  0
21974  22275  21975  0
21980  22276  21699  0
21701  21702  22277  0
22270  21983  21989  0
21989  21999  22271  0
22271  21999  22278  0
22271  22278  22263  0
22263  22278  22279  0
22263  22279  22280  0
21984  21991  21408  0
21401  21985  21984  0
21700  21986  21985  0
21699  22276  21404  0
21404  22276  22281  0
21981  21987  22274  0
21706  21707  22282  0
21706  22282  22283  0
21706  22283  21988  0
21707  21701  22277  0
21707  22277  22282  0
21989  21990  21999  0
21986  21705  22284  0
21705  21710  22284  0
21404  22281  21992  0
22285  21987  21994  0
22285  21994  22286  0
22285  22287  21987  0
21987  22287  22274  0
21412  21988  21995  0
21988  22283  22288  0
22278  21999  22000  0
22278  22000  22289  0
22278  22289  22290  0
22278  22290  22279  0
22290  22289  22291  0
21996  21709  22292  0
21997  22293  21710  0
21711  21992  21718  0
21992  22281  22294  0
21992  22294  21718  0
22286  21994  22295  0
22286  22295  22296  0
22286  22296  22297  0
22286  22297  22285  0
21994  21993  22295  0
21993  21995  22295  0
21995  21988  22298  0
21988  22288  22298  0
22000  21728  22007  0
22000  22007  22289  0
22289  22007  22008  0
22289  22008  22291  0
22291  22008  22299  0
21996  22292  22001  0
21997  22002  22300  0
21997  22300  22293  0
22296  22295  22301  0
22295  21995  22301  0
21995  22298  22301  0
22288  22302  22298  0
22002  22004  22300  0
21720  22017  22303  0
21720  22303  21719  0
21719  22303  22304  0
21719  22304  21721  0
21721  22304  22305  0
21721  22305  21722  0
21722  22305  22006  0
22306  22296  22307  0
22296  22301  22308  0
22296  22308  22307  0
22301  22298  22309  0
22301  22309  22308  0
22298  22302  22309  0
22008  22010  22299  0
21717  22003  22011  0
22004  22310  22300  0
22006  22305  22311  0
22006  22311  21727  0
21435  21731  21429  0
21429  22310  22004  0
22015  22312  22016  0
21727  22311  22313  0
21727  22313  22018  0
21731  22314  21429  0
21733  22012  22315  0
21733  22315  22022  0
22023  22015  21438  0
21729  22018  22024  0
22021  22014  22316  0
22021  22316  22317  0
21732  22318  21731  0
21734  22022  22023  0
22025  21736  22030  0
22031  22319  22026  0
22320  22033  21739  0
22034  22027  22321  0
22322  22321  22027  0
22323  22322  22027  0
22027  22028  22323  0
22028  22029  22323  0
22324  22323  22029  0
22024  22324  22029  0
22030  22026  22325  0
22319  22325  22026  0
22326  22032  21740  0
21740  21742  22326  0
22327  22326  21742  0
22328  21741  22033  0
21742  22035  22327  0
22329  22327  22035  0
21743  21741  22330  0
22328  22330  21741  0
21743  22330  21745  0
21744  22329  22035  0
21744  21745  22331  0
22330  22331  21745  0
22332  22036  22038  0
22036  22332  22037  0
22333  21747  22037  0
21747  22333  22039  0
22038  21746  22334  0
22041  22334  21746  0
22039  22335  22042  0
22336  22042  22335  0
22337  21748  22040  0
21748  22337  22043  0
22338  22043  22337  0
22339  22042  22336  0
21752  22340  21751  0
22043  22338  21756  0
22044  21756  22338  0
22341  22042  22339  0
22342  21753  21755  0
22042  22341  22046  0
22050  22046  22341  0
22343  22050  22341  0
21755  21757  22342  0
22045  22047  22344  0
22345  22050  22343  0
22346  21757  22048  0
22347  22047  21758  0
22049  22348  21485  0
21758  22053  22347  0
22050  22345  22054  0
21761  22055  22349  0
21761  22349  21760  0
21760  22349  22350  0
21760  22350  22051  0
22051  22350  22060  0
22051  22060  21762  0
22048  22056  22351  0
22048  22351  22346  0
22348  22057  21485  0
22055  22352  22349  0
22055  22059  22353  0
22055  22353  22352  0
22349  22352  22350  0
22354  22350  22352  0
22350  22354  22060  0
22060  22354  21763  0
22059  22062  22355  0
22059  22355  22353  0
22354  22063  21763  0
22056  21777  22356  0
22357  21772  21767  0
21772  22357  22068  0
21768  22358  22052  0
22053  22052  22358  0
21768  22064  22358  0
21764  22058  22065  0
22061  22066  22067  0
22062  21781  22359  0
22062  22359  22355  0
22063  22072  21766  0
22068  22360  21773  0
21773  22361  22064  0
21773  22360  22361  0
22065  22362  22069  0
22066  22071  21789  0
22066  21789  22067  0
21781  22363  22359  0
22072  22078  21776  0
21777  21782  22079  0
21777  22079  22356  0
21191  22074  22364  0
21191  22364  22070  0
22070  22364  22071  0
22071  22364  22076  0
22071  22076  21789  0
21781  22077  22363  0
21784  22069  22073  0
22074  22075  22365  0
22074  22365  22364  0
22076  22364  21792  0
22077  22366  22363  0
22078  22090  21786  0
22073  22069  22367  0
22073  22367  22081  0
22075  22085  22365  0
22365  22086  21792  0
22365  21792  22364  0
22084  21797  22085  0
22085  22094  22365  0
22365  22094  22088  0
22365  22088  22086  0
22368  22366  22089  0
22368  22089  22100  0
22366  22077  22089  0
22081  22369  22082  0
22081  22367  22369  0
22082  22369  22092  0
21797  22094  22085  0
22370  22368  22100  0
22100  22089  22096  0
22091  22371  22372  0
22091  22372  21794  0
22373  22100  22374  0
22373  22370  22100  0
22372  22101  21794  0
22369  22103  22098  0
22369  22098  22092  0
22369  22375  22103  0
22374  22100  22376  0
21211  21814  22097  0
22103  22375  22377  0
22103  22377  22102  0
22374  22376  22378  0
22100  22099  22376  0
22378  22376  22379  0
22104  22376  22099  0
22372  22380  22101  0
21813  22101  22380  0
22102  22377  22381  0
22105  22102  22381  0
22379  22382  22378  0
22104  22379  22376  0
21813  22380  21816  0
22106  21816  22380  0
22105  22381  22383  0
22105  22383  22109  0
22378  22382  22384  0
22379  22104  22114  0
21818  22385  22112  0
22109  22383  22113  0
22113  22386  21819  0
22387  22384  22382  0
22119  22382  22379  0
22379  22114  22119  0
22111  22388  21818  0
21818  22388  22385  0
21819  22386  21820  0
21820  22389  21822  0
22119  22387  22382  0
21825  21543  22390  0
22391  22390  21543  0
21543  21542  22391  0
22117  22391  21542  0
22392  22117  21821  0
21821  21822  22392  0
22389  22392  21822  0
22118  22393  22387  0
22387  22119  22118  0
22394  22120  22116  0
22393  22118  22121  0
22393  22121  22395  0
22122  22395  22121  0
22120  22396  22123  0
22397  22395  22122  0
22123  22125  21833  0
22127  22397  22122  0
22125  22398  22128  0
22130  21835  22128  0
22399  22128  22398  0
22128  22399  22130  0
22397  22127  22400  0
22126  22400  22127  0
22130  22401  21845  0
22134  21845  22401  0
22130  22399  22401  0
22402  22401  22399  0
22136  22134  22401  0
22401  22402  22136  0
22403  22136  22402  0
22136  22404  22135  0
22136  22403  22404  0
21839  22135  22404  0
22404  22403  21839  0
22405  21839  22403  0
21839  22405  21841  0
21841  22405  22131  0
22400  22126  22406  0
22137  22407  22129  0
22126  22129  22406  0
22129  22407  22406  0
22141  22408  22138  0
22142  22138  22408  0
22407  22137  22409  0
22139  22409  22137  0
22141  22143  22408  0
22408  22410  22142  0
22144  22142  22410  0
22409  22139  22150  0
21870  22149  22411  0
22148  22411  22149  0
22143  22412  22408  0
22410  22408  22412  0
22413  22145  22144  0
21869  22153  22150  0
22153  22414  22150  0
22409  22150  22414  0
22415  22414  22153  0
22411  22416  21870  0
21880  21870  22416  0
22143  22151  22412  0
22145  22417  22147  0
22145  22413  22417  0
22418  22417  22413  0
22147  22417  22419  0
22147  22419  22420  0
22147  22420  21865  0
22152  22415  22153  0
21883  21880  22416  0
22151  22421  22412  0
22420  22422  21865  0
21865  22422  22423  0
21865  22423  21876  0
21876  22423  21877  0
21877  22423  22424  0
21877  22424  21878  0
21878  22424  22425  0
21878  22425  21879  0
21879  22425  22154  0
22154  22426  22152  0
21884  21590  22155  0
21884  22427  21885  0
22421  22151  22428  0
22151  21886  22428  0
22417  22429  22430  0
22417  22418  22429  0
22417  22430  22431  0
22417  22431  22419  0
22419  22431  22420  0
22425  22432  22154  0
22431  22430  22433  0
22431  22433  22420  0
22422  22420  22433  0
22434  22423  22422  0
21302  22435  21599  0
22156  22436  21886  0
22428  21886  22436  0
22429  22437  22430  0
22433  22430  22437  0
22159  21599  22435  0
22156  22157  22438  0
22156  22438  22436  0
21890  21889  22439  0
21890  22439  22164  0
21889  22158  22439  0
22158  22440  22439  0
22158  21892  22440  0
21892  22441  22440  0
22157  21888  22160  0
22157  22160  22442  0
22157  22442  22438  0
21892  22165  22441  0
22165  22443  22441  0
22442  22160  22444  0
22442  22445  22438  0
22160  22446  22444  0
22160  22166  22447  0
22160  22447  22446  0
22168  22167  22448  0
22167  21609  22449  0
21609  22169  22449  0
22162  22163  22450  0
22162  22450  22170  0
22165  22171  22451  0
22165  22451  22443  0
22171  22172  22451  0
22442  22444  22452  0
22442  22452  22453  0
22442  22453  22445  0
22444  22446  22452  0
22446  22447  22454  0
22166  22173  22455  0
22166  22455  22447  0
22456  22174  21902  0
22456  21902  22448  0
21902  22168  22448  0
22172  22457  22451  0
22452  22446  22458  0
22446  22454  22458  0
22454  22459  22458  0
22447  22455  22460  0
22447  22460  22454  0
22455  22173  22461  0
22455  22461  22460  0
22173  22175  22461  0
22172  22176  22457  0
22462  21907  22178  0
21905  22179  22176  0
22179  22463  22176  0
21907  22462  22464  0
21907  22464  22181  0
22181  22465  21621  0
21908  22180  22466  0
21908  22466  22179  0
22179  22466  22463  0
21621  22465  22185  0
21621  22185  21334  0
22180  22183  22466  0
22182  22184  22183  0
22183  22467  22466  0
22184  22468  22183  0
22469  22184  22186  0
22184  22469  22468  0
21335  21913  22189  0
22186  22188  22470  0
22186  22470  22471  0
22186  22471  22469  0
21916  22472  21917  0
22192  21917  22472  0
21922  22193  22194  0
22196  22473  22190  0
22190  22473  22472  0
22190  22472  21916  0
22472  22474  22192  0
22199  22195  22475  0
22199  22475  22476  0
22199  22476  21928  0
21928  22476  22196  0
22192  22474  22200  0
22192  22200  22197  0
22187  22201  22188  0
22477  22188  22201  0
22202  21342  21634  0
22203  22200  22478  0
22479  22477  22201  0
22201  21643  22479  0
22205  22479  21643  0
22480  21930  21931  0
21931  22207  22480  0
22203  22481  22204  0
22482  22204  22481  0
21934  21354  22206  0
22207  22208  22483  0
22484  22483  22208  0
22208  21646  22484  0
22209  22484  21646  0
22209  21647  22485  0
22210  22485  21647  0
22211  21935  22212  0
21932  21651  21937  0
21937  22213  22486  0
21934  22487  21364  0
21941  21364  22487  0
22488  22213  22214  0
22489  22490  21942  0
22214  22215  22488  0
21941  22491  21944  0
22216  21944  22491  0
21942  21658  22489  0
22218  22489  21658  0
22492  22221  22493  0
22218  21949  22223  0
22218  22223  22494  0
22218  22494  22495  0
22219  22221  22492  0
22496  21950  22497  0
21950  22217  22497  0
22498  22227  22228  0
22499  22227  22498  0
22227  22500  21954  0
22227  22499  22500  0
22500  22501  21954  0
22500  22502  22501  0
22503  22232  21952  0
22503  21952  22234  0
22496  21951  21950  0
22228  22229  22504  0
21954  22501  22230  0
22501  22237  22236  0
22501  22236  22230  0
22501  22502  22237  0
22505  22237  22502  0
22237  22505  22506  0
22506  22238  22237  0
22507  22238  22506  0
22219  22508  22224  0
22509  22224  22508  0
22224  22509  22226  0
22510  22226  22509  0
22510  22511  22512  0
22513  22514  22515  0
22516  22233  22232  0
22234  22235  22517  0
22496  22240  21951  0
22518  22240  22496  0
22238  22507  22239  0
22239  22519  21959  0
22239  22507  22519  0
22520  22519  22507  0
21959  22519  21960  0
22521  22244  22245  0
22521  22245  22513  0
22522  22244  22521  0
22513  22245  22246  0
22513  22246  22514  0
22523  22524  22516  0
22523  22516  22525  0
22524  22233  22516  0
22241  22247  22526  0
22241  22526  22229  0
22526  22247  22248  0
22526  22248  22527  0
22527  22248  22249  0
22527  22249  22251  0
22251  22528  22527  0
22528  22251  22252  0
22528  22252  22529  0
22519  22255  21960  0
22519  22520  22255  0
22242  22530  22231  0
21666  22243  22259  0
22243  22244  22522  0
22246  21977  22514  0
22514  21977  22523  0
22514  22523  22525  0
22523  21978  22524  0
22524  21978  22233  0
22252  22264  22529  0
22256  22530  22242  0
22259  22243  22531  0
22523  21977  21978  0
22260  22240  22532  0
22264  22263  22280  0
22264  22280  22533  0
22255  22272  22254  0
22255  22520  22272  0
22257  22534  22256  0
21695  22266  22267  0
22266  22258  22535  0
22266  22535  22536  0
22258  22259  22535  0
22269  22537  22268  0
22272  22538  22265  0
22273  22534  22257  0
22267  22266  22539  0
22267  22539  21980  0
22266  22536  22539  0
22269  22274  22540  0
22260  22541  21702  0
22280  22542  22533  0
22265  22538  22275  0
22275  22543  21975  0
21975  22543  22544  0
21975  22544  22273  0
22274  22287  22540  0
22545  22277  22541  0
22277  21702  22541  0
22280  22279  22542  0
22276  22546  22281  0
22283  22282  22547  0
22548  22542  22279  0
22279  22290  22548  0
22549  21709  21991  0
22550  21991  21984  0
21984  21985  22550  0
22281  22546  22551  0
22285  22552  22287  0
22553  22552  22285  0
22283  22547  22288  0
22290  22291  22548  0
22292  21709  22549  0
22554  22284  21710  0
21710  22293  22554  0
22285  22297  22553  0
22307  22553  22297  0
22288  22547  22302  0
22555  22291  22299  0
22556  22293  22300  0
22307  22297  22306  0
22001  22292  22557  0
22292  22558  22557  0
22559  22556  22300  0
21718  22294  22560  0
22307  22308  22561  0
22308  22309  22562  0
22299  22010  22555  0
22563  22555  22010  0
22001  22557  22564  0
22001  22564  22003  0
22558  22564  22557  0
22300  22310  22559  0
21718  22560  22005  0
22565  22005  22560  0
22304  22303  22017  0
22304  22566  22305  0
22567  22305  22566  0
22568  22566  22304  0
22305  22567  22311  0
22569  22311  22567  0
22570  22010  22013  0
22010  22570  22563  0
22571  22011  22003  0
22003  22564  22571  0
21429  22314  22310  0
22005  22565  22012  0
22568  22017  22016  0
22017  22568  22304  0
22569  22313  22311  0
22011  22571  22572  0
22011  22572  22014  0
22573  22014  22572  0
22574  22314  21731  0
22575  22314  22574  0
22314  22575  22310  0
22576  22310  22575  0
22315  22012  22565  0
22023  22577  22015  0
22578  22577  22023  0
22312  22015  22577  0
22579  22018  22313  0
22014  22573  22316  0
21732  22025  22318  0
22574  21731  22318  0
22315  22580  22022  0
22022  22580  22023  0
22578  22023  22580  0
22579  22024  22018  0
22581  22318  22025  0
22582  22319  22031  0
22031  22032  22582  0
21739  22034  22320  0
22321  22320  22034  0
22322  22323  22583  0
22584  22324  22024  0
22024  22579  22584  0
22030  22325  22025  0
22585  22025  22325  0
22582  22032  22586  0
22587  22586  22032  0
22032  22326  22587  0
22033  22320  22328  0
22588  22328  22320  0
22320  22321  22589  0
22322  22589  22321  0
22590  22583  22323  0
22323  22324  22590  0
22324  22584  22591  0
22592  22325  22319  0
22326  22327  22587  0
22593  22330  22328  0
22329  22594  22327  0
21744  22331  22329  0
22330  22593  22331  0
22329  22331  22595  0
22329  22595  22594  0
22331  22593  22595  0
22038  22334  22332  0
22332  22596  22037  0
22333  22037  22596  0
22332  22334  22597  0
22332  22597  22596  0
22039  22333  22335  0
22334  22041  22598  0
22334  22598  22597  0
22335  22599  22336  0
22335  22333  22599  0
22600  22336  22599  0
21749  22601  22040  0
22602  22040  22601  0
21749  21751  22601  0
22040  22602  22337  0
22603  22337  22602  0
22337  22604  22338  0
22337  22603  22604  0
22605  22338  22604  0
22041  22606  22598  0
22336  22600  22339  0
22341  22339  22600  0
21752  21753  22607  0
21752  22607  22340  0
22608  22338  22605  0
22041  22045  22606  0
22343  22341  22609  0
21753  22342  22610  0
21753  22610  22607  0
22338  22608  22044  0
22045  22344  22606  0
22342  22611  22610  0
22044  22608  22049  0
22343  22612  22345  0
22342  21757  22346  0
22342  22346  22613  0
22342  22613  22611  0
22047  22347  22344  0
22344  22347  22614  0
22345  22615  22054  0
22346  22351  22613  0
22348  22616  22057  0
22054  22615  22058  0
22352  22353  22617  0
22352  22617  22354  0
22351  22618  22613  0
22053  22619  22347  0
22058  22615  22620  0
22354  22617  22621  0
22354  22621  22622  0
22351  22056  22356  0
22351  22356  22623  0
22351  22623  22618  0
21767  22057  22357  0
22053  22358  22619  0
22065  22058  22620  0
22355  22359  22624  0
22355  22625  22353  0
22355  22624  22626  0
22355  22626  22625  0
22354  22622  22072  0
22354  22072  22063  0
22068  22627  22360  0
22358  22064  22628  0
22362  22065  22620  0
22359  22363  22624  0
22622  22629  22072  0
22360  22627  22630  0
22360  22630  22361  0
22361  22630  22628  0
22361  22628  22064  0
22363  22366  22631  0
22363  22631  22624  0
22629  22078  22072  0
22079  22632  22356  0
22366  22633  22631  0
22629  22634  22078  0
22090  22078  22634  0
22080  22632  22079  0
22069  22362  22635  0
22069  22635  22367  0
22633  22366  22370  0
22368  22370  22366  0
22634  22629  22636  0
22367  22635  22637  0
22373  22638  22633  0
22633  22370  22373  0
22634  22636  22639  0
22634  22640  22090  0
22091  22090  22640  0
22080  21795  22097  0
22374  22641  22638  0
22638  22373  22374  0
22634  22639  22640  0
22371  22091  22640  0
22367  22375  22369  0
22367  22637  22642  0
22367  22642  22375  0
22638  22641  22643  0
22640  22644  22371  0
22378  22645  22641  0
22645  22646  22641  0
22374  22378  22641  0
22372  22371  22644  0
22097  21814  22647  0
22648  22647  21814  0
22375  22642  22649  0
22375  22649  22377  0
21814  22107  22648  0
22645  22378  22650  0
22651  22650  22378  0
22372  22644  22652  0
22653  22648  22107  0
22377  22654  22381  0
22381  22654  22655  0
22384  22651  22378  0
22652  22380  22372  0
22656  22380  22652  0
22107  22108  22653  0
22381  22655  22383  0
22657  22383  22655  0
22383  22657  22113  0
22386  22113  22657  0
22651  22384  22658  0
22659  22658  22384  0
22660  22380  22656  0
22380  22660  22106  0
22111  22106  22660  0
22385  22661  22112  0
22108  22112  22661  0
22386  22662  21820  0
22389  21820  22662  0
22387  22659  22384  0
22388  22111  22660  0
22388  22663  22385  0
22661  22385  22663  0
21825  22390  22116  0
22664  22116  22390  0
22393  22665  22659  0
22659  22387  22393  0
22116  22664  22394  0
22665  22393  22395  0
22120  22394  22396  0
22665  22395  22666  0
22667  22666  22668  0
22666  22395  22668  0
22397  22668  22395  0
22397  22667  22668  0
22669  22398  22125  0
22670  22671  22667  0
22667  22397  22670  0
22400  22670  22397  0
22671  22670  22672  0
22400  22672  22670  0
22673  22402  22399  0
22674  22402  22673  0
22402  22674  22403  0
22675  22403  22674  0
22676  22403  22675  0
22403  22676  22405  0
22677  22405  22676  0
22405  22677  22131  0
22678  22131  22677  0
22131  22678  22132  0
22679  22132  22678  0
22672  22406  22680  0
22672  22400  22406  0
22132  22679  21842  0
21842  22679  21847  0
22140  21847  22679  0
22681  22682  22680  0
22672  22680  22682  0
22680  22406  22683  0
22680  22683  22681  0
22683  22684  22681  0
22406  22407  22683  0
22681  22684  22685  0
22684  22683  22686  0
22683  22407  22686  0
22407  22409  22686  0
21861  22687  22688  0
22148  21861  22688  0
21861  22140  22687  0
22686  22414  22689  0
22686  22689  22684  0
22686  22409  22414  0
22411  22148  22690  0
22411  22690  22691  0
22411  22691  22692  0
22411  22692  22416  0
22412  22413  22410  0
22410  22413  22144  0
22414  22415  22693  0
22414  22693  22689  0
22416  22694  21883  0
21883  22694  22155  0
22412  22421  22695  0
22412  22695  22413  0
22413  22695  22418  0
22426  22696  22415  0
22426  22415  22152  0
22155  22697  21884  0
21884  22697  22427  0
21885  22427  22698  0
21885  22698  21302  0
22428  22699  22421  0
22421  22699  22695  0
22695  22429  22418  0
22423  22434  22424  0
22424  22434  22425  0
22432  22700  22426  0
22432  22426  22154  0
21302  22698  22435  0
22699  22429  22695  0
22433  22701  22422  0
22422  22701  22434  0
22434  22701  22702  0
22425  22703  22432  0
22436  22704  22428  0
22428  22704  22705  0
22428  22705  22699  0
22699  22705  22437  0
22699  22437  22429  0
22437  22706  22433  0
22433  22706  22701  0
22701  22707  22702  0
22435  22708  22159  0
22437  22705  22709  0
22437  22709  22710  0
22437  22710  22706  0
22706  22710  22707  0
22706  22707  22701  0
22164  22439  22711  0
22439  22712  22711  0
22439  22440  22712  0
22438  22704  22436  0
22163  22164  22713  0
22164  22711  22713  0
22438  22445  22714  0
22167  22715  22716  0
22167  22716  22448  0
22167  22449  22715  0
22169  22161  22717  0
22161  22170  22717  0
22163  22713  22718  0
22163  22718  22450  0
22451  22719  22443  0
22456  22716  22720  0
22456  22448  22716  0
22717  22170  22721  0
22722  22721  22170  0
22170  22450  22722  0
22451  22457  22719  0
22453  22723  22445  0
22723  22714  22445  0
22460  22461  22724  0
22725  22724  22461  0
22461  22175  22725  0
22720  22725  22175  0
22175  22174  22720  0
22456  22720  22174  0
22726  22723  22453  0
22453  22452  22726  0
22452  22458  22726  0
22727  22726  22458  0
22458  22459  22727  0
22459  22454  22460  0
22459  22460  22727  0
22728  22457  22176  0
22462  22178  22729  0
22726  22727  22730  0
22176  22463  22728  0
22731  22728  22463  0
22465  22181  22464  0
22463  22466  22732  0
22466  22467  22732  0
22733  22732  22467  0
22183  22468  22467  0
22185  22734  21913  0
22468  22735  22467  0
22733  22467  22735  0
22468  22736  22735  0
22468  22469  22736  0
22737  22736  22469  0
22737  22469  22471  0
22738  22471  22470  0
21913  22739  22189  0
21634  22189  22739  0
22193  22740  22194  0
22741  22194  22740  0
22480  22740  22193  0
22194  22741  22195  0
22742  22196  22476  0
22473  22196  22742  0
21634  22739  22202  0
22206  22202  22739  0
22480  22193  21930  0
22475  22195  22741  0
22742  22476  22475  0
22474  22478  22200  0
22188  22477  22743  0
22479  22743  22477  0
22474  22744  22478  0
22481  22203  22478  0
22745  22479  22205  0
22205  21932  22745  0
22206  22746  21934  0
22484  22209  22747  0
21932  21937  22745  0
22487  21934  22746  0
22210  22211  22748  0
22749  22481  22750  0
22481  22749  22482  0
22211  22212  22751  0
22490  22212  21942  0
22486  22213  22752  0
22491  22753  22216  0
22490  22489  22495  0
22490  22495  22754  0
22755  22493  22756  0
22493  22755  22492  0
22757  22217  22216  0
22489  22218  22495  0
22497  22217  22757  0
22758  22497  22757  0
22759  22760  22761  0
22759  22761  22762  0
22497  22758  22763  0
22497  22763  22496  0
22498  22764  22499  0
22498  22228  22764  0
22500  22499  22765  0
22500  22765  22502  0
22502  22765  22766  0
22502  22766  22505  0
22494  22223  22767  0
22219  22492  22768  0
22219  22768  22508  0
22503  22769  22232  0
22503  22234  22769  0
22496  22763  22770  0
22228  22504  22771  0
22228  22771  22764  0
22505  22766  22506  0
22506  22766  22772  0
22506  22772  22507  0
22767  22223  22222  0
22767  22222  22773  0
22767  22773  22774  0
22767  22774  22494  0
22513  22515  22775  0
22515  22514  22776  0
22232  22769  22516  0
22234  22517  22769  0
22496  22770  22518  0
22229  22526  22504  0
22504  22526  22777  0
22504  22777  22778  0
22504  22778  22771  0
22777  22526  22527  0
22777  22527  22528  0
22777  22528  22779  0
22779  22528  22529  0
22779  22529  22780  0
22780  22529  22781  0
22507  22782  22520  0
22773  22222  22231  0
22773  22231  22783  0
22509  22784  22510  0
22510  22784  22511  0
22521  22513  22775  0
22521  22775  22785  0
22525  22786  22514  0
22525  22516  22786  0
22518  22787  22240  0
22518  22770  22787  0
22529  22264  22781  0
22781  22264  22788  0
22520  22782  22789  0
22783  22231  22530  0
22522  22521  22785  0
22522  22785  22790  0
22787  22791  22532  0
22530  22256  22792  0
22530  22792  22783  0
22243  22522  22790  0
22243  22790  22531  0
22235  21692  22268  0
22235  22268  22793  0
22793  22268  22537  0
22787  22532  22240  0
22264  22533  22788  0
22533  22794  22788  0
22520  22795  22272  0
22256  22534  22796  0
22256  22796  22792  0
22537  22269  22540  0
22272  22795  22538  0
22532  22791  22797  0
22532  22797  22541  0
22532  22541  22260  0
22542  22794  22533  0
22538  22795  22798  0
22538  22799  22275  0
22543  22275  22799  0
22538  22798  22799  0
22544  22800  22273  0
22273  22800  22534  0
22287  22801  22540  0
22797  22545  22541  0
22545  22802  22277  0
21980  22539  22276  0
22546  22276  22539  0
22801  22287  22552  0
22282  22803  22547  0
22282  22277  22803  0
22802  22803  22277  0
22804  22550  21985  0
22805  22804  21985  0
21985  21986  22805  0
21986  22284  22805  0
22546  22806  22551  0
22807  22801  22552  0
22552  22553  22807  0
22808  22807  22553  0
22803  22809  22547  0
22548  22291  22810  0
22811  22549  21991  0
21991  22550  22811  0
22812  22805  22284  0
22284  22554  22812  0
22281  22551  22294  0
22813  22294  22551  0
22553  22307  22808  0
22561  22808  22307  0
22814  22547  22809  0
22291  22555  22810  0
22815  22810  22555  0
22816  22292  22549  0
22293  22556  22554  0
22817  22294  22813  0
22547  22814  22302  0
22292  22816  22558  0
22818  22556  22559  0
22294  22817  22560  0
22819  22560  22817  0
22308  22562  22561  0
22814  22562  22309  0
22309  22302  22814  0
22555  22563  22815  0
22820  22815  22563  0
22564  22558  22821  0
22560  22819  22565  0
22315  22565  22819  0
22822  22567  22566  0
22823  22567  22822  0
22567  22824  22569  0
22567  22823  22824  0
22820  22563  22570  0
22564  22821  22571  0
22310  22576  22559  0
22825  22818  22559  0
22826  22827  22568  0
22828  22313  22569  0
22569  22824  22828  0
22829  22828  22824  0
22570  22830  22820  0
22831  22820  22830  0
22821  22572  22571  0
22832  22573  22572  0
22825  22559  22576  0
22833  22577  22578  0
22577  22834  22312  0
22312  22835  22016  0
22016  22835  22568  0
22826  22568  22835  0
22313  22828  22579  0
22836  22579  22828  0
22318  22581  22574  0
22837  22575  22574  0
22580  22838  22578  0
22833  22578  22838  0
22579  22836  22839  0
22585  22581  22025  0
22839  22584  22579  0
22840  22592  22319  0
22319  22582  22840  0
22582  22586  22840  0
22320  22589  22841  0
22320  22841  22588  0
22590  22842  22583  0
22324  22591  22590  0
22325  22592  22843  0
22325  22843  22585  0
22586  22587  22844  0
22586  22844  22845  0
22586  22845  22840  0
22587  22327  22844  0
22328  22588  22846  0
22328  22846  22593  0
22590  22591  22847  0
22593  22846  22848  0
22595  22593  22848  0
22594  22595  22849  0
22597  22850  22596  0
22333  22596  22851  0
22333  22851  22852  0
22333  22852  22599  0
22599  22853  22600  0
22599  22852  22853  0
22604  22854  22605  0
22604  22603  22855  0
22604  22855  22854  0
22597  22598  22856  0
22597  22856  22850  0
22600  22609  22341  0
22600  22857  22609  0
22600  22853  22857  0
22340  22607  22858  0
22340  22858  22859  0
22340  22859  22601  0
22340  22601  21751  0
22605  22860  22608  0
22605  22854  22860  0
22606  22861  22598  0
22607  22862  22858  0
22607  22610  22863  0
22607  22863  22862  0
22606  22344  22864  0
22606  22864  22861  0
22610  22611  22865  0
22610  22865  22863  0
22611  22866  22865  0
22049  22608  22348  0
22344  22614  22864  0
22864  22614  22867  0
22611  22613  22866  0
22348  22608  22868  0
22614  22347  22867  0
22345  22612  22615  0
22866  22613  22869  0
22866  22869  22870  0
22348  22868  22616  0
22869  22613  22618  0
22347  22619  22867  0
22353  22871  22617  0
22617  22871  22621  0
22618  22872  22869  0
22619  22358  22873  0
22620  22615  22874  0
22625  22875  22353  0
22353  22875  22871  0
22871  22876  22621  0
22618  22623  22872  0
22358  22628  22873  0
22620  22874  22362  0
22625  22626  22877  0
22878  22877  22626  0
22626  22624  22879  0
22621  22876  22880  0
22621  22880  22622  0
22622  22880  22881  0
22882  22872  22623  0
22068  22357  22883  0
22068  22883  22627  0
22626  22879  22884  0
22626  22884  22878  0
22631  22879  22624  0
22622  22636  22629  0
22623  22356  22882  0
22356  22632  22882  0
22885  22886  22884  0
22884  22879  22885  0
22633  22885  22879  0
22879  22631  22633  0
22622  22881  22636  0
22887  22882  22632  0
22362  22888  22635  0
22885  22889  22886  0
22884  22886  22890  0
22886  22889  22890  0
22891  22890  22889  0
22885  22633  22638  0
22632  22080  22887  0
22892  22887  22080  0
22080  22097  22892  0
22635  22888  22637  0
22893  22637  22888  0
22643  22894  22889  0
22894  22891  22889  0
22889  22885  22643  0
22638  22643  22885  0
22647  22892  22097  0
22643  22895  22894  0
22637  22893  22642  0
22895  22643  22646  0
22641  22646  22643  0
22895  22646  22896  0
22645  22896  22646  0
22639  22644  22640  0
22647  22648  22897  0
22642  22898  22649  0
22896  22645  22650  0
22654  22377  22649  0
22649  22899  22654  0
22896  22650  22900  0
22901  22900  22650  0
22902  22655  22654  0
22903  22655  22902  0
22904  22901  22650  0
22903  22657  22655  0
22905  22657  22903  0
22386  22657  22905  0
22905  22906  22386  0
22662  22386  22906  0
22650  22651  22904  0
22658  22904  22651  0
22108  22907  22653  0
22908  22909  22910  0
22911  22910  22909  0
22908  22912  22909  0
22913  22911  22909  0
22914  22911  22913  0
22658  22915  22904  0
22661  22907  22108  0
22916  22907  22661  0
22662  22917  22389  0
22910  22918  22908  0
22919  22908  22918  0
22914  22920  22911  0
22659  22921  22915  0
22915  22658  22659  0
22656  22922  22660  0
22923  22660  22922  0
22388  22660  22923  0
22924  22925  22390  0
22390  22925  22664  0
22390  22391  22924  0
22391  22117  22924  0
22926  22924  22117  0
22117  22392  22926  0
22917  22926  22392  0
22392  22389  22917  0
22918  22910  22927  0
22928  22927  22910  0
22918  22927  22929  0
22910  22911  22928  0
22920  22928  22911  0
22930  22920  22914  0
22914  22921  22931  0
22914  22931  22930  0
22914  22932  22921  0
22921  22665  22931  0
22921  22659  22665  0
22923  22933  22388  0
22388  22933  22934  0
22388  22934  22663  0
22663  22934  22935  0
22664  22936  22937  0
22664  22937  22394  0
22927  22928  22938  0
22927  22938  22939  0
22927  22939  22929  0
22928  22920  22940  0
22931  22941  22930  0
22931  22665  22666  0
22394  22937  22396  0
22928  22940  22942  0
22928  22942  22938  0
22920  22930  22940  0
22931  22666  22941  0
22938  22942  22943  0
22930  22944  22940  0
22930  22941  22944  0
22941  22667  22944  0
22941  22666  22667  0
22942  22945  22943  0
22942  22940  22946  0
22942  22946  22945  0
22940  22944  22946  0
22125  22123  22669  0
22945  22946  22947  0
22945  22947  22948  0
22944  22667  22671  0
22398  22669  22949  0
22398  22949  22399  0
22948  22950  22945  0
22946  22682  22947  0
22946  22944  22682  0
22944  22671  22672  0
22944  22672  22682  0
22399  22949  22673  0
22675  22674  22676  0
22948  22947  22951  0
22951  22947  22952  0
22947  22682  22681  0
22947  22681  22952  0
22140  22679  22953  0
22952  22681  22954  0
22681  22685  22954  0
22687  22140  22953  0
22952  22954  22955  0
22685  22684  22956  0
22688  22690  22148  0
22688  22687  22957  0
22954  22685  22956  0
22956  22684  22689  0
22956  22689  22958  0
22691  22959  22692  0
22958  22689  22960  0
22689  22693  22960  0
22692  22959  22694  0
22692  22694  22416  0
22693  22415  22696  0
22694  22961  22962  0
22694  22962  22155  0
22697  22963  22427  0
22697  22964  22963  0
22696  22426  22965  0
22696  22965  22693  0
22427  22963  22698  0
22700  22965  22426  0
22703  22434  22702  0
22434  22703  22425  0
22703  22700  22432  0
22707  22966  22702  0
22702  22966  22967  0
22702  22967  22703  0
22707  22968  22966  0
22969  22711  22712  0
22712  22440  22970  0
22971  22704  22438  0
22704  22971  22705  0
22972  22705  22971  0
22705  22972  22709  0
22709  22972  22710  0
