#!ascii file
24306  24568  24571  0
24572  24306  24571  0
24310  24059  24573  0
24310  24573  24574  0
24310  24574  24562  0
24308  24309  24575  0
24308  24575  24311  0
24309  24306  24572  0
24309  24572  24575  0
24573  24059  24576  0
24573  24576  24574  0
24059  24312  24577  0
24059  24577  24576  0
24313  24311  24578  0
24311  24575  24579  0
24311  24579  24578  0
24575  24580  24579  0
24313  24578  23762  0
24579  24580  24581  0
24312  24062  24582  0
23762  24578  24314  0
24578  24579  24315  0
24578  24315  24314  0
24579  24581  24583  0
24579  24583  24315  0
24582  24062  24584  0
24585  24586  24587  0
24585  24587  24588  0
24587  24589  24588  0
24315  24583  24590  0
24315  24590  24316  0
24316  24590  24317  0
24063  24584  24062  0
24320  24591  24592  0
24591  24593  24592  0
24591  24320  24586  0
24321  24586  24320  0
24585  24591  24586  0
24594  24587  24586  0
24587  24594  24595  0
24595  24594  24596  0
24597  24596  24594  0
24317  24590  24318  0
24598  24584  24063  0
24063  24070  24598  0
24599  24319  24592  0
24592  24319  24320  0
24600  24586  24321  0
24586  24600  24594  0
24601  24594  24600  0
24594  24601  24597  0
24602  24597  24601  0
24318  24590  24323  0
24601  24603  24602  0
24601  24600  24603  0
24322  24323  24604  0
24322  24604  24324  0
24328  24327  24605  0
24328  24605  24329  0
24329  24605  24606  0
24329  24606  24075  0
24075  24606  24607  0
24075  24607  24076  0
24076  24607  24330  0
24332  24331  23766  0
24319  24599  24608  0
24319  24608  24333  0
24321  24334  24600  0
24600  24334  24603  0
24609  24603  24334  0
24324  24604  24610  0
24324  24610  24079  0
24335  24611  24612  0
24335  24612  24336  0
24335  24337  24611  0
23464  24081  24070  0
24333  24608  24338  0
24334  24343  24609  0
24079  24610  24613  0
24079  24613  24339  0
24345  24337  24086  0
24614  24337  24345  0
24082  24331  24615  0
24082  24615  24340  0
24338  24608  24616  0
24343  24350  24609  0
24617  24609  24350  0
24617  24344  24339  0
24617  24339  24618  0
24613  24618  24339  0
24345  24346  24614  0
24619  24614  24346  0
24347  24620  24355  0
24620  24621  24355  0
24620  24347  24622  0
24347  24348  24622  0
24623  24622  24348  0
24348  24349  24623  0
24350  24351  24344  0
24353  24344  24351  0
24350  24344  24617  0
24346  24354  24619  0
24624  24619  24354  0
24354  24355  24624  0
24621  24624  24355  0
24341  24356  24625  0
24091  24342  24626  0
24091  24626  24357  0
24099  24340  24627  0
23807  24357  24628  0
24357  24626  24629  0
24357  24629  24628  0
24630  24358  24359  0
24631  24101  24099  0
24099  24627  24631  0
23807  24628  24632  0
23807  24632  24102  0
24630  24359  24361  0
24101  24631  24104  0
24356  24360  24633  0
24102  24632  24105  0
24361  24362  24634  0
24361  24634  24630  0
24104  24631  24635  0
24104  24635  24363  0
24636  24633  24360  0
23816  24363  24108  0
24637  24108  24363  0
24637  24365  24108  0
24360  24109  24636  0
24365  24366  24107  0
24638  24639  24640  0
24641  24640  24639  0
24638  24642  24639  0
24640  24643  24644  0
24640  24644  24638  0
24640  24641  24643  0
24645  24643  24641  0
24643  24646  24647  0
24643  24647  24644  0
24643  24645  24646  0
24648  24646  24645  0
24649  24646  24648  0
24650  24646  24649  0
24644  24647  24651  0
24647  24646  24650  0
24647  24652  24651  0
24653  23824  24114  0
24114  24115  24654  0
23824  24653  24116  0
24655  24116  24653  0
24116  24655  24118  0
24118  24655  24368  0
24115  24370  24656  0
24115  24656  24654  0
24657  24119  24368  0
24119  24657  24371  0
24658  24371  24657  0
24369  24372  24659  0
24369  24659  24370  0
24371  24658  24373  0
24375  24373  24658  0
24374  24660  24372  0
24374  24124  24660  0
24661  24662  24377  0
24661  24377  24378  0
24662  24663  24377  0
24375  24664  24376  0
24665  24376  24664  0
24379  24666  24378  0
24379  24381  24667  0
24379  24667  24666  0
24377  24663  24383  0
24377  24383  24131  0
24383  24380  24133  0
24383  24663  24380  0
24380  24668  24124  0
24381  24382  24667  0
24669  24376  24665  0
24132  24386  24384  0
24384  24670  24382  0
24376  24669  24387  0
24671  24388  24672  0
24388  24397  24672  0
24388  24671  24389  0
24673  24389  24671  0
24389  24673  24390  0
24386  24674  24384  0
24670  24384  24674  0
24386  24396  24674  0
24675  24387  24669  0
24397  24398  24676  0
24397  24676  24672  0
24390  24677  24399  0
24678  24399  24677  0
24403  24679  24405  0
24405  24679  24406  0
24396  24147  24680  0
24396  24680  24674  0
24680  24147  24412  0
24680  24412  24681  0
24680  24681  24682  0
24680  24682  24674  0
24399  24678  24407  0
24683  24407  24678  0
24403  24404  24684  0
24403  24684  24679  0
24679  24684  24685  0
24679  24685  24406  0
24406  24685  24411  0
24412  24413  24681  0
24413  24686  24681  0
24413  24414  24686  0
24414  24687  24686  0
24414  24157  24687  0
24387  24675  24148  0
24424  24148  24675  0
24676  24398  24415  0
24407  24683  24416  0
24404  24410  24688  0
24404  24688  24684  0
24684  24688  24689  0
24684  24689  24685  0
24685  24689  24690  0
24685  24690  24411  0
24411  24690  24422  0
24411  24422  24420  0
24419  24691  24410  0
24410  24691  24688  0
24688  24692  24689  0
24688  24691  24693  0
24688  24693  24692  0
24694  24423  24422  0
24419  24429  24695  0
24419  24695  24691  0
24423  24694  24431  0
24696  24431  24694  0
24415  24432  24697  0
24415  24697  24698  0
24427  24699  24433  0
24691  24695  24700  0
24431  24701  24430  0
24431  24696  24701  0
24157  24435  24687  0
24425  24702  24160  0
24160  24702  24703  0
24433  24699  24438  0
24429  24440  24704  0
24429  24704  24695  0
24695  24704  24700  0
24430  24701  24441  0
24430  24441  24434  0
24701  24705  24441  0
24160  24703  23880  0
24451  24704  24440  0
24704  24451  24706  0
24707  24706  24451  0
24441  24708  24442  0
24441  24705  24708  0
24709  24710  24711  0
24709  24711  24712  0
24709  24713  24710  0
24710  24443  24711  0
24710  24437  24443  0
24710  24713  24437  0
24437  24713  24435  0
24432  23885  24697  0
24714  24697  23885  0
24440  24444  24451  0
24715  24442  24708  0
24708  24716  24717  0
24708  24717  24715  0
24712  24718  24709  0
24446  24711  24443  0
23880  24703  24448  0
24439  24438  24719  0
24451  24452  24707  0
24442  24715  24169  0
24715  24717  24720  0
24721  24722  24723  0
24724  24723  24712  0
24723  24722  24718  0
24723  24718  24712  0
24712  24711  24724  0
24725  24724  24711  0
24726  24725  24711  0
24711  24446  24726  0
24447  24726  24446  0
23885  23887  24714  0
24727  24714  23887  0
24445  24439  24719  0
24707  24452  24728  0
24707  24728  24729  0
24730  24729  24728  0
24458  24169  24715  0
24715  24720  24458  0
24731  24721  24723  0
24723  24732  24731  0
24723  24724  24732  0
24733  24732  24724  0
24724  24725  24733  0
24462  24725  24726  0
24726  24447  24462  0
24453  24462  24447  0
23886  24448  23887  0
23887  24448  24734  0
23887  24734  24727  0
24460  24445  24719  0
24445  24460  24454  0
24452  24455  24728  0
24169  24458  24170  0
24735  24731  24732  0
24732  24733  24735  0
24736  24735  24733  0
24737  24733  24725  0
24725  24462  24737  0
23257  24462  24453  0
24455  24738  24728  0
24728  24738  24730  0
24733  24737  24739  0
24733  24739  24736  0
24740  24736  24739  0
24461  24739  24737  0
24737  24462  24461  0
24460  24741  24456  0
24460  24742  24741  0
24455  24457  24738  0
24739  24461  24464  0
24739  24464  24740  0
24743  24456  24741  0
24456  24743  24457  0
24744  24457  24743  0
24457  24744  24738  0
24738  24744  24745  0
24464  23892  24740  0
24746  24740  23892  0
24741  24747  24743  0
24748  24744  24743  0
24743  24747  24748  0
24467  24746  23892  0
24463  24749  24173  0
24173  24749  24750  0
24175  24466  24465  0
24465  24751  23588  0
23588  24751  24467  0
24752  24174  24173  0
24173  24750  24752  0
24466  24753  24465  0
24174  24752  24468  0
24468  24752  24471  0
24754  24471  24752  0
24752  24755  24754  0
24756  24754  24755  0
24470  24471  24757  0
24754  24757  24471  0
24472  23901  24758  0
24473  24758  23901  0
24473  24474  24759  0
24474  24181  24475  0
24470  24757  24476  0
24757  24754  24760  0
24182  24761  24479  0
23902  24762  23607  0
24763  23607  24762  0
24478  23607  24763  0
24485  24187  24477  0
24187  24485  23906  0
24764  24486  24485  0
24484  23628  24489  0
24199  24765  24488  0
24766  24488  24765  0
24767  24488  24766  0
24486  24768  24492  0
24491  24220  24769  0
24770  24488  24767  0
24220  24771  24769  0
24220  24222  24494  0
24220  24494  24771  0
24490  24488  24770  0
24490  24770  24219  0
24495  24226  24228  0
24772  24496  24221  0
24219  24770  24773  0
24219  24773  24497  0
24770  24774  24773  0
24228  24229  24499  0
24228  24499  24775  0
24228  24775  24495  0
24775  24499  24776  0
24777  24497  24773  0
24499  24231  24778  0
24499  24778  24779  0
24499  24779  24780  0
24499  24780  24776  0
24781  24227  24498  0
24227  24781  24233  0
24224  24497  24500  0
24497  24777  24500  0
24231  24504  24782  0
24231  24782  24778  0
24233  24783  24502  0
24500  24777  24501  0
24784  24501  24777  0
24504  24505  24782  0
24782  24505  24508  0
24782  24508  24785  0
24782  24785  24778  0
24785  24508  24786  0
24785  24786  24787  0
24785  24787  24778  0
24786  24508  24507  0
24786  24507  24788  0
24786  24788  24789  0
24788  24507  24509  0
24788  24509  24510  0
24788  24790  24789  0
24502  24791  24512  0
24502  24512  23968  0
24505  24237  24508  0
24508  24237  24506  0
24510  24792  24788  0
24512  24793  24513  0
24512  24513  24234  0
24512  24791  24794  0
24512  24794  24793  0
24793  24794  24795  0
24793  24795  24513  0
23678  24796  24493  0
24511  24240  24797  0
24511  24797  24798  0
24511  24798  24510  0
24513  24795  24799  0
24513  24799  24235  0
23678  23978  24796  0
24503  24800  24514  0
24514  24800  24801  0
24514  24801  24515  0
24240  24235  24797  0
24799  24797  24235  0
24515  24801  24802  0
24803  24796  23978  0
24515  24802  24804  0
24515  24804  24516  0
23978  23985  24805  0
24243  24517  24806  0
24243  24806  24518  0
24807  24805  23985  0
24244  24808  24245  0
24809  24519  24522  0
24519  24809  24520  0
23985  22095  24810  0
24522  24523  24811  0
24522  24811  24809  0
24520  24812  24250  0
24251  24250  24812  0
24520  24809  24813  0
24520  24813  24812  0
24249  24525  24523  0
24814  24810  22095  0
24524  24251  24815  0
24524  24815  24816  0
24524  24816  24258  0
24258  24816  24817  0
24258  24817  24526  0
24818  24814  22095  0
24003  24262  24531  0
24531  24819  24253  0
24253  24819  24525  0
24527  24526  24820  0
24527  24820  24528  0
24528  24821  24532  0
24263  24532  24821  0
24528  24822  24821  0
22095  23712  24818  0
24007  24533  24823  0
24007  24823  24262  0
24263  24821  24824  0
24263  24824  24268  0
24530  24272  23713  0
24533  24825  24826  0
24533  24270  24825  0
24827  24825  24270  0
24271  24011  24828  0
24011  24264  24828  0
24829  24828  24264  0
24264  24534  24829  0
24830  24534  24535  0
24831  24830  24535  0
24535  24536  24831  0
24537  24831  24536  0
24541  24538  24832  0
24833  24832  24538  0
24538  24539  24833  0
24542  24833  24539  0
24542  24268  24824  0
23712  24269  24818  0
24272  24530  24834  0
24272  24834  24276  0
24543  24827  24270  0
24835  24540  24271  0
24836  24284  24275  0
24837  24836  24275  0
24275  24544  24838  0
24839  24838  24544  0
24275  24838  24837  0
24840  24837  24838  0
24544  24545  24839  0
24284  24836  24841  0
24838  24839  24840  0
24842  24840  24839  0
24839  24545  24842  0
24545  24546  24842  0
24843  24842  24546  0
24546  24279  24844  0
24547  24844  24279  0
24276  24834  24286  0
24543  24549  24845  0
24846  24845  24549  0
24024  24540  24295  0
24551  24289  24847  0
24284  24841  23737  0
24546  24844  24843  0
24848  24843  24844  0
24849  24844  24547  0
24553  24849  24547  0
24548  24282  24549  0
24846  24549  24282  0
24024  24295  24287  0
24289  24554  24847  0
24557  24554  24039  0
24844  24849  24848  0
24850  24848  24849  0
24555  24849  24553  0
24282  24556  24846  0
24849  24555  24850  0
24851  24850  24555  0
24555  24291  24851  0
24852  24560  24286  0
24556  24297  24853  0
24556  24853  24846  0
24854  24298  24295  0
24557  24558  24855  0
24558  24856  24855  0
24558  24559  24856  0
24291  24294  24851  0
24560  24852  24297  0
24857  24297  24852  0
24297  24857  24858  0
24859  24298  24854  0
24561  24565  24860  0
24561  24860  24567  0
24567  24861  24568  0
24567  24860  24861  0
24298  24859  24563  0
24569  24862  24570  0
24566  24863  24565  0
24566  24570  24864  0
24566  24864  24863  0
24565  24863  24860  0
24865  24571  24568  0
24866  24569  24563  0
24862  24569  24866  0
24862  24867  24570  0
24864  24570  24867  0
24572  24571  24865  0
24574  24576  24868  0
24576  24577  24869  0
24576  24869  24868  0
24575  24572  24580  0
24572  24865  24870  0
24572  24870  24871  0
24572  24871  24580  0
24872  24580  24871  0
24577  24312  24873  0
24577  24873  24874  0
24577  24874  24869  0
24580  24872  24581  0
24873  24312  24582  0
24873  24875  24874  0
24876  24588  24589  0
24876  24589  24877  0
24876  24877  24878  0
24876  24878  24879  0
24878  24877  24583  0
24878  24583  24581  0
24873  24582  24880  0
24873  24880  24875  0
24881  24593  24591  0
24881  24591  24585  0
24881  24585  24882  0
24585  24588  24882  0
24589  24587  24595  0
24589  24595  24596  0
24589  24596  24877  0
24877  24596  24883  0
24877  24883  24583  0
24583  24883  24884  0
24583  24884  24590  0
24880  24582  24885  0
24582  24886  24885  0
24582  24584  24886  0
24596  24597  24887  0
24596  24887  24883  0
24883  24887  24888  0
24883  24888  24884  0
24884  24888  24590  0
24886  24584  24070  0
24886  24070  24885  0
24584  24598  24070  0
24599  24592  24889  0
24890  24599  24889  0
24597  24602  24891  0
24597  24891  24887  0
24887  24891  24604  0
24887  24604  24888  0
24888  24604  24323  0
24888  24323  24590  0
24892  24607  24606  0
24893  24892  24894  0
24892  24893  24607  0
24895  24607  24893  0
24608  24599  24890  0
24603  24896  24602  0
24602  24896  24897  0
24602  24897  24891  0
24891  24897  24604  0
24326  24898  24327  0
24899  24327  24898  0
24327  24899  24605  0
24900  24605  24899  0
24605  24900  24606  0
24892  24606  24900  0
24607  24895  24330  0
24895  24081  24330  0
24895  24885  24081  0
24885  24070  24081  0
24603  24609  24896  0
24896  24618  24897  0
24897  24618  24610  0
24897  24610  24604  0
24612  24901  24336  0
24612  24611  24902  0
24612  24902  24901  0
24896  24609  24618  0
24618  24613  24610  0
24337  24614  24903  0
24337  24903  24611  0
24611  24903  24904  0
24611  24904  24902  0
24331  24332  24905  0
24331  24905  24615  0
24332  24083  24905  0
24906  24616  24608  0
24609  24617  24618  0
24614  24619  24903  0
24903  24619  24904  0
24907  24904  24619  0
24622  24623  24908  0
24909  24340  24615  0
24615  24905  24909  0
24083  24341  24905  0
24625  24905  24341  0
24338  24616  24342  0
24619  24624  24907  0
24910  24907  24624  0
24624  24621  24910  0
24095  24623  24349  0
24911  24908  24623  0
24340  24909  24912  0
24342  24616  24626  0
24623  24095  24911  0
24095  24358  24911  0
24340  24912  24627  0
24625  24356  24913  0
24626  24914  24629  0
24626  24915  24914  0
24358  24630  24911  0
24916  24911  24630  0
24917  24632  24628  0
24628  24629  24917  0
24630  24634  24916  0
24918  24916  24634  0
24362  24364  24634  0
24919  24634  24364  0
24634  24919  24918  0
24631  24920  24635  0
24633  24636  24921  0
24364  24922  24919  0
24364  24366  24922  0
24363  24635  24637  0
24923  24637  24635  0
24923  24635  24924  0
24925  24366  24365  0
24365  24637  24925  0
24924  24637  24923  0
24926  24927  24639  0
24641  24639  24927  0
24926  24639  24928  0
24929  24928  24639  0
24927  24645  24641  0
24927  24926  24930  0
24927  24930  24645  0
24645  24930  24931  0
24645  24931  24648  0
24649  24648  24932  0
24648  24931  24933  0
24648  24933  24932  0
24639  24642  24929  0
24649  24934  24650  0
24649  24932  24935  0
24649  24935  24934  0
24934  24935  24936  0
24934  24936  24650  0
24937  24642  24638  0
24638  24644  24937  0
24651  24937  24644  0
24647  24650  24652  0
24650  24938  24652  0
24651  24652  24939  0
24655  24940  24368  0
24368  24940  24657  0
24941  24656  24370  0
24657  24942  24658  0
24370  24659  24941  0
24658  24942  24943  0
24944  24659  24372  0
24658  24943  24375  0
24372  24660  24944  0
24375  24943  24664  0
24945  24662  24661  0
24945  24661  24946  0
24666  24946  24661  0
24662  24945  24947  0
24662  24947  24663  0
24378  24666  24661  0
24667  24948  24666  0
24663  24947  24949  0
24380  24663  24949  0
24949  24950  24380  0
24668  24660  24124  0
24380  24950  24668  0
24951  24665  24664  0
24667  24382  24952  0
24665  24951  24669  0
24953  24673  24671  0
24953  24671  24672  0
24382  24670  24954  0
24382  24954  24952  0
24673  24677  24390  0
24670  24674  24682  0
24670  24682  24955  0
24670  24955  24954  0
24955  24682  24956  0
24672  24676  24957  0
24682  24681  24958  0
24682  24958  24959  0
24682  24959  24956  0
24958  24681  24686  0
24958  24686  24960  0
24958  24960  24961  0
24676  24962  24957  0
24686  24687  24960  0
24687  24963  24960  0
24675  24964  24424  0
24415  24698  24676  0
24676  24698  24962  0
24687  24965  24963  0
24702  24424  24964  0
24698  24966  24967  0
24698  24967  24962  0
24689  24692  24968  0
24689  24968  24690  0
24690  24968  24694  0
24690  24694  24422  0
24424  24702  24425  0
24698  24969  24966  0
24692  24693  24970  0
24692  24970  24968  0
24968  24970  24971  0
24968  24971  24694  0
24694  24971  24696  0
24698  24697  24969  0
24691  24700  24972  0
24691  24972  24693  0
24696  24971  24701  0
24973  24703  24702  0
24697  24974  24969  0
24693  24972  24975  0
24693  24975  24970  0
24971  24970  24705  0
24971  24705  24701  0
24704  24706  24700  0
24700  24706  24976  0
24700  24976  24972  0
24972  24976  24977  0
24972  24977  24975  0
24978  24705  24970  0
24970  24975  24979  0
24705  24978  24716  0
24705  24716  24708  0
24980  24981  24718  0
24981  24709  24718  0
24709  24981  24713  0
24982  24713  24981  0
24983  24713  24982  0
24713  24983  24435  0
24984  24435  24983  0
24435  24984  24687  0
24965  24687  24984  0
24985  24703  24973  0
24697  24714  24974  0
24706  24707  24729  0
24706  24729  24976  0
24986  24716  24978  0
24716  24986  24717  0
24987  24717  24986  0
24722  24988  24718  0
24980  24718  24988  0
24703  24985  24448  0
24438  24989  24719  0
24729  24990  24976  0
24991  24717  24987  0
24721  24992  24722  0
24729  24730  24990  0
24717  24991  24720  0
24993  24720  24991  0
24721  24731  24992  0
24990  24730  24994  0
24990  24994  24995  0
24731  24735  24996  0
24735  24736  24997  0
24742  24460  24719  0
24738  24745  24730  0
24458  24720  24998  0
24720  24993  24998  0
24999  24998  24993  0
24736  24740  24997  0
24745  24994  24730  0
24458  24998  24459  0
25000  24997  24740  0
24742  25001  24741  0
25002  24745  24744  0
25003  24745  25002  0
24459  24998  24463  0
24998  24999  25004  0
24998  25004  24463  0
24746  25000  24740  0
24748  25005  24744  0
24744  25005  25002  0
24463  25004  24749  0
24747  25006  24748  0
24747  25007  25006  0
24748  25006  25005  0
25008  25005  25006  0
25005  25008  25009  0
25005  25009  25002  0
24465  24753  24751  0
24750  25010  24752  0
25011  24752  25010  0
24466  24469  24753  0
25012  24753  24469  0
24753  25012  25013  0
24753  25013  24751  0
24752  25011  24755  0
24469  25014  25012  0
24469  24179  25014  0
25015  25014  24179  0
24179  24472  25015  0
25016  25015  24472  0
24754  24756  24760  0
24756  24755  25017  0
24756  25017  25018  0
24472  24758  25016  0
24758  24473  25019  0
24473  24759  25019  0
25018  24757  24760  0
24760  24756  25018  0
24474  24475  25020  0
25021  25020  24475  0
25022  24476  24757  0
24757  25018  25022  0
25021  24475  24478  0
25022  24477  24476  0
25022  25018  25023  0
25024  24479  24761  0
24479  25024  23902  0
24762  23902  25024  0
24478  24763  25021  0
24485  24477  25022  0
25022  25023  24485  0
24761  24182  25025  0
24186  25025  24182  0
24762  25024  25026  0
24762  25026  24763  0
24763  25026  25027  0
24485  25023  24764  0
25028  25025  24186  0
25029  24199  24200  0
24200  24483  25029  0
24199  25030  24765  0
25031  25029  24483  0
24483  24484  25031  0
25030  25032  24765  0
25031  24484  25033  0
24484  24489  25033  0
24765  25032  24766  0
24491  24489  23928  0
24766  25032  25034  0
24766  25034  24767  0
24489  24491  25035  0
25036  25035  24491  0
24769  25036  24491  0
24767  25037  24770  0
25038  25036  24769  0
24771  25039  24769  0
24769  25039  25038  0
24768  25040  24492  0
24774  24770  25037  0
24492  25040  24221  0
24772  24221  25040  0
24209  24493  25041  0
24209  25041  25042  0
24494  24495  25043  0
24772  25044  24496  0
24774  25045  24773  0
24496  25044  24498  0
25046  24498  25044  0
24498  25046  24781  0
24773  25045  25047  0
24773  25047  24777  0
24781  24783  24233  0
24781  25048  24783  0
25049  24783  25048  0
24779  24778  24787  0
24779  24787  25050  0
24787  25051  25050  0
25051  24787  24786  0
25051  24786  24789  0
25051  24789  25052  0
25052  24789  24790  0
24783  25049  24791  0
24783  24791  24502  0
25049  25053  24791  0
25054  24791  25053  0
24777  25047  25055  0
24777  25055  24784  0
24790  24788  24792  0
24790  24792  25056  0
24791  25054  24794  0
25057  24794  25054  0
24493  24796  25041  0
25058  24784  25055  0
24792  24510  24798  0
24792  24798  25059  0
24792  25059  25056  0
24794  25057  24795  0
25060  24795  25057  0
24501  24784  24800  0
24501  24800  24503  0
24784  25058  24800  0
24798  24797  24799  0
24798  24799  25061  0
24798  25061  25059  0
24799  24795  25060  0
24799  25060  25061  0
24800  25058  24801  0
25062  24801  25058  0
24801  25062  24802  0
25063  24802  25062  0
24796  24803  25064  0
24802  25063  24804  0
25065  24804  25063  0
23978  24805  25066  0
23978  25066  24803  0
24804  25065  24516  0
25067  24516  25065  0
24516  25068  24517  0
24516  25067  25068  0
25069  24517  25068  0
24517  25069  24806  0
24808  24244  24518  0
23985  24810  24807  0
24523  24525  25070  0
24812  25071  24815  0
24812  24815  24251  0
24812  24813  25071  0
25072  24521  24245  0
25070  24525  25073  0
24525  24819  25073  0
24818  25074  24814  0
25075  24526  24817  0
24526  25075  24820  0
25076  24820  25075  0
24820  25077  24822  0
24820  24822  24528  0
24820  25076  25077  0
24818  25078  25074  0
24533  24826  24823  0
24823  25079  24262  0
24262  25079  24531  0
25080  24531  25079  0
24819  24531  25080  0
25081  24822  25077  0
24822  24824  24821  0
24822  25081  24824  0
25082  24530  24521  0
24826  24825  25083  0
24537  24541  25084  0
24537  25084  24831  0
24541  24832  25085  0
24541  25085  25084  0
24832  24833  25085  0
24833  24542  25086  0
24833  25086  25085  0
24542  24824  25081  0
24542  25081  25086  0
24530  25082  24834  0
24543  24845  24827  0
24827  25087  24825  0
25083  24825  25087  0
25088  25087  24827  0
24271  24828  24835  0
24828  25089  24835  0
24269  24273  24818  0
25078  24818  24273  0
25090  24540  24835  0
24273  24277  25078  0
25091  25078  24277  0
24836  24837  25092  0
25093  25092  24837  0
24837  24840  25093  0
25094  25093  24840  0
24834  25095  24286  0
24845  25096  25088  0
24845  25088  24827  0
24845  24846  25096  0
24540  25090  24295  0
24550  25091  24277  0
24840  24842  25094  0
25097  25094  24842  0
24842  24843  25097  0
25098  25097  24843  0
25099  25098  24843  0
25100  24550  24283  0
24283  24552  25100  0
24847  24554  25101  0
24554  24557  25101  0
24843  24848  25099  0
25102  25099  24848  0
24848  24850  25102  0
25103  25102  24850  0
24295  25090  24854  0
24557  25104  25101  0
24559  23737  25105  0
24850  24851  25103  0
25106  25103  24851  0
24574  25106  24851  0
24851  24562  24574  0
24851  24294  24562  0
24297  24858  24853  0
25107  25104  24557  0
24557  24855  25107  0
24854  25108  25109  0
24854  25109  24859  0
25110  24858  24857  0
25111  24863  24864  0
24863  25112  24860  0
24863  25111  25112  0
24860  25112  24861  0
24568  24870  24865  0
24857  25113  25110  0
24866  24563  24859  0
24867  24862  24866  0
24867  25114  24864  0
24864  25114  25111  0
24869  25115  24868  0
24859  25116  24866  0
24866  25117  24867  0
24871  24870  25118  0
24871  25118  25119  0
24871  25119  24872  0
25120  25115  24869  0
24869  24874  25120  0
25121  25120  24874  0
25119  25122  24879  0
24879  24878  24872  0
24581  24872  24878  0
24879  24872  25119  0
24874  24875  25121  0
25123  25121  24875  0
24588  24876  25124  0
24876  24879  25124  0
25122  25124  24879  0
25125  25126  25123  0
25125  25123  24875  0
25127  25126  25125  0
24882  24588  25124  0
25125  24875  25128  0
24880  25128  24875  0
25125  25128  25127  0
25129  25127  25128  0
25128  24880  24893  0
24885  24893  24880  0
25128  24893  25129  0
24894  25129  24893  0
24892  24900  24894  0
24894  24900  25130  0
24893  24885  24895  0
25131  24899  24898  0
24899  25131  24900  0
25130  24900  25131  0
25132  24336  24901  0
24901  24902  25133  0
24336  25132  24326  0
24898  24326  25132  0
24902  24904  25134  0
24902  25134  25133  0
24904  24907  25135  0
24904  25135  25134  0
24622  24908  24620  0
24905  24625  24909  0
24907  24910  25136  0
24907  25136  25135  0
24910  24621  25137  0
24910  25137  25136  0
24621  24620  25138  0
24621  25138  25137  0
24620  24908  25139  0
24620  25139  25138  0
24909  24625  24913  0
24616  24906  24626  0
24915  24626  24906  0
24911  24916  25140  0
24912  24909  25141  0
24909  24913  25142  0
24909  25142  25141  0
24913  24356  24633  0
24913  24633  25142  0
24915  25143  24914  0
25144  24914  25143  0
24633  24921  25142  0
24917  25145  24632  0
24917  24629  25146  0
24917  25146  25145  0
24629  24914  25144  0
24629  25144  25146  0
24631  24627  25147  0
24627  24912  25147  0
24912  25141  25147  0
24632  25145  25148  0
24919  24922  25149  0
24919  25149  24918  0
25147  25150  24631  0
24366  24925  24922  0
24922  24925  25151  0
24922  25151  25149  0
24635  24920  25152  0
24635  25152  24924  0
24631  25150  24920  0
24925  24637  25153  0
24925  25153  25154  0
24925  25154  25151  0
24637  24924  25155  0
24924  25152  25156  0
24924  25156  25155  0
24920  25150  25157  0
24920  25157  25152  0
25150  25158  25157  0
25159  25157  25158  0
25153  24637  25160  0
25153  25161  25154  0
24637  25155  24930  0
24637  24930  25160  0
25156  25152  25162  0
25156  25162  25155  0
25152  25157  25163  0
25152  25163  25162  0
25157  25159  25164  0
25157  25164  25163  0
25153  25160  24928  0
25153  24928  25165  0
25153  25165  25166  0
25153  25166  25161  0
25160  24930  24926  0
25160  24926  24928  0
25155  25162  24931  0
25155  24931  24930  0
25162  25163  24933  0
25162  24933  24931  0
25163  25164  25167  0
25163  25167  24933  0
25168  25167  25164  0
25165  24928  24929  0
25165  24929  25169  0
25165  25169  25166  0
24933  25167  24935  0
24933  24935  24932  0
25167  25168  24935  0
25170  24935  25168  0
24929  24642  25171  0
24929  25171  25169  0
24935  25170  24936  0
25172  24936  25170  0
24642  24937  25171  0
24937  24651  25173  0
24650  24936  24938  0
24936  25172  24938  0
24651  24939  25173  0
24652  24938  25174  0
24652  25174  24939  0
25175  25176  25177  0
25178  25176  25175  0
25179  24114  24654  0
24114  25179  24653  0
24664  24943  25180  0
25181  24946  24948  0
24666  24948  24946  0
24946  25181  25182  0
24946  25182  24945  0
24945  25182  25183  0
24945  25183  24947  0
24947  25183  25184  0
24947  25184  25185  0
24947  25185  24949  0
24948  24667  25186  0
25187  25186  24667  0
24949  25185  24950  0
24660  25188  25189  0
24660  24668  25188  0
24950  25188  24668  0
25180  24951  24664  0
24667  24952  25187  0
25190  25187  24952  0
24669  24951  25191  0
24669  25191  24675  0
24953  25192  25193  0
24953  24672  25192  0
24953  25193  25194  0
24953  25194  24673  0
24673  25194  25195  0
24673  25195  24677  0
24952  24954  25190  0
24955  25190  24954  0
25190  24955  25196  0
24956  25196  24955  0
25196  24956  25197  0
24959  25197  24956  0
24961  25197  24959  0
24675  25191  25198  0
24672  24957  25192  0
24962  25192  24957  0
24677  25195  25199  0
24677  25199  24678  0
24959  24958  24961  0
24678  25199  24683  0
24960  25200  24961  0
24964  24675  25198  0
24960  24963  25200  0
24964  25198  25201  0
24962  24967  25202  0
25203  25202  24967  0
25204  24963  24965  0
24964  25201  24702  0
25205  25203  24967  0
24427  24416  25206  0
24427  25206  24699  0
25205  24967  24966  0
25207  25204  24965  0
24702  25201  25208  0
24966  24969  25205  0
25209  25205  24969  0
24702  25208  24973  0
24969  24974  25209  0
24699  24989  24438  0
24970  24979  24978  0
25210  24981  24980  0
24981  25210  24982  0
25211  24982  25210  0
24982  25211  24983  0
25212  24983  25211  0
24983  25212  24984  0
24984  25212  24965  0
25213  24965  25212  0
24965  25213  25207  0
24975  24977  24979  0
25214  24978  24979  0
24978  25214  24986  0
24987  24986  25214  0
24988  24722  25215  0
25216  25215  24722  0
24988  25215  25217  0
24988  25217  24980  0
24980  25217  25210  0
25210  25218  25211  0
25210  25219  25218  0
25211  25218  25212  0
25220  25212  25218  0
25221  25212  25220  0
25212  25221  25213  0
24974  24714  25209  0
24977  24976  25222  0
24977  25222  24979  0
25214  24979  25223  0
24987  25224  24991  0
24722  24992  25216  0
25218  25219  25225  0
25218  25225  25220  0
24985  25226  24734  0
24985  24734  24448  0
24714  25227  25228  0
24714  25228  25209  0
24976  24990  24995  0
24976  24995  25222  0
25222  25223  24979  0
25222  24995  25229  0
24992  24731  24996  0
24992  24996  25230  0
24992  25230  25231  0
24714  24727  25227  0
24995  25232  25229  0
25233  24993  24991  0
24996  24735  24997  0
24996  24997  25234  0
24996  25234  25230  0
25235  24727  24734  0
25227  24727  25235  0
24995  24994  25236  0
25237  24993  25233  0
25234  24997  25238  0
24745  25003  24994  0
24993  25237  24999  0
25239  24999  25237  0
24997  25000  25240  0
24997  25240  25238  0
24999  25239  25004  0
25000  24746  25240  0
25001  24747  24741  0
25002  25009  25241  0
25002  25241  25003  0
25004  25242  24749  0
25004  25239  25242  0
25243  25242  25239  0
25001  25244  24747  0
25007  24747  25244  0
24746  24467  25245  0
25007  25246  25006  0
25008  25006  25246  0
24749  25242  25010  0
24749  25010  24750  0
25242  25243  25247  0
25242  25247  25010  0
25248  25247  25243  0
24467  24751  25249  0
25249  24751  25013  0
25010  25247  25250  0
25010  25250  25011  0
25012  25014  25251  0
25251  25014  25015  0
24755  25011  25017  0
25011  25250  25252  0
25011  25252  25017  0
25016  24758  25253  0
24759  24474  25020  0
24759  25020  25019  0
25254  25018  25017  0
24758  25019  25255  0
24758  25255  25253  0
25019  25256  25255  0
25019  25020  25256  0
25020  25257  25256  0
25258  25018  25254  0
25023  25018  25259  0
25018  25260  25259  0
25018  25258  25260  0
24763  25261  25021  0
24761  25262  25024  0
25026  25024  25262  0
25023  25259  24764  0
25025  25028  25263  0
24764  25259  25264  0
25028  24186  24482  0
25028  24482  24487  0
24199  25029  25030  0
24764  25264  24768  0
25028  24487  25263  0
25265  25263  24487  0
24764  24768  24486  0
25032  25030  25266  0
25267  25268  25033  0
25032  25266  25269  0
25035  25267  25033  0
25033  24489  25035  0
24768  25264  25040  0
25270  24487  24209  0
25032  25269  25034  0
25271  25272  25035  0
25034  25273  24767  0
25037  24767  25273  0
25035  25036  25271  0
25274  25271  25036  0
25036  25038  25274  0
25273  25034  25275  0
25273  25275  25037  0
25276  25039  24771  0
24772  25040  25277  0
24209  25042  25270  0
25037  25275  24774  0
25274  25038  25278  0
25279  25278  25038  0
25038  25039  25279  0
25280  25039  25276  0
25043  25276  24771  0
24771  24494  25043  0
24775  25043  24495  0
24772  25277  25044  0
24774  25281  25045  0
24774  25275  25281  0
25044  25282  25046  0
25048  24781  25046  0
25046  25282  25283  0
25045  25281  25047  0
25050  24780  24779  0
25053  25049  25048  0
25048  25046  25284  0
25047  25281  25285  0
25047  25285  25055  0
25286  25050  25051  0
25287  25286  25051  0
25051  25052  25287  0
25288  25287  25052  0
25052  24790  25288  0
25289  25288  24790  0
25053  25290  25054  0
25053  25048  25291  0
25053  25291  25290  0
25054  25290  25292  0
25054  25292  25057  0
24790  25056  25289  0
25293  25289  25056  0
25056  25059  25293  0
25294  25293  25059  0
25057  25292  25295  0
25041  24796  25296  0
25055  25285  25058  0
25061  25294  25059  0
25057  25295  25060  0
25061  25060  25297  0
25295  25297  25060  0
25058  25298  25299  0
25058  25299  25062  0
25062  25299  25063  0
25063  25299  25300  0
25063  25300  25065  0
25065  25300  25301  0
25065  25301  25067  0
24807  25066  24805  0
25067  25301  25302  0
25067  25302  25068  0
25068  25302  25303  0
25068  25303  25069  0
24518  24806  25069  0
25069  25304  24518  0
25069  25303  25305  0
25069  25305  25304  0
25304  25306  24518  0
24808  24518  25306  0
25307  24523  25070  0
24523  25307  24811  0
24811  25308  24809  0
24811  25307  25308  0
25309  25308  25307  0
24809  25308  24813  0
25310  24813  25308  0
24813  25310  25071  0
25311  25071  25310  0
25071  25311  24815  0
25074  25312  24814  0
24808  25313  24245  0
24245  25313  25072  0
24815  25311  24816  0
25314  24816  25311  0
24816  25314  24817  0
25315  24817  25314  0
25316  25072  25313  0
24819  25317  25073  0
24817  25315  25075  0
25318  25075  25315  0
25075  25318  25076  0
25319  25077  25076  0
25077  25086  25081  0
25077  25319  25086  0
24521  25072  25082  0
24826  25320  24823  0
24826  25083  25320  0
24823  25320  25079  0
24828  24829  25089  0
24534  24830  25321  0
24534  25321  24829  0
24831  25084  25322  0
24831  25322  24830  0
25084  25085  25323  0
25084  25323  25322  0
25085  25324  25323  0
25085  25086  25324  0
25087  25325  25083  0
25087  25088  25326  0
25087  25326  25325  0
24835  25089  25327  0
25095  24834  25082  0
24836  25092  25328  0
24836  25328  24841  0
25092  25093  25094  0
25092  25094  25328  0
25088  25096  25329  0
25330  25090  24835  0
24550  25100  25091  0
24841  25328  25331  0
25328  25094  25332  0
25328  25332  25331  0
25094  25097  25333  0
25094  25333  25334  0
25094  25334  25335  0
25097  25098  25099  0
25097  25099  25333  0
25336  24286  25095  0
25100  25337  25338  0
25100  25338  25091  0
25339  24559  25105  0
25105  23737  24841  0
25333  25099  25340  0
25333  25340  25334  0
25099  25102  25341  0
25099  25341  25340  0
25102  25103  25342  0
25102  25342  25341  0
24286  25336  24852  0
24846  24853  25343  0
24846  25343  25096  0
25101  25104  25344  0
25345  24559  25339  0
25103  25346  25342  0
25103  25106  25347  0
25103  25347  25346  0
25106  25348  25347  0
25108  24854  25090  0
24559  25345  24856  0
25106  24574  25349  0
25106  25349  25348  0
24855  24856  25345  0
24852  25336  24857  0
24858  25110  24853  0
24861  24870  24568  0
24574  25350  25349  0
24857  25351  25352  0
25112  25353  24861  0
25112  25354  25353  0
24861  25353  24870  0
24574  24868  25350  0
25350  24868  25115  0
24859  25109  25355  0
25114  25356  25111  0
25114  25357  25356  0
25111  25356  25354  0
25111  25354  25112  0
24870  25358  25359  0
25115  25120  25360  0
25115  25360  25350  0
24857  25352  25113  0
24859  25355  25116  0
24867  25117  25357  0
24867  25357  25114  0
25118  24870  25359  0
25120  25121  25360  0
25122  25119  25361  0
25362  25361  25119  0
25118  25362  25119  0
25363  25121  25126  0
25123  25126  25121  0
25363  25360  25121  0
25364  25363  25126  0
25124  25365  25366  0
25124  25122  25365  0
25361  25365  25122  0
25364  25126  25367  0
25127  25367  25126  0
24881  24882  25368  0
25366  24882  25124  0
25367  25127  25129  0
25367  25129  25369  0
24894  25369  25129  0
24593  24881  25370  0
24593  25370  24889  0
24593  24889  24592  0
25130  25371  24894  0
24890  24889  25372  0
25373  24898  25132  0
25373  25132  25374  0
25375  25374  25132  0
24898  25373  25131  0
24890  25372  25376  0
24890  25376  24608  0
24901  25133  25132  0
25377  25132  25133  0
25132  25377  25375  0
25378  25375  25377  0
24608  25376  24906  0
25133  25134  25377  0
25379  25377  25134  0
25377  25379  25378  0
25380  25378  25379  0
25134  25135  25379  0
25136  25379  25135  0
25379  25136  25380  0
25381  25380  25136  0
25136  25137  25381  0
25382  25381  25137  0
24906  25376  25383  0
25137  25138  25382  0
25384  25139  24908  0
24906  25385  24915  0
24908  24911  25384  0
25140  25384  24911  0
24915  25385  25386  0
24915  25386  25387  0
24915  25387  25143  0
25143  25388  25144  0
25389  25144  25388  0
25143  25387  25388  0
25388  25390  25389  0
25391  25140  24916  0
25389  25146  25144  0
25389  25390  25392  0
25389  25392  25393  0
24916  24918  25391  0
25148  25145  25394  0
25145  25146  25395  0
25145  25395  25394  0
25146  25389  25395  0
25393  25395  25389  0
25396  25391  24918  0
25147  25141  25150  0
25158  25150  25141  0
25141  25142  25158  0
25397  25158  25142  0
25142  24921  25397  0
24921  25398  25399  0
25400  25399  25398  0
25394  25401  25148  0
24918  25149  25396  0
25402  25396  25149  0
25149  25151  25403  0
25154  25403  25151  0
25149  25403  25402  0
25404  25402  25403  0
25158  25397  25159  0
25397  25405  25159  0
25406  25159  25405  0
25405  25399  25406  0
25403  25154  25407  0
25161  25407  25154  0
25403  25407  25404  0
25408  25404  25407  0
25159  25406  25164  0
25406  25399  25409  0
25407  25161  25166  0
25407  25166  25408  0
25410  25408  25166  0
25164  25406  25168  0
25411  25168  25406  0
25406  25409  25412  0
25406  25412  25411  0
25413  25414  25415  0
25416  25410  25166  0
25166  25169  25416  0
25417  25416  25169  0
25168  25411  25170  0
25418  25170  25411  0
25411  25412  25418  0
25419  25418  25412  0
25415  25414  25420  0
25421  25420  25414  0
25169  25171  25417  0
25422  25417  25171  0
25170  25418  25172  0
25419  25172  25418  0
25423  25424  25425  0
25426  25425  25424  0
25171  24937  25422  0
25173  25422  24937  0
25427  25174  25172  0
24938  25172  25174  0
25427  25172  25428  0
25429  25428  25172  0
25427  25428  25174  0
25430  25174  25428  0
25172  25419  25429  0
25431  25429  25419  0
25424  25432  25433  0
25434  25433  25432  0
25424  25433  25426  0
25175  25177  25435  0
25430  25173  24939  0
24939  25174  25430  0
25436  25433  25434  0
25437  25436  25434  0
25434  25178  25437  0
25438  25437  25178  0
25178  25175  25438  0
25439  25440  25181  0
25439  25181  24948  0
25440  25441  25182  0
25440  25182  25181  0
25441  25183  25182  0
25441  25442  25183  0
25184  25183  25442  0
24948  25186  25443  0
24948  25443  25439  0
25186  25187  25444  0
25186  25444  25443  0
25445  24951  25180  0
25187  25190  25446  0
25187  25446  25444  0
25190  25196  25446  0
25446  25196  25447  0
25446  25447  25448  0
25196  25197  25447  0
25447  25197  25449  0
25450  25195  25194  0
25197  24961  25449  0
25449  24961  25451  0
25192  24962  25452  0
25192  25452  25193  0
25195  25453  25199  0
25195  25450  25453  0
25454  25453  25450  0
25453  25455  25199  0
25456  25453  25454  0
25453  25456  25455  0
25457  25455  25456  0
25451  24961  25200  0
24962  25202  25452  0
25452  25202  25458  0
25199  25455  24683  0
25455  25457  24683  0
25459  24683  25457  0
25200  25460  25451  0
25201  25198  25461  0
24683  25459  24416  0
24963  25462  25200  0
25202  25203  25463  0
25202  25463  25458  0
24963  25204  25462  0
25203  25205  25464  0
25203  25464  25463  0
24416  25459  25206  0
25459  25465  25206  0
25201  25466  25208  0
25205  25209  25467  0
25205  25467  25464  0
25468  25206  25465  0
25469  24973  25208  0
24699  25206  24989  0
25206  25468  24989  0
25209  25470  25467  0
25471  24989  25468  0
25209  25228  25470  0
24989  25471  24719  0
25215  25216  25472  0
25215  25472  25473  0
25215  25473  25217  0
25217  25473  25474  0
25217  25474  25210  0
25210  25474  25219  0
25213  25221  25475  0
25228  25476  25470  0
25214  25223  25477  0
25214  25477  25224  0
25214  25224  24987  0
25216  24992  25478  0
25473  25479  25480  0
25473  25480  25474  0
25473  25472  25481  0
25473  25481  25479  0
25474  25480  25482  0
25474  25482  25219  0
25219  25482  25483  0
25219  25483  25225  0
25225  25483  25220  0
25221  25220  25483  0
25222  25229  25223  0
25484  25223  25229  0
25223  25484  25477  0
25224  25477  25485  0
25224  25485  24991  0
24992  25231  25478  0
25486  25478  25231  0
25480  25479  25487  0
25480  25487  25482  0
25482  25488  25483  0
25489  25483  25488  0
25483  25489  25221  0
25490  25221  25489  0
25491  25221  25490  0
25221  25491  25475  0
24719  25471  25492  0
24719  25492  25493  0
25229  25232  25484  0
25494  25484  25232  0
25484  25495  25496  0
25484  25496  25477  0
25484  25494  25495  0
24991  25497  25233  0
24991  25485  25498  0
24991  25498  25497  0
25231  25230  25486  0
25234  25486  25230  0
25482  25487  25488  0
24734  25226  25235  0
24719  25493  24742  0
25493  25499  24742  0
24995  25236  25232  0
25500  25232  25236  0
25232  25500  25494  0
25486  25234  25501  0
25502  25501  25234  0
25234  25238  25502  0
25489  25488  25503  0
25489  25503  25490  0
24742  25499  25001  0
25504  25239  25237  0
25237  25233  25497  0
25237  25497  25504  0
25240  25502  25238  0
24994  25003  25236  0
25505  25236  25003  0
25236  25506  25500  0
25236  25505  25506  0
25507  25239  25504  0
25504  25508  25507  0
25003  25241  25505  0
25239  25507  25243  0
25509  25243  25507  0
25507  25508  25509  0
25240  24746  25510  0
25245  25510  24746  0
25511  25241  25009  0
25512  25241  25511  0
25241  25512  25505  0
25505  25512  25513  0
25514  25513  25512  0
25515  25243  25509  0
25509  25508  25516  0
25509  25516  25515  0
25246  25517  25008  0
25518  25008  25517  0
25008  25518  25009  0
25009  25518  25511  0
25511  25518  25512  0
25519  25512  25518  0
25512  25519  25514  0
25243  25515  25248  0
25515  25516  25520  0
25515  25520  25248  0
24467  25249  25245  0
25246  25521  25517  0
25522  25517  25521  0
25517  25522  25518  0
25523  25518  25522  0
25524  25518  25523  0
25518  25524  25519  0
25519  25524  25514  0
25525  25514  25524  0
25526  25514  25525  0
25527  25247  25248  0
25248  25520  25528  0
25248  25528  25527  0
25529  25249  25013  0
25521  25530  25522  0
25523  25522  25530  0
25523  25531  25524  0
25247  25527  25250  0
25252  25250  25527  0
25012  25251  25013  0
25013  25532  25533  0
25013  25533  25529  0
25013  25251  25532  0
25534  25530  25535  0
25530  25534  25523  0
25536  25523  25534  0
25531  25523  25536  0
25537  25524  25531  0
25524  25537  25525  0
25252  25527  25538  0
25251  25015  25532  0
25526  25525  25539  0
25540  25017  25252  0
25540  25252  25538  0
25534  25541  25536  0
25531  25542  25537  0
25537  25542  25525  0
25539  25525  25542  0
25017  25540  25254  0
25255  25256  25543  0
25020  25021  25261  0
25020  25261  25257  0
25536  25544  25531  0
25531  25544  25542  0
24761  25025  25545  0
24763  25027  25546  0
24763  25546  25261  0
25547  25260  25258  0
25025  25263  25545  0
25545  25263  25548  0
25549  25026  25262  0
25026  25549  25027  0
25263  25550  25548  0
25259  25260  25551  0
25260  25547  25551  0
25264  25259  25552  0
25259  25551  25552  0
25029  25031  25268  0
25031  25033  25268  0
25268  25267  25553  0
24487  25554  25265  0
25267  25035  25272  0
25267  25272  25553  0
25264  25555  25040  0
25272  25271  25556  0
25271  25274  25557  0
25269  25558  25275  0
25269  25275  25034  0
25274  25278  25559  0
25274  25559  25557  0
25558  25560  25275  0
25561  25558  25562  0
25278  25279  25563  0
25278  25563  25559  0
25279  25039  25280  0
25044  25277  25282  0
25558  25561  25560  0
25560  25281  25275  0
25563  25279  25564  0
25563  25565  25559  0
25279  25280  25566  0
25279  25566  25564  0
25280  25276  25567  0
25280  25567  25566  0
25276  25043  25568  0
25276  25568  25567  0
25282  25569  25283  0
25283  25284  25046  0
25570  25283  25569  0
25283  25570  25284  0
25571  25284  25570  0
25560  25572  25281  0
25564  25566  25573  0
25564  25573  25574  0
25564  25574  25563  0
25566  25567  25573  0
25568  25043  25575  0
25568  25575  25576  0
25043  24775  25575  0
25050  25286  24780  0
25287  25577  25286  0
25287  25288  25578  0
25287  25578  25577  0
25284  25579  25291  0
25284  25291  25048  0
25284  25571  25579  0
25580  25291  25579  0
25296  25042  25041  0
25285  25281  25572  0
25567  25568  25576  0
25567  25576  25581  0
25567  25581  25573  0
25288  25289  25582  0
25291  25580  25290  0
25290  25580  25292  0
25572  25583  25285  0
25572  25584  25583  0
25581  25574  25573  0
25585  25289  25293  0
25293  25294  25585  0
25586  25585  25294  0
25294  25061  25586  0
25587  25586  25061  0
25292  25588  25295  0
25285  25583  25589  0
25285  25589  25058  0
25061  25297  25587  0
25297  25295  25587  0
25588  25587  25295  0
25058  25589  25298  0
25298  25589  25590  0
25298  25590  25299  0
24796  25064  25296  0
25066  25064  24803  0
25066  24807  25591  0
25302  25592  25303  0
25305  25303  25592  0
25302  25593  25592  0
25592  25593  25305  0
24810  24814  25594  0
25305  25595  25304  0
25306  25304  25595  0
25305  25593  25596  0
25305  25596  25595  0
25312  25594  24814  0
25595  25597  25306  0
25595  25596  25597  0
25597  25598  25306  0
25313  25306  25598  0
25306  25313  24808  0
25599  25308  25309  0
25308  25599  25310  0
25311  25310  25600  0
25601  25312  25074  0
25602  25307  25070  0
25307  25603  25309  0
25307  25602  25603  0
25309  25603  25604  0
25309  25604  25599  0
25311  25600  25605  0
25311  25605  25314  0
25314  25605  25606  0
25314  25606  25315  0
25315  25606  25607  0
25315  25607  25318  0
25608  25601  25074  0
25313  25598  25316  0
25070  25073  25602  0
25318  25609  25076  0
25319  25076  25609  0
25318  25607  25609  0
24819  25080  25317  0
25610  25317  25080  0
25317  25610  25073  0
25073  25610  25602  0
25609  25324  25319  0
25086  25319  25324  0
25074  25078  25608  0
25072  25316  25611  0
25072  25611  25082  0
25320  25083  25612  0
25325  25612  25083  0
25320  25613  25079  0
25080  25079  25610  0
25322  25321  24830  0
25323  25324  25614  0
25609  25614  25324  0
25615  25082  25611  0
25616  25327  25089  0
25089  24829  25617  0
25089  25617  25616  0
25082  25615  25095  0
25618  25326  25088  0
24835  25327  25330  0
25619  25330  25327  0
25078  25091  25608  0
25088  25329  25618  0
25620  25618  25329  0
25331  25105  24841  0
25621  25331  25332  0
25332  25094  25621  0
25335  25621  25094  0
25095  25615  25622  0
25095  25622  25336  0
25330  25623  25090  0
25091  25338  25624  0
25625  25624  25338  0
25105  25331  25626  0
25627  25626  25331  0
25628  25627  25331  0
25331  25621  25628  0
25621  25335  25628  0
25629  25628  25335  0
25335  25334  25629  0
25334  25340  25630  0
25334  25630  25629  0
25631  25629  25630  0
25342  25340  25341  0
25096  25343  25329  0
25329  25343  25620  0
25345  25339  25632  0
25630  25340  25631  0
25633  25631  25340  0
