#!ascii file
35224  35002  35226  0
35224  35226  35450  0
35224  35450  35447  0
35221  35449  35451  0
35226  35225  35452  0
35226  35452  35450  0
35221  35451  35227  0
35225  35009  35452  0
35228  35227  35453  0
35452  35009  35454  0
35228  35453  35455  0
35228  35455  35230  0
35456  35234  35457  0
35456  35457  35458  0
35456  35459  35232  0
35456  35232  35234  0
35459  35460  35232  0
35009  34808  35454  0
35013  35012  35231  0
35231  35461  35016  0
35461  35237  35016  0
35457  35234  35235  0
35457  35462  35458  0
35232  35463  35242  0
35232  35242  35236  0
35232  35460  35464  0
35232  35464  35463  0
34808  35465  35454  0
35230  35455  35466  0
35230  35466  35014  0
35014  35466  35011  0
35237  35467  35238  0
35238  35467  35239  0
35242  35463  35468  0
35242  35468  35243  0
35243  35468  35469  0
35243  35469  35028  0
34808  35244  35465  0
35455  35470  35466  0
35466  35470  35471  0
35239  35250  35026  0
35239  35472  35250  0
35240  35245  35246  0
35240  35246  35473  0
35240  35473  35235  0
35028  35469  35474  0
35028  35475  35030  0
35028  35474  35475  0
35475  35248  35030  0
35244  34581  35029  0
35244  35029  35476  0
35244  35476  35477  0
35250  35472  35478  0
35250  35478  35479  0
35479  35032  35250  0
35479  35478  35480  0
35247  35481  35482  0
35247  35482  35246  0
35249  35034  35031  0
35249  35483  35034  0
35029  35268  35484  0
35029  35484  35476  0
35485  35486  35251  0
35485  35251  35479  0
35485  35479  35480  0
35485  35480  35487  0
35485  35487  35486  0
35479  35251  35032  0
35481  35247  35033  0
35481  35033  35258  0
35481  35258  35488  0
35481  35488  35482  0
35489  35253  35034  0
35489  35034  35483  0
35489  35483  35490  0
35486  35252  35251  0
35258  35259  35491  0
35258  35491  35488  0
35260  35489  35492  0
35260  35492  35493  0
35260  35493  35266  0
35489  35260  35253  0
35268  35029  34593  0
35486  35257  35252  0
35486  35487  35494  0
35486  35494  35257  0
35259  35495  35491  0
35254  35263  35262  0
35263  35255  35496  0
35255  35264  35496  0
35264  35257  35497  0
35257  35494  35498  0
35257  35498  35497  0
35499  35500  35272  0
35272  35500  35271  0
35501  35265  35276  0
35502  35501  35276  0
35265  35501  35495  0
35265  35495  35259  0
35266  35503  35267  0
34829  35279  35268  0
34825  35261  35270  0
35261  35262  35504  0
35261  35504  35270  0
35262  35263  35505  0
35496  35505  35263  0
35496  35264  35506  0
35507  35506  35264  0
35264  35497  35507  0
35498  35507  35497  0
35499  35272  35508  0
35277  35508  35272  0
35499  35508  35509  0
35510  35273  35271  0
35273  35510  35274  0
35511  35274  35510  0
35274  35511  35275  0
35502  35275  35511  0
35275  35502  35276  0
35278  35267  35503  0
35512  35513  35279  0
35280  35508  35277  0
35279  34841  35512  0
35285  35512  34841  0
35269  35270  35514  0
35508  35280  35515  0
35516  35515  35280  0
35280  35281  35516  0
35516  35281  35517  0
34842  35517  35281  0
35269  35514  35049  0
34842  35282  35518  0
35519  35520  35282  0
35282  35283  35519  0
35521  35049  35514  0
35522  35519  35283  0
35283  35286  35522  0
35288  35522  35286  0
35049  35521  35050  0
35287  35523  35048  0
35284  35048  35523  0
35289  34846  35524  0
35053  35299  35054  0
35296  35054  35299  0
35054  35296  35292  0
35295  35292  35296  0
35292  35295  35056  0
34846  34616  35525  0
35291  35526  35052  0
34616  34858  35527  0
35052  35526  35297  0
35053  35067  35299  0
35298  35299  35067  0
35528  35527  34858  0
35301  35297  35529  0
35076  35309  35077  0
35302  35077  35309  0
35300  35530  35305  0
34858  35307  35528  0
35529  35531  35301  0
35301  35531  35308  0
35532  35308  35531  0
35308  35532  35309  0
35533  35309  35532  0
35309  35533  35302  0
35302  35533  35303  0
35534  35303  35533  0
35303  35534  35304  0
35310  35304  35534  0
35300  35311  35530  0
35535  35305  35530  0
35305  35535  35306  0
35312  35306  35535  0
35531  35529  35536  0
35537  35531  35536  0
35531  35537  35532  0
35532  35537  35533  0
35538  35533  35537  0
35533  35538  35534  0
35313  35310  35534  0
35539  35314  35540  0
35314  35315  35540  0
35541  35540  35315  0
35314  35539  35311  0
35542  35311  35539  0
35311  35542  35530  0
35543  35530  35542  0
35530  35543  35535  0
35317  35312  35535  0
35536  35529  35544  0
35536  35544  35537  0
35545  35537  35544  0
35546  35537  35545  0
35537  35546  35538  0
35547  35538  35546  0
35548  35538  35547  0
35538  35548  35534  0
35549  35534  35548  0
35534  35549  35313  0
35318  35313  35549  0
35315  35319  35541  0
35550  35541  35319  0
35535  35551  35317  0
35084  35320  35307  0
35552  35307  35320  0
35553  35544  35529  0
35554  35544  35555  0
35544  35554  35545  0
35545  35554  35546  0
35556  35546  35554  0
35546  35556  35547  0
35557  35549  35548  0
35549  35557  35318  0
35319  35322  35550  0
35558  35550  35322  0
35322  35324  35558  0
35317  35559  35316  0
35560  35316  35559  0
35316  35560  35320  0
35561  35320  35560  0
35544  35553  35555  0
35554  35562  35556  0
35556  35562  35547  0
35547  35562  35563  0
35547  35563  35548  0
35323  35318  35557  0
35324  35325  35564  0
35325  35565  35564  0
35566  35554  35555  0
35554  35566  35562  0
35325  35326  35567  0
35325  35567  35565  0
35568  35099  35323  0
35328  35099  35568  0
35326  35331  35567  0
35328  35568  35334  0
35335  35334  35568  0
35569  35336  35335  0
35336  35569  35337  0
35331  35115  35570  0
35571  35572  35573  0
35571  35574  35572  0
35574  35571  35575  0
35574  35575  35576  0
35569  35344  35338  0
35569  35338  35337  0
35569  35577  35344  0
35573  35578  35340  0
35573  35340  35339  0
35573  35339  35571  0
35571  35339  35341  0
35571  35341  35575  0
35575  35341  35342  0
35575  35342  35579  0
35575  35579  35576  0
35579  35342  35343  0
35579  35580  35576  0
35344  35577  35581  0
35344  35581  35345  0
35343  35345  35581  0
35343  35581  35579  0
35345  35125  35344  0
35115  35346  35582  0
35346  35583  35582  0
35346  34915  35583  0
35584  35585  35586  0
35584  35353  35349  0
35584  35349  35348  0
35584  35348  35585  0
35348  35347  35587  0
35347  35588  35587  0
35347  35350  35588  0
35340  35589  35128  0
35126  35590  35583  0
35126  35583  34915  0
35591  35358  35592  0
35591  35592  35586  0
35591  35586  35593  0
35592  35358  35351  0
35592  35351  35353  0
35592  35353  35584  0
35592  35584  35586  0
34917  35359  35594  0
34917  35594  35350  0
35355  35595  35596  0
35355  35596  35354  0
35354  35596  35590  0
35354  35590  35130  0
35130  35590  35126  0
35379  35591  35597  0
35379  35597  35598  0
35591  35379  35363  0
35591  35363  35358  0
35359  35360  35594  0
35128  35366  34722  0
35361  35595  35355  0
35368  35373  35599  0
35368  35599  35600  0
35368  35600  35369  0
35373  35601  35602  0
35373  35602  35599  0
35601  35373  35375  0
35375  35379  35601  0
35360  35603  35594  0
35361  35134  35604  0
35134  35370  35605  0
35134  35605  35604  0
35370  35369  35605  0
35360  35383  35603  0
35383  35387  35606  0
35367  35607  35388  0
35145  35154  35608  0
35145  35608  35387  0
35387  35608  35609  0
35387  35609  35606  0
35394  35393  35610  0
35394  35610  35611  0
35394  35611  35612  0
35394  35612  35396  0
35393  35159  35613  0
35393  35613  35610  0
35159  35160  35614  0
35159  35614  35613  0
35160  35161  35614  0
35161  35398  35614  0
35388  35607  35615  0
35388  35616  35163  0
35388  35615  35616  0
35390  35389  35169  0
35390  35169  35391  0
35391  35169  35395  0
35608  35154  35399  0
35399  35617  35618  0
35399  35618  35608  0
35617  35399  35397  0
35617  35397  35612  0
35612  35397  35396  0
35398  35166  35619  0
35163  35616  35620  0
35163  35620  35168  0
35168  35620  35402  0
35166  35400  35619  0
35402  35621  35401  0
35622  35400  35403  0
35622  35403  35623  0
35624  35623  35403  0
35404  35172  35625  0
34956  35625  35172  0
34956  35174  35626  0
35627  35626  35174  0
35178  35175  35628  0
35175  34957  35628  0
35401  35628  34957  0
35403  35406  35624  0
35409  35624  35406  0
35171  35405  35407  0
35629  35407  35405  0
35630  35627  35174  0
35174  35408  35630  0
35407  35629  35410  0
35631  35409  35180  0
35180  35410  35631  0
35411  35413  35632  0
35633  35632  35413  0
35413  35414  35633  0
35182  35412  35415  0
35415  35634  34968  0
35185  35187  35635  0
35636  35635  35187  0
35187  35417  35636  0
35637  35636  35417  0
35638  35637  35417  0
35188  35186  35639  0
35417  35418  35638  0
35188  35639  35190  0
35418  35189  35638  0
35419  35638  35189  0
35190  35640  35419  0
35192  35425  35420  0
35420  35641  35421  0
35195  35422  35196  0
35423  35196  35422  0
35423  35642  35643  0
35423  35643  35198  0
35198  35643  35424  0
35194  35421  35644  0
35194  35644  35426  0
35428  35645  35427  0
35422  35427  35645  0
35422  35646  35423  0
35642  35423  35646  0
35200  35426  35203  0
35647  35203  35426  0
35648  35649  35645  0
35650  35645  35649  0
35645  35428  35648  0
35429  35648  35428  0
35203  35647  35204  0
35648  35651  35649  0
35648  35429  35430  0
35204  35647  35431  0
35652  35431  35647  0
35653  35654  35651  0
35651  35648  35432  0
35433  35432  35648  0
35648  35430  35433  0
35205  35433  35430  0
35651  35432  35435  0
35651  35435  35653  0
35435  35210  35653  0
35655  35653  35210  0
34979  35431  35436  0
35431  35656  35436  0
35437  35208  35438  0
35210  35441  35655  0
35657  35655  35441  0
35441  35442  35657  0
35658  35657  35442  0
35436  35656  34983  0
35659  34983  35656  0
35660  35206  35214  0
35206  35660  35207  0
35661  35207  35660  0
35207  35661  35438  0
35662  35438  35661  0
35438  35662  35437  0
35442  35445  35658  0
35663  35658  35445  0
34987  34983  35659  0
35446  35214  35215  0
35214  35664  35660  0
35214  35446  35664  0
35665  35661  35660  0
35661  35665  35662  0
35439  35666  35443  0
35667  35444  35443  0
35219  34987  35659  0
35668  35219  35659  0
35669  35446  35448  0
35448  35447  35670  0
35448  35670  35669  0
35671  35670  35447  0
35444  35667  35449  0
35451  35449  35667  0
35445  35004  35663  0
35447  35450  35671  0
35672  35671  35450  0
35229  35663  35004  0
35450  35452  35672  0
35673  35227  35451  0
35231  35223  35219  0
35674  35672  35452  0
35227  35673  35453  0
35675  35453  35673  0
35452  35454  35674  0
35455  35453  35675  0
35223  35231  35012  0
35461  35676  35237  0
35677  35456  35678  0
35456  35458  35678  0
35456  35677  35459  0
35679  35459  35677  0
35459  35679  35460  0
35465  35674  35454  0
35675  35680  35455  0
35011  35681  35007  0
35229  35007  35681  0
35471  35681  35011  0
35237  35682  35467  0
35683  35467  35682  0
35464  35684  35463  0
35468  35463  35684  0
35685  35468  35684  0
35470  35455  35680  0
35466  35471  35011  0
35239  35467  35686  0
35467  35683  35686  0
35687  35686  35683  0
35688  35462  35457  0
35457  35235  35688  0
35468  35685  35469  0
35474  35469  35685  0
35465  35244  35477  0
35465  35477  35689  0
35465  35689  35690  0
35686  35687  35472  0
35686  35472  35239  0
35235  35473  35691  0
35235  35691  35688  0
35474  35685  35475  0
35248  35475  35685  0
35477  35476  35689  0
35692  35470  35680  0
35471  35470  35692  0
35687  35693  35478  0
35687  35478  35472  0
35687  35694  35693  0
35473  35246  35482  0
35473  35482  35695  0
35473  35695  35691  0
35248  35483  35249  0
35476  35484  35696  0
35476  35696  35689  0
35693  35697  35480  0
35693  35480  35478  0
35482  35488  35698  0
35482  35698  35695  0
35490  35699  35700  0
35697  35701  35487  0
35697  35487  35480  0
35488  35491  35702  0
35488  35702  35698  0
35493  35492  35700  0
35700  35492  35489  0
35700  35489  35490  0
35484  35703  35696  0
35491  35495  35702  0
35484  35268  35703  0
35501  35704  35495  0
35702  35495  35704  0
35493  35705  35266  0
35706  35703  35279  0
35706  35279  35513  0
35703  35268  35279  0
35701  35707  35487  0
35487  35707  35494  0
35494  35707  35708  0
35494  35708  35498  0
35499  35709  35500  0
35500  35710  35510  0
35500  35510  35271  0
35500  35709  35711  0
35500  35711  35710  0
35511  35712  35713  0
35511  35713  35502  0
35511  35510  35712  0
35502  35713  35501  0
35266  35714  35503  0
35266  35705  35714  0
35504  35262  35715  0
35262  35505  35715  0
35496  35506  35716  0
35507  35498  35717  0
35507  35717  35506  0
35498  35718  35717  0
35498  35708  35719  0
35498  35719  35718  0
35718  35719  35720  0
35270  35504  35514  0
35505  35496  35721  0
35505  35721  35715  0
35496  35716  35721  0
35716  35506  35722  0
35506  35717  35722  0
35717  35718  35720  0
35717  35720  35722  0
35508  35515  35723  0
35508  35723  35509  0
35278  35503  35724  0
35512  35285  35725  0
35514  35504  35726  0
35516  35517  35515  0
35517  34842  35518  0
35278  35724  35727  0
35278  35727  35047  0
35285  35728  35725  0
35514  35726  35729  0
35514  35729  35521  0
35518  35282  35730  0
35282  35520  35730  0
35519  35522  35731  0
35047  35727  35287  0
35285  35284  35728  0
35729  35732  35521  0
35522  35288  35733  0
35522  35733  35731  0
35284  35734  35728  0
35050  35521  35732  0
35050  35732  35735  0
35288  35289  35733  0
35287  35736  35523  0
35290  35050  35735  0
35290  35735  35737  0
35289  35524  35733  0
35291  35290  35737  0
35291  35737  35526  0
34846  35525  35524  0
35525  34616  35527  0
35525  35527  35738  0
35297  35526  35739  0
35297  35739  35529  0
35529  35739  35740  0
35540  35741  35742  0
35540  35742  35539  0
35540  35541  35743  0
35540  35743  35741  0
35539  35742  35744  0
35539  35744  35542  0
35542  35744  35745  0
35542  35745  35543  0
35543  35746  35551  0
35543  35551  35535  0
35543  35745  35747  0
35543  35747  35746  0
35529  35740  35553  0
35748  35541  35550  0
35748  35743  35541  0
35551  35559  35317  0
35551  35746  35559  0
35748  35550  35749  0
35550  35558  35749  0
35558  35324  35564  0
35559  35750  35560  0
35320  35561  35552  0
35553  35740  35751  0
35752  35557  35548  0
35557  35752  35323  0
35553  35753  35555  0
35754  35555  35753  0
35553  35751  35753  0
35555  35754  35566  0
35755  35562  35566  0
35756  35562  35755  0
35562  35756  35563  0
35757  35563  35756  0
35563  35757  35548  0
35758  35548  35757  0
35548  35758  35752  0
35754  35759  35566  0
35566  35759  35760  0
35566  35760  35755  0
35756  35761  35757  0
35757  35761  35758  0
35323  35752  35568  0
35568  35752  35762  0
35335  35568  35762  0
35567  35331  35763  0
35764  35763  35331  0
35762  35765  35335  0
35762  35766  35765  0
35569  35335  35765  0
35765  35766  35767  0
35570  35764  35331  0
35572  35768  35578  0
35768  35572  35769  0
35770  35769  35572  0
35574  35771  35572  0
35572  35771  35770  0
35772  35770  35771  0
35773  35771  35574  0
35774  35772  35771  0
35771  35773  35774  0
35775  35774  35773  0
35765  35767  35569  0
35577  35569  35767  0
35578  35573  35572  0
35574  35576  35773  0
35773  35576  35580  0
35773  35580  35775  0
35581  35767  35580  0
35580  35767  35775  0
35767  35581  35577  0
35580  35579  35581  0
35115  35582  35570  0
35776  35570  35582  0
35777  35578  35778  0
35348  35779  35585  0
35779  35348  35587  0
35578  35777  35340  0
35593  35586  35780  0
35779  35780  35586  0
35586  35585  35779  0
35340  35777  35589  0
35781  35590  35782  0
35783  35782  35590  0
35590  35781  35583  0
35598  35597  35593  0
35591  35593  35597  0
35784  35350  35594  0
35595  35785  35596  0
35783  35596  35785  0
35596  35783  35590  0
35601  35786  35602  0
35786  35601  35598  0
35379  35598  35601  0
35787  35784  35594  0
35589  35788  35128  0
35128  35788  35366  0
35789  35366  35788  0
35595  35361  35790  0
35604  35790  35361  0
35369  35600  35605  0
35599  35791  35600  0
35600  35791  35605  0
35792  35605  35791  0
35594  35603  35787  0
35793  35787  35603  0
35792  35604  35605  0
35606  35603  35383  0
35603  35606  35793  0
35794  35793  35606  0
35366  35789  35367  0
35607  35367  35789  0
35606  35609  35794  0
35795  35794  35609  0
35614  35796  35613  0
35796  35614  35797  0
35798  35797  35614  0
35609  35608  35795  0
35618  35795  35608  0
35795  35618  35799  0
35617  35799  35618  0
35800  35795  35799  0
35799  35617  35611  0
35612  35611  35617  0
35799  35611  35800  0
35801  35800  35611  0
35611  35610  35801  0
35802  35801  35610  0
35610  35613  35802  0
35796  35802  35613  0
35614  35398  35798  0
35607  35803  35615  0
35398  35619  35798  0
35804  35798  35619  0
35805  35402  35620  0
35806  35402  35807  0
35402  35805  35807  0
35400  35622  35619  0
35619  35622  35804  0
35808  35804  35622  0
35402  35806  35621  0
35622  35623  35808  0
35809  35628  35810  0
35810  35628  35621  0
35401  35621  35628  0
35810  35621  35811  0
35812  35811  35621  0
35621  35806  35812  0
35813  35623  35624  0
35814  35404  35625  0
35625  34956  35815  0
35816  35815  34956  0
34956  35626  35816  0
35628  35809  35178  0
35624  35409  35813  0
35817  35813  35409  0
35404  35814  35405  0
35818  35405  35814  0
35627  35630  35626  0
35178  35809  35179  0
35412  35179  35809  0
35409  35631  35817  0
35405  35818  35629  0
35819  35629  35818  0
35408  35820  35630  0
35408  35411  35821  0
35408  35821  35820  0
35631  35410  35819  0
35410  35629  35819  0
35411  35632  35822  0
35411  35822  35821  0
35632  35633  35822  0
35633  35823  35822  0
35414  35185  35824  0
35414  35824  35633  0
35634  35416  34968  0
35825  35416  35634  0
35185  35635  35824  0
35826  35416  35825  0
35416  35826  35186  0
35639  35186  35826  0
35636  35637  35635  0
35637  35638  35827  0
35639  35828  35190  0
35640  35190  35828  0
35638  35419  35829  0
35419  35640  35829  0
35425  35830  35420  0
35425  35424  35831  0
35425  35831  35830  0
35420  35830  35641  0
35832  35421  35641  0
35642  35833  35643  0
35831  35424  35643  0
35421  35832  35644  0
35834  35644  35832  0
35645  35835  35422  0
35836  35422  35835  0
35645  35650  35835  0
35422  35836  35646  0
35646  35837  35642  0
35642  35837  35838  0
35642  35838  35833  0
35833  35838  35839  0
35426  35644  35840  0
35426  35840  35647  0
35644  35834  35840  0
35837  35646  35836  0
35837  35841  35838  0
35837  35842  35841  0
35838  35843  35839  0
35647  35840  35844  0
35654  35649  35651  0
35654  35650  35649  0
35845  35846  35841  0
35845  35841  35842  0
35841  35847  35843  0
35841  35843  35838  0
35647  35844  35652  0
35654  35653  35848  0
35846  35847  35841  0
35431  35652  35849  0
35653  35850  35851  0
35653  35851  35848  0
35431  35849  35656  0
35849  35652  35852  0
35653  35655  35850  0
35850  35655  35657  0
35850  35657  35853  0
35850  35853  35854  0
35850  35854  35851  0
35853  35657  35855  0
35853  35855  35856  0
35853  35856  35854  0
35656  35849  35852  0
35657  35658  35855  0
35855  35658  35857  0
35855  35857  35856  0
35857  35658  35858  0
35656  35859  35659  0
35662  35665  35860  0
35662  35860  35437  0
35437  35860  35666  0
35437  35666  35439  0
35658  35663  35861  0
35658  35861  35858  0
35664  35446  35669  0
35664  35669  35660  0
35660  35862  35863  0
35660  35863  35665  0
35660  35669  35862  0
35665  35863  35864  0
35665  35864  35865  0
35665  35865  35860  0
35860  35865  35866  0
35860  35866  35666  0
35666  35866  35867  0
35666  35867  35443  0
35443  35867  35868  0
35443  35868  35667  0
35669  35670  35869  0
35669  35869  35862  0
35670  35671  35870  0
35670  35870  35869  0
35667  35868  35871  0
35667  35871  35451  0
35671  35672  35872  0
35451  35871  35873  0
35451  35873  35673  0
35663  35229  35874  0
35673  35873  35875  0
35874  35229  35876  0
35219  35877  35231  0
35219  35668  35877  0
35875  35878  35675  0
35875  35675  35673  0
35875  35879  35878  0
35231  35877  35461  0
35877  35880  35676  0
35877  35676  35461  0
35880  35881  35676  0
35681  35876  35229  0
35681  35882  35876  0
35676  35683  35682  0
35676  35682  35237  0
35676  35881  35683  0
35679  35677  35460  0
35674  35465  35690  0
35878  35883  35680  0
35878  35680  35675  0
35681  35471  35882  0
35458  35462  35884  0
35458  35884  35678  0
35460  35677  35885  0
35460  35885  35464  0
35464  35885  35684  0
35684  35885  35685  0
35886  35694  35687  0
35886  35687  35683  0
35886  35887  35694  0
35462  35688  35888  0
35462  35888  35889  0
35462  35889  35884  0
35685  35885  35890  0
35690  35689  35891  0
35883  35892  35680  0
35694  35887  35893  0
35888  35688  35691  0
35888  35691  35894  0
35888  35894  35889  0
35890  35895  35896  0
35890  35896  35685  0
35685  35896  35483  0
35685  35483  35248  0
35689  35696  35891  0
35892  35692  35680  0
35692  35897  35471  0
35471  35897  35898  0
35893  35697  35694  0
35693  35694  35697  0
35894  35691  35899  0
35695  35899  35691  0
35900  35894  35899  0
35895  35901  35896  0
35699  35896  35901  0
35896  35699  35483  0
35490  35483  35699  0
35902  35701  35697  0
35893  35902  35697  0
35899  35695  35900  0
35698  35900  35695  0
35700  35901  35903  0
35903  35901  35904  0
35895  35904  35901  0
35903  35904  35905  0
35901  35700  35699  0
35906  35701  35902  0
35907  35900  35908  0
35698  35908  35900  0
35907  35908  35909  0
35903  35910  35700  0
35493  35700  35910  0
35903  35905  35910  0
35908  35698  35911  0
35704  35911  35698  0
35908  35911  35909  0
35912  35909  35911  0
35698  35702  35704  0
35910  35913  35493  0
35705  35493  35913  0
35910  35914  35913  0
35703  35706  35915  0
35916  35915  35706  0
35701  35906  35917  0
35707  35701  35917  0
35918  35911  35712  0
35713  35712  35911  0
35918  35912  35911  0
35919  35918  35712  0
35911  35704  35713  0
35501  35713  35704  0
35706  35513  35916  0
35920  35916  35513  0
35921  35709  35499  0
35922  35709  35923  0
35709  35922  35711  0
35711  35712  35710  0
35510  35710  35712  0
35711  35922  35712  0
35919  35712  35922  0
35924  35705  35913  0
35513  35512  35920  0
35725  35920  35512  0
35925  35719  35708  0
35926  35720  35719  0
35499  35509  35921  0
35723  35921  35509  0
35705  35924  35714  0
35715  35721  35927  0
35928  35721  35716  0
35716  35722  35928  0
35714  35724  35503  0
35714  35929  35724  0
35728  35930  35931  0
35504  35715  35726  0
35927  35726  35715  0
35927  35721  35932  0
35928  35932  35721  0
35928  35722  35933  0
35934  35933  35722  0
35722  35720  35934  0
35935  35934  35720  0
35926  35935  35720  0
35936  35723  35515  0
35515  35517  35936  0
35937  35936  35517  0
35517  35518  35937  0
35938  35937  35518  0
35518  35730  35938  0
35939  35730  35520  0
35725  35728  35931  0
35940  35729  35726  0
35726  35927  35940  0
35927  35932  35940  0
35941  35940  35932  0
35520  35519  35939  0
35519  35731  35939  0
35942  35943  35728  0
35729  35940  35732  0
35944  35732  35940  0
35945  35287  35727  0
35728  35734  35942  0
35946  35735  35732  0
35944  35946  35732  0
35736  35287  35945  0
35523  35947  35284  0
35734  35284  35947  0
35737  35735  35948  0
35733  35524  35949  0
35525  35949  35524  0
35949  35525  35950  0
35738  35950  35525  0
35527  35528  35738  0
35526  35951  35739  0
35952  35528  35307  0
35953  35740  35739  0
35954  35741  35743  0
35742  35955  35744  0
35745  35744  35955  0
35552  35952  35307  0
35743  35748  35954  0
35956  35954  35748  0
35747  35957  35746  0
35958  35746  35957  0
35748  35749  35956  0
35959  35749  35558  0
35558  35564  35959  0
35565  35959  35564  0
35746  35958  35559  0
35559  35958  35750  0
35960  35750  35958  0
35750  35960  35560  0
35961  35560  35960  0
35565  35567  35962  0
35560  35961  35561  0
35963  35561  35961  0
35561  35963  35552  0
35567  35763  35964  0
35567  35964  35962  0
35751  35965  35753  0
35753  35965  35966  0
35753  35966  35754  0
35754  35966  35759  0
35759  35967  35760  0
35760  35967  35968  0
35760  35968  35755  0
35755  35968  35969  0
35755  35969  35756  0
35756  35969  35761  0
35761  35970  35758  0
35758  35970  35971  0
35758  35971  35752  0
35763  35972  35973  0
35763  35973  35964  0
35966  35974  35759  0
35759  35974  35967  0
35968  35967  35974  0
35969  35975  35761  0
35970  35761  35975  0
35970  35976  35971  0
35971  35762  35752  0
35977  35762  35971  0
35972  35763  35764  0
35762  35977  35766  0
35764  35978  35972  0
35979  35766  35977  0
35764  35980  35981  0
35764  35981  35978  0
35982  35768  35769  0
35982  35769  35983  0
35769  35770  35772  0
35769  35772  35983  0
35772  35774  35984  0
35772  35984  35983  0
35774  35985  35984  0
35979  35775  35767  0
35979  35767  35766  0
35985  35775  35979  0
35980  35764  35570  0
35768  35986  35578  0
35987  35578  35986  0
35774  35775  35985  0
35778  35578  35987  0
35988  35778  35987  0
35570  35776  35980  0
35778  35988  35989  0
35776  35582  35990  0
35778  35989  35777  0
35990  35582  35583  0
35990  35583  35781  0
35990  35781  35991  0
35992  35780  35779  0
35779  35993  35992  0
35779  35587  35993  0
35587  35588  35993  0
35781  35782  35994  0
35995  35593  35780  0
35995  35780  35996  0
35780  35992  35996  0
35588  35350  35997  0
35998  35999  35785  0
35998  35785  35595  0
35998  36000  36001  0
35998  36001  35999  0
35998  35595  36000  0
35999  35783  35785  0
35999  36001  36002  0
35999  36002  35783  0
35783  36002  35782  0
35598  35593  35995  0
35598  35995  36003  0
35350  35784  35997  0
35595  35790  36000  0
36004  35602  35786  0
36004  36005  35602  0
35786  35598  36003  0
35786  36003  36004  0
35790  35604  35792  0
35790  35792  36006  0
35792  35791  36007  0
35792  36007  36006  0
35791  35599  36008  0
35791  36008  36007  0
35599  35602  36005  0
35599  36005  36008  0
35787  35793  36009  0
35787  36009  35784  0
35793  35794  36010  0
35793  36010  36011  0
35793  36011  36012  0
35793  36012  36009  0
35789  36013  35607  0
35794  35795  36010  0
36010  35795  35800  0
36010  35800  36014  0
36010  36014  36015  0
36010  36015  36011  0
36014  35800  35801  0
36014  35801  36016  0
36016  35801  35802  0
35802  35796  36017  0
35802  36017  36016  0
35796  35797  36018  0
35796  36018  36017  0
35797  36019  36018  0
35797  35798  36019  0
35607  36013  35803  0
35615  35803  36020  0
35615  36020  35616  0
35616  36021  35620  0
35616  36020  36021  0
35798  35804  36022  0
35798  36022  36023  0
35620  36021  36024  0
35620  36024  35805  0
35807  35805  35806  0
35804  35808  36025  0
35804  36025  36022  0
36026  35811  35812  0
36026  35812  35806  0
36026  36027  35811  0
35806  35805  36026  0
35808  36028  36025  0
35808  35623  36028  0
35810  35811  36027  0
35810  36027  35809  0
35623  35813  35817  0
35623  35817  36028  0
35625  35815  35814  0
35815  35816  36029  0
35626  36030  35816  0
35626  36031  36030  0
35814  35815  36029  0
35814  36029  36032  0
35814  36032  35818  0
35626  35630  36031  0
35818  36032  35819  0
35630  35820  36031  0
35821  35822  36033  0
35821  36033  36034  0
35821  36034  35820  0
36033  35822  35823  0
36033  35823  36034  0
35412  36035  35634  0
35412  35634  35415  0
35824  35823  35633  0
35634  36035  35825  0
35824  35635  36036  0
35825  36037  35826  0
36038  36036  35635  0
35635  35637  36038  0
35639  35826  36039  0
35637  35827  36038  0
36040  36038  35827  0
35639  36039  35828  0
35829  35827  35638  0
35828  36041  35640  0
35829  35640  36042  0
36041  36042  35640  0
36043  35830  35831  0
35830  36043  35641  0
35832  35641  36043  0
36044  35643  35833  0
35643  36044  35831  0
35832  36043  36045  0
35832  36045  35834  0
36046  35833  35839  0
35833  36046  36044  0
36044  36047  35831  0
36048  36044  36046  0
35834  36049  35840  0
36050  35840  36049  0
35834  36045  36049  0
35835  36051  35836  0
36052  35836  36051  0
35836  36052  35837  0
35842  35837  36052  0
36053  35839  35843  0
35839  36053  36046  0
36054  36046  36053  0
36046  36054  36048  0
35848  35650  35654  0
35650  35848  35835  0
36051  35835  35848  0
36051  36055  36052  0
35842  36052  36055  0
36056  35843  35847  0
35843  36056  36053  0
36057  36053  36056  0
36058  36053  36057  0
36053  36058  36054  0
36059  36054  36058  0
35840  36050  35844  0
36060  35844  36050  0
35848  35851  36051  0
36055  36051  35851  0
36055  36061  35842  0
36062  35842  36061  0
35842  36062  35845  0
35846  35845  36062  0
35846  36063  35847  0
36064  35847  36063  0
35847  36064  36056  0
36056  36064  36057  0
36065  36058  36057  0
36058  36065  36059  0
36066  35652  35844  0
35844  36060  36066  0
35854  36055  35851  0
36055  35854  36061  0
35856  36061  35854  0
36061  35856  36062  0
36067  36062  35856  0
36062  36067  35846  0
36068  35846  36067  0
35846  36068  36063  0
36064  36069  36057  0
36065  36057  36069  0
35652  36066  35852  0
35857  36067  35856  0
36067  35857  36068  0
36070  36068  35857  0
36068  36070  36063  0
36063  36070  36064  0
36069  36064  36070  0
36069  36071  36065  0
35852  36066  36072  0
35857  35858  36070  0
36070  36073  36069  0
36069  36073  36071  0
35656  36074  35859  0
35656  35852  36074  0
36072  36074  35852  0
36075  35659  35859  0
35869  35863  35862  0
35863  35869  35864  0
36076  35864  35869  0
35864  36077  35865  0
36078  35865  36077  0
35865  36078  35866  0
36079  35866  36078  0
35866  36079  35867  0
36080  35868  35867  0
36075  35668  35659  0
35869  35870  36076  0
36081  36076  35870  0
35868  36080  35871  0
36082  35871  36080  0
36083  35663  35874  0
35870  35671  36084  0
35872  36084  35671  0
35870  36084  36081  0
35873  35871  36082  0
36085  36083  35874  0
35668  36075  35877  0
36086  35872  35672  0
36082  36087  35873  0
36088  35873  36087  0
35874  35876  36085  0
35674  36089  35672  0
35672  36089  36086  0
36090  36086  36089  0
35873  35879  35875  0
35873  36088  35879  0
36091  35879  36088  0
36092  35683  35881  0
36093  36090  36089  0
35878  35879  36094  0
35879  36091  36094  0
35876  35882  36095  0
35678  36096  35677  0
36089  35674  36093  0
35690  36093  35674  0
35683  36092  35886  0
35678  36097  36096  0
35678  35884  36097  0
36098  35677  36096  0
35677  36098  35885  0
36099  35885  36098  0
36100  35690  35891  0
36094  35883  35878  0
36094  36101  35883  0
35471  35898  35882  0
35886  36102  35887  0
35884  35889  36097  0
36103  36097  35889  0
36099  36104  35885  0
35890  35885  36104  0
36099  36098  36104  0
36105  36104  36098  0
35892  35883  36101  0
36104  36106  35890  0
35895  35890  36106  0
36104  36105  36106  0
36107  36106  36105  0
35891  35696  36100  0
36101  36108  35892  0
35897  36109  35898  0
35902  35887  36110  0
35887  35902  35893  0
35889  35894  35900  0
35889  35900  35907  0
35889  35907  36103  0
36106  35904  35895  0
36106  36107  35904  0
36111  35904  36107  0
35696  36112  36100  0
35892  36108  35692  0
35897  35692  36108  0
35909  36113  35907  0
36103  35907  36113  0
35909  36114  36113  0
35904  36111  35905  0
36112  35696  35703  0
36112  35703  35915  0
36112  35915  36115  0
35906  35902  36116  0
36117  35910  35905  0
36117  35905  36111  0
36117  36111  36118  0
36119  36117  36118  0
35915  35916  36120  0
35915  36120  36115  0
35909  35912  36121  0
35909  36121  36114  0
36117  36122  35914  0
36117  35914  35910  0
36117  36119  36122  0
35918  35919  36123  0
35918  36123  35912  0
35912  36123  36121  0
36124  35914  36122  0
35914  36124  35913  0
35916  35920  36125  0
36126  35917  35906  0
36127  35917  36126  0
35709  35921  35923  0
35923  36128  35922  0
36129  35922  36128  0
35923  35921  36130  0
35923  36130  36128  0
35922  36129  35919  0
36123  35919  36129  0
35924  35913  36124  0
35920  35725  35931  0
35920  35931  36131  0
35920  36131  36125  0
36131  36132  36133  0
35917  36127  35707  0
36134  35707  36127  0
35707  36134  35708  0
36135  35708  36134  0
35708  36135  35925  0
35925  35926  35719  0
35921  35723  36136  0
35924  35929  35714  0
35931  35930  36131  0
36131  35930  36132  0
35935  35926  35925  0
35723  35936  36136  0
35929  36137  35724  0
35930  35728  35943  0
35930  35943  36132  0
35932  35928  36138  0
35928  35933  36138  0
35933  35934  36139  0
36139  35934  35935  0
35937  35938  35936  0
35730  35939  35938  0
35724  36137  35727  0
35932  36138  35941  0
36138  35933  36140  0
35933  36141  36140  0
35933  36139  36141  0
35939  35731  36142  0
36137  36143  35727  0
35727  36143  36144  0
35940  35941  35944  0
35731  35733  36145  0
35731  36145  36142  0
35727  36144  35945  0
35733  35949  36145  0
35523  35736  35947  0
35737  35948  36146  0
35737  36146  36147  0
35526  35737  36147  0
35950  35738  36148  0
35526  36147  35951  0
35738  35528  36149  0
35528  35952  36149  0
35741  36150  36151  0
35741  36151  35742  0
35741  35954  36150  0
35742  36151  35955  0
35955  36152  35745  0
35745  35957  35747  0
35745  36152  36153  0
35952  35552  36154  0
35953  36155  35740  0
35954  35956  36156  0
35745  36153  36157  0
35745  36157  35957  0
35957  36157  36158  0
35957  36158  35958  0
35740  36155  36159  0
35749  35959  36160  0
35749  36160  35956  0
35959  35565  35962  0
35959  35962  36161  0
35959  36161  36160  0
35958  36158  36162  0
35958  36162  35960  0
35960  36162  35961  0
36159  35751  35740  0
35961  36162  36163  0
35961  36163  35963  0
36159  36164  35965  0
36159  35965  35751  0
35962  36165  36161  0
35965  36164  36166  0
35962  35964  36167  0
35973  36167  35964  0
35962  36167  36165  0
36168  36165  36167  0
35965  36166  36169  0
35965  36169  35966  0
35966  36169  35974  0
35974  36169  36170  0
35974  36170  35968  0
35968  36170  36171  0
35968  36171  35969  0
35969  36171  35975  0
35975  36172  35970  0
35970  36172  35976  0
35976  36173  35971  0
35977  35971  36173  0
36168  36167  36174  0
36168  36174  36175  0
36176  36175  36174  0
36167  35973  36174  0
35972  36174  35973  0
36173  36177  35977  0
36178  36176  36174  0
36174  35972  36179  0
35978  36179  35972  0
36180  35985  36177  0
35979  36177  35985  0
36173  36180  36177  0
36177  35979  35977  0
36174  36179  36178  0
36181  36178  36179  0
36179  35978  36181  0
36182  36181  35978  0
36183  36184  35986  0
35986  35768  35982  0
35986  35982  36183  0
35982  35983  36183  0
36185  36183  35983  0
35984  36185  35983  0
35984  35985  36186  0
36180  36186  35985  0
35978  35981  36182  0
36187  36182  35981  0
35981  35980  35990  0
35776  35990  35980  0
35981  35990  36187  0
35988  36188  35989  0
35991  36189  36187  0
35991  36187  35990  0
36190  36189  35991  0
36191  36192  36193  0
36190  35994  36194  0
35994  35991  35781  0
35994  36190  35991  0
35992  35993  36195  0
36196  36195  35993  0
35588  36196  35993  0
36193  36197  36001  0
36002  36001  36197  0
36193  36001  36191  0
36197  35994  36002  0
35782  36002  35994  0
36197  36193  36194  0
36197  36194  35994  0
36198  35996  35992  0
36199  36196  35588  0
35997  36199  35588  0
35777  36200  35589  0
36201  35589  36200  0
36191  36001  36000  0
36003  35995  36202  0
35996  36202  35995  0
35788  35589  36201  0
36000  35790  36203  0
36004  36204  36005  0
36004  36003  36204  0
36202  36204  36003  0
35784  36205  35997  0
36206  35788  36201  0
35790  36006  36203  0
36006  36007  36207  0
36007  36008  36208  0
36209  36208  36008  0
36007  36208  36207  0
36008  36005  36209  0
36205  35784  36210  0
35784  36009  36210  0
36211  36210  36009  0
35788  36206  35789  0
36009  36012  36211  0
36212  36211  36012  0
36015  36012  36011  0
36213  36212  36012  0
36012  36015  36213  0
36214  36213  36015  0
35789  36206  36013  0
36015  36014  36214  0
36014  36016  36214  0
36215  36214  36016  0
36016  36017  36215  0
36216  36018  36019  0
36217  36216  36019  0
36019  35798  36217  0
36218  36013  36219  0
36013  36218  35803  0
35798  36023  36217  0
35803  36218  36020  0
36220  36020  36218  0
36020  36220  36021  0
36221  36021  36220  0
36024  36021  36221  0
36023  36022  36217  0
36025  36217  36022  0
36222  35805  36024  0
36222  36223  36026  0
36026  36223  36027  0
36026  35805  36222  0
36224  35809  36027  0
36028  35817  36225  0
35816  36226  36029  0
36227  36032  36029  0
36228  35809  36224  0
35809  36228  35412  0
35817  35631  36229  0
35819  36229  35631  0
36229  35819  36032  0
36229  36032  36230  0
36227  36230  36032  0
36035  35412  36228  0
36035  36231  35825  0
36232  35825  36231  0
35824  36036  36233  0
36037  35825  36232  0
36234  36233  36036  0
36036  36038  36234  0
36039  35826  36037  0
36040  36234  36038  0
36039  36235  35828  0
35827  35829  36236  0
35829  36042  36236  0
36041  36236  36042  0
36237  35831  36047  0
35831  36237  36043  0
36045  36043  36237  0
36044  36048  36047  0
36048  36054  36238  0
36048  36238  36047  0
36237  36047  36239  0
36237  36239  36045  0
36045  36240  36049  0
36241  36050  36049  0
36054  36059  36242  0
36054  36242  36238  0
36238  36239  36047  0
36243  36050  36241  0
36050  36243  36060  0
36244  36060  36243  0
36065  36245  36059  0
36066  36060  36244  0
36245  36065  36246  0
36065  36071  36246  0
35858  36247  36070  0
35858  36248  36247  0
36070  36247  36073  0
36249  36071  36073  0
36246  36071  36249  0
36072  36066  36250  0
35858  35861  36248  0
35864  36076  36251  0
35864  36251  36077  0
36077  36252  36078  0
36253  36078  36252  0
36078  36253  36079  0
36079  36253  36080  0
36079  36080  35867  0
36076  36081  36254  0
36076  36254  36251  0
36253  36255  36080  0
36256  36080  36255  0
36080  36256  36082  0
36083  36257  35663  0
35861  35663  36257  0
36082  36256  36087  0
36088  36087  36256  0
36075  35880  35877  0
36075  36258  35880  0
36084  35872  36086  0
36084  36086  36259  0
36084  36259  36260  0
36084  36260  36081  0
36261  36088  36262  0
35880  36263  35881  0
35880  36258  36263  0
36259  36086  36090  0
36259  36264  36260  0
36088  36261  36091  0
36265  36091  36261  0
35876  36095  36085  0
35881  36263  36266  0
36259  36090  36264  0
36090  36093  36267  0
36090  36267  36264  0
36091  36101  36094  0
36091  36265  36101  0
35882  36268  36095  0
35882  35898  36268  0
35886  36092  36269  0
36097  36270  36096  0
36096  36270  36271  0
36096  36271  36098  0
36093  35690  36100  0
36093  36100  36272  0
36093  36272  36267  0
36270  36097  36273  0
36271  36274  36105  0
36271  36105  36098  0
36271  36270  36273  0
36271  36273  36274  0
36100  36275  36272  0
36101  36265  36276  0
36101  36276  36108  0
35898  36109  36268  0
36110  35887  36102  0
36103  36273  36097  0
36274  36277  36107  0
36274  36107  36105  0
36274  36273  36278  0
36274  36278  36277  0
36100  36112  36275  0
36108  36276  36279  0
36277  36280  36111  0
36277  36111  36107  0
36277  36278  36280  0
36112  36281  36275  0
36108  36279  36282  0
36108  36282  35897  0
35897  36282  36109  0
36280  36118  36111  0
36280  36278  36283  0
36280  36283  36118  0
36281  36112  36115  0
36281  36115  36284  0
36116  36285  35906  0
36118  36283  36119  0
36115  36120  36284  0
36114  36121  36286  0
36114  36286  36287  0
36287  36286  36288  0
36119  36283  36289  0
36119  36289  36122  0
36120  35916  36125  0
36120  36125  36290  0
36290  36125  36133  0
36290  36133  36291  0
36291  36133  36292  0
36291  36292  36293  0
35906  36285  36126  0
36286  36294  36288  0
36122  36289  36295  0
36122  36295  36124  0
36125  36131  36133  0
36292  36133  36132  0
36292  36132  36296  0
36292  36296  36293  0
36128  36297  36129  0
36128  36130  36298  0
36128  36298  36297  0
36129  36297  36299  0
36129  36299  36123  0
36123  36299  36121  0
36121  36299  36294  0
36121  36294  36286  0
36124  36300  35929  0
36124  35929  35924  0
36124  36295  36300  0
36127  36301  36134  0
36135  36302  35925  0
36135  36134  36303  0
36135  36303  36302  0
36132  35943  36296  0
36304  36296  35943  0
35925  36302  36305  0
35925  36305  35935  0
35921  36136  36130  0
36306  36130  36136  0
35929  36300  36137  0
35935  36307  36139  0
36136  35936  36306  0
36308  36306  35936  0
35936  35938  36308  0
36309  36308  35938  0
35938  35939  36309  0
36310  36309  35939  0
35943  36311  36304  0
36312  35941  36138  0
36138  36140  36312  0
36140  36313  36312  0
36314  36140  36141  0
36141  36139  36314  0
36307  36314  36139  0
36315  36310  35939  0
35939  36142  36315  0
35943  36316  36311  0
35943  35942  36316  0
35941  36312  36313  0
35941  36313  36317  0
35941  36317  35944  0
36143  36318  36144  0
35947  35942  35734  0
35946  35948  35735  0
36319  35946  35944  0
36317  36319  35944  0
35945  36144  36320  0
35945  36320  35736  0
35736  36320  36321  0
35736  36321  35947  0
36145  35949  36322  0
35950  36323  35949  0
36148  36323  35950  0
35738  36149  36324  0
35953  35739  35951  0
36150  36325  36151  0
36326  36151  36325  0
36151  36326  35955  0
36152  35955  36326  0
36156  36150  35954  0
36152  36327  36153  0
36157  36153  36327  0
35963  36154  35552  0
36156  35956  36328  0
36329  36328  35956  0
35956  36160  36329  0
36330  36329  36160  0
36160  36161  36330  0
36331  36330  36161  0
36332  36158  36333  0
36158  36332  36162  0
36164  36159  36334  0
36335  36331  36161  0
36336  36162  36337  0
36162  36336  36163  0
36161  36165  36335  0
36338  36335  36165  0
36339  36340  36341  0
36340  36339  36342  0
36339  36343  36342  0
36344  36166  36164  0
36175  36345  36346  0
36347  36346  36348  0
36346  36345  36348  0
36349  36348  36345  0
36346  36165  36175  0
36168  36175  36165  0
36346  36347  36165  0
36338  36165  36347  0
36350  36341  36351  0
36341  36352  36339  0
36353  36339  36352  0
36354  36343  36339  0
36343  36354  36355  0
36356  36355  36354  0
36166  36344  36169  0
36169  36344  36357  0
36358  36357  36344  0
36169  36357  36170  0
36359  36170  36357  0
36170  36359  36171  0
36360  36171  36359  0
36171  36360  35975  0
35975  36360  36172  0
36173  35976  36172  0
36361  36345  36362  0
36361  36349  36345  0
36345  36175  36362  0
36176  36362  36175  0
36341  36350  36352  0
36363  36352  36350  0
36354  36339  36353  0
36354  36364  36356  0
36365  36357  36358  0
36357  36365  36359  0
36359  36366  36360  0
36367  36360  36366  0
36359  36365  36366  0
36186  36360  36367  0
36360  36186  36172  0
36180  36172  36186  0
36172  36180  36173  0
36361  36362  36368  0
36369  36368  36362  0
36370  36371  36362  0
36362  36371  36369  0
36362  36176  36370  0
36178  36370  36176  0
36363  36353  36352  0
36353  36372  36354  0
36183  36373  36184  0
36373  36183  36374  0
36374  36183  36366  0
36185  36366  36183  0
36374  36366  36365  0
36366  36185  36367  0
35984  36367  36185  0
36367  35984  36186  0
36375  36371  36370  0
36370  36178  36376  0
36181  36376  36178  0
36370  36376  36375  0
36353  36363  36372  0
36377  36354  36372  0
36354  36377  36364  0
36378  36364  36377  0
35986  36184  35987  0
36379  35987  36184  0
36380  36381  36376  0
36381  36382  36376  0
36375  36376  36382  0
36376  36181  36380  0
36182  36380  36181  0
36381  36380  36383  0
36381  36383  36382  0
36380  36182  36187  0
36380  36187  36189  0
36380  36189  36384  0
36380  36384  36383  0
36385  36386  36193  0
36385  36193  36192  0
36385  36192  36387  0
36386  36388  36194  0
36386  36194  36193  0
36384  36388  36386  0
36388  36189  36190  0
36388  36190  36194  0
36388  36384  36189  0
36192  36191  36389  0
36192  36389  36387  0
35992  36195  36198  0
36195  36390  36198  0
36195  36196  36390  0
35989  36391  35777  0
36200  35777  36391  0
35996  36198  36392  0
36198  36393  36392  0
36198  36390  36393  0
36390  36394  36393  0
36390  36196  36394  0
36196  36199  36395  0
36196  36395  36396  0
36196  36396  36394  0
36000  36203  36191  0
36191  36203  36389  0
36202  35996  36397  0
35996  36398  36397  0
36395  36199  36205  0
36199  35997  36205  0
36202  36397  36204  0
36205  36210  36399  0
36205  36399  36400  0
36201  36401  36206  0
36203  36006  36402  0
36006  36207  36403  0
36006  36403  36402  0
36209  36404  36208  0
36005  36204  36405  0
36005  36405  36209  0
36399  36210  36211  0
36399  36211  36406  0
36399  36406  36400  0
36206  36401  36407  0
36208  36404  36207  0
36406  36211  36408  0
36211  36212  36408  0
36212  36213  36409  0
36213  36214  36410  0
36213  36410  36411  0
36213  36411  36409  0
36410  36214  36412  0
36410  36412  36411  0
36206  36219  36013  0
36206  36407  36219  0
36214  36215  36412  0
36018  36216  36017  0
36218  36219  36413  0
36218  36413  36414  0
36218  36414  36220  0
36221  36415  36024  0
36217  36025  36416  0
36217  36416  36216  0
36024  36415  36417  0
36024  36417  36222  0
36025  36028  36418  0
36025  36418  36416  0
36419  36027  36223  0
36222  36417  36223  0
36028  36225  36420  0
36028  36420  36418  0
36224  36027  36419  0
36225  35817  36421  0
36225  36421  36420  0
36226  35816  36422  0
36226  36422  36423  0
35816  36424  36422  0
35816  36030  36424  0
35817  36229  36421  0
36029  36226  36423  0
36029  36423  36227  0
36031  35820  36425  0
35820  36034  36426  0
35820  36426  36425  0
36228  36427  36035  0
36034  35823  36428  0
36034  36428  36426  0
35823  36429  36428  0
36035  36427  36231  0
35823  35824  36233  0
35823  36233  36430  0
35823  36430  36429  0
36430  36233  36431  0
36231  36432  36232  0
36232  36433  36037  0
36037  36433  36434  0
36037  36434  36039  0
36234  36040  36435  0
36039  36434  36235  0
36040  35827  36236  0
36040  36236  36435  0
36235  36041  35828  0
36235  36436  36041  0
36045  36239  36240  0
36240  36241  36049  0
36241  36240  36437  0
36241  36437  36243  0
36238  36438  36239  0
36238  36242  36439  0
36238  36439  36438  0
36059  36440  36439  0
36059  36439  36242  0
36059  36245  36441  0
36059  36441  36440  0
36245  36442  36441  0
36245  36246  36442  0
36066  36244  36443  0
36247  36248  36444  0
36247  36444  36073  0
36246  36249  36442  0
36250  36066  36443  0
36445  36248  35861  0
36445  36446  36447  0
36445  36447  36248  0
36445  36257  36446  0
36248  36447  36444  0
36073  36444  36448  0
36448  36249  36073  0
36074  36072  36449  0
36074  36449  36450  0
36074  36450  35859  0
36072  36250  36449  0
36077  36251  36252  0
36451  36252  36251  0
36252  36451  36253  0
36253  36451  36452  0
36445  35861  36257  0
36075  35859  36450  0
36075  36450  36258  0
36453  36251  36454  0
36254  36454  36251  0
36251  36453  36455  0
36251  36455  36451  0
36253  36452  36255  0
36255  36456  36256  0
36255  36457  36456  0
36083  36458  36257  0
36257  36458  36459  0
36460  36459  36458  0
36454  36254  36461  0
36081  36461  36254  0
36456  36262  36256  0
36088  36256  36262  0
36462  36460  36458  0
36458  36083  36085  0
36258  36450  36463  0
36258  36463  36263  0
36461  36081  36464  0
36260  36464  36081  0
36262  36456  36465  0
36262  36465  36261  0
36458  36085  36466  0
36458  36466  36462  0
36263  36463  36467  0
36263  36467  36266  0
36266  36467  36468  0
36469  36464  36260  0
36470  36471  36261  0
36265  36261  36471  0
36470  36261  36472  0
36465  36472  36261  0
36462  36466  36473  0
36466  36085  36095  0
35881  36266  36092  0
36468  36474  36266  0
36266  36474  36092  0
36260  36264  36469  0
36475  36469  36264  0
36476  36475  36264  0
36264  36267  36471  0
36477  36471  36267  0
36264  36471  36476  0
36470  36476  36471  0
36471  36477  36265  0
36466  36095  36268  0
36466  36268  36473  0
36474  36269  36092  0
36473  36268  36478  0
35886  36269  36479  0
35886  36479  36102  0
36480  36267  36481  0
36272  36481  36267  0
36482  36267  36480  0
36483  36480  36481  0
36267  36482  36477  0
36484  36477  36482  0
36477  36484  36265  0
36485  36478  36268  0
36486  36102  36479  0
36481  36272  36483  0
