#!ascii file
33185  33186  33187  0
33189  33376  32988  0
33186  33192  33187  0
33377  33187  33192  0
33187  33377  33188  0
33378  33189  33194  0
33190  33379  32994  0
33192  33193  33377  0
33380  32994  33379  0
32994  33380  33196  0
33194  33195  33381  0
33382  33195  33198  0
33383  32999  33196  0
33197  33199  33384  0
33385  33384  33199  0
33386  33000  32997  0
33386  32997  33387  0
32999  33383  33201  0
33199  33005  33385  0
33206  33385  33005  0
33386  33388  33000  0
33210  33000  33388  0
33389  33198  33200  0
33198  33389  33382  0
33390  33002  33208  0
33002  33390  33202  0
33391  33204  33203  0
33204  33391  33205  0
33392  33205  33391  0
33393  33205  33392  0
33205  33393  33209  0
33209  33393  33009  0
33394  33009  33393  0
33009  33394  33206  0
33000  33210  33006  0
33395  33382  33389  0
33212  33208  33008  0
33208  33212  33396  0
33200  33395  33389  0
33200  33211  33395  0
33397  33395  33211  0
33398  32796  33207  0
32796  33213  33007  0
32796  33398  33213  0
33212  33214  33399  0
33400  33399  33214  0
33215  33401  33214  0
33214  33401  33400  0
33402  33401  33215  0
33012  33403  33216  0
33404  33211  33018  0
33211  33404  33397  0
33405  33013  33213  0
33217  33406  33215  0
33215  33406  33402  0
33407  33402  33406  0
33022  33016  33216  0
33408  33018  33017  0
33018  33409  33404  0
33018  33408  33409  0
33405  33014  33013  0
33218  33406  33217  0
33406  33218  33407  0
33410  33407  33218  0
33411  33023  33022  0
33023  33411  33024  0
33408  33017  33024  0
32815  33019  33412  0
33019  33014  33412  0
33218  33219  33221  0
33218  33221  33410  0
33413  33410  33221  0
33414  32819  32815  0
33223  33413  33221  0
33221  33220  33223  0
33222  33415  33223  0
32819  33414  33028  0
33416  33222  33224  0
33417  33416  33224  0
33418  33030  33029  0
33224  33225  33417  0
33030  33418  33227  0
33225  33229  33417  0
33419  33417  33229  0
33035  33034  33226  0
33037  33420  33038  0
33421  33038  33420  0
33039  33038  33421  0
33230  33422  33231  0
33423  33231  33422  0
33424  33422  33230  0
33231  33423  33233  0
33425  33229  33048  0
33226  33426  33035  0
33228  33035  33426  0
33420  33037  33228  0
33421  33427  33039  0
33040  33039  33427  0
33230  33232  33424  0
33233  33428  33236  0
33233  33236  33234  0
33233  33423  33428  0
33238  33429  33425  0
33238  33425  33048  0
33238  33430  33429  0
33427  33431  33040  0
33232  33046  33432  0
33046  33235  33432  0
33236  33428  33433  0
33433  33434  33241  0
33433  33241  33236  0
33434  33245  33241  0
33435  33238  33237  0
33435  33237  33242  0
33435  33430  33238  0
33239  33040  33431  0
33235  33240  33436  0
33434  33437  33245  0
33437  33438  33246  0
33437  33246  33245  0
33438  33439  33055  0
33438  33055  33246  0
33439  33242  33055  0
33242  33439  33435  0
33244  33239  33440  0
33244  33440  33441  0
33442  33249  33443  0
33442  33444  33249  0
33240  33047  33445  0
33240  33445  33436  0
33243  33244  33446  0
33244  33441  33446  0
33443  33249  33248  0
33443  33248  33447  0
33249  33444  33448  0
33249  33448  33251  0
33047  33053  33445  0
33053  33059  33449  0
33053  33449  33445  0
33247  33051  33450  0
33247  33450  33451  0
33051  33243  33446  0
33051  33446  33450  0
33447  33248  33250  0
33447  33250  33452  0
33058  33251  33254  0
33059  33252  33453  0
33059  33453  33449  0
33253  33247  33451  0
33253  33451  33454  0
33254  33455  33456  0
33457  33250  33257  0
33457  33257  33458  0
33254  33456  33060  0
33060  33456  33258  0
32653  33061  33459  0
32653  33459  33252  0
33255  33253  33460  0
33255  33460  33256  0
33257  33260  33458  0
33461  33260  33265  0
33461  33458  33260  0
33063  33261  33066  0
33263  33264  33067  0
33266  33462  33461  0
33266  33461  33265  0
33266  33463  33462  0
33261  33464  33066  0
33066  33464  33465  0
33066  33465  33262  0
33262  33465  33466  0
33262  33466  33263  0
33263  33466  33467  0
33263  33467  33264  0
33266  33267  33463  0
33267  33074  33273  0
33267  33273  33468  0
33267  33468  33469  0
33267  33469  33463  0
33071  33270  33470  0
33071  33470  33268  0
33269  33268  33470  0
33269  33470  33471  0
33269  33471  33472  0
33269  33472  33274  0
33272  33276  33273  0
33081  33280  33285  0
33280  33473  33285  0
33277  33078  33474  0
33078  33281  33474  0
33080  33274  33282  0
33276  33279  33475  0
33285  33473  33476  0
33079  33082  33281  0
33288  33477  33284  0
33288  33089  33478  0
33279  33284  33475  0
33286  33285  33476  0
33082  32890  33291  0
33287  33479  33088  0
33089  33294  33478  0
33290  33286  33476  0
33480  33290  33476  0
33481  33082  33291  0
33292  33088  33479  0
33482  33294  33090  0
33092  33295  33296  0
33483  33296  33295  0
33295  33484  33483  0
33485  33484  33295  0
33295  33094  33485  0
33486  33485  33094  0
33094  33095  33486  0
33095  33289  33486  0
33290  33486  33289  0
33291  33098  33481  0
33096  33293  33292  0
33090  33296  33482  0
33483  33482  33296  0
33098  33099  33481  0
33487  33481  33099  0
33297  33488  33099  0
33099  33488  33487  0
32901  33096  33489  0
32901  33489  33101  0
33490  33101  33489  0
33491  33492  33488  0
33488  33297  33491  0
33305  33101  33490  0
33493  33107  33302  0
33107  33493  33298  0
33299  33494  33300  0
33495  33300  33494  0
33492  33494  33299  0
33494  33492  33495  0
33496  33495  33492  0
33492  33491  33496  0
33491  33297  33496  0
33301  33496  33297  0
33497  33302  33303  0
33300  33495  33498  0
33300  33498  33304  0
33499  33304  33498  0
33495  33496  33498  0
33500  33498  33496  0
33501  33500  33496  0
33496  33301  33501  0
33305  33502  33110  0
33311  33497  33303  0
33503  33308  33306  0
33306  33304  33503  0
33307  33501  33301  0
33117  33311  33303  0
33119  33308  33121  0
33311  33310  33504  0
33121  33308  33505  0
33121  33505  33313  0
33506  33313  33505  0
33110  33502  33312  0
33314  33507  33315  0
33316  33315  33507  0
33507  33508  33316  0
33317  33316  33508  0
33504  33123  33318  0
33123  33504  33310  0
33313  33506  33124  0
33509  33124  33506  0
33127  33309  33122  0
33320  33309  33127  0
33510  33314  33130  0
33511  33510  33130  0
33317  33512  33133  0
33512  33134  33133  0
33318  33134  33512  0
33509  33319  33124  0
33513  33125  33319  0
33130  33321  33511  0
33514  33324  33325  0
33515  33324  33514  0
33326  33514  33325  0
33513  33135  33125  0
33516  33128  33312  0
33321  33324  33515  0
33329  33326  33139  0
33128  33516  33328  0
33331  33330  33517  0
33332  33518  33140  0
33143  33328  33335  0
33518  33330  33140  0
32927  33339  33334  0
33334  33339  33519  0
33344  33339  33338  0
33337  33520  33146  0
33521  33146  33520  0
33146  33521  32928  0
33340  32928  33521  0
33522  33342  33523  0
33524  33342  33522  0
33342  33524  33343  0
33154  33343  33525  0
33343  33524  33525  0
33155  33154  33525  0
33155  33525  33344  0
33344  33338  33152  0
33147  33152  33338  0
33340  33526  33341  0
33341  33345  33148  0
33341  33526  33527  0
33341  33527  33345  0
33156  33345  33346  0
33528  33150  33151  0
33346  33347  33158  0
33151  33157  33528  0
33529  33528  33157  0
33350  33160  33530  0
33350  33530  33531  0
33530  33160  33351  0
33530  33351  33532  0
33167  33533  32938  0
33167  33162  33534  0
33167  33534  33535  0
33534  33162  33353  0
33353  33354  33536  0
33159  33347  33537  0
33159  33537  33538  0
33157  33348  33529  0
33349  33350  33539  0
33351  33352  33540  0
32938  33533  33541  0
32938  33541  33165  0
33354  33168  33542  0
33354  33542  33543  0
33354  33543  33536  0
33352  33164  33544  0
33165  33541  33545  0
33165  33545  33166  0
33542  33546  33543  0
33357  33361  32955  0
33164  33358  33544  0
33544  33358  33547  0
33166  33545  33359  0
32946  33171  33360  0
33358  33548  33547  0
33359  33549  33362  0
33170  33360  33363  0
33360  33171  33550  0
33169  32956  33358  0
33358  32956  33548  0
33173  33362  33549  0
33173  33549  33551  0
33366  33552  32963  0
32956  33174  33548  0
33174  33173  33551  0
33174  33551  33548  0
32963  33552  33176  0
33365  33175  33553  0
33175  33367  33553  0
33176  33552  33554  0
33176  33554  32967  0
32967  33554  33555  0
32967  33555  33177  0
33369  33556  33178  0
33368  33557  33367  0
33368  33370  33557  0
33179  33178  33556  0
33180  33375  33372  0
33372  33558  33559  0
33372  33559  33181  0
33372  33375  33558  0
33181  33559  33560  0
33181  33560  33373  0
33182  33373  33561  0
33182  33561  33374  0
33374  33561  33562  0
33184  33563  33375  0
33190  33374  33562  0
33190  33562  33379  0
33379  33562  33564  0
33379  33564  33565  0
33380  33379  33565  0
33566  33388  33386  0
33195  33382  33567  0
33195  33567  33381  0
33196  33380  33568  0
33196  33568  33383  0
33569  33384  33385  0
33570  33202  33390  0
33570  33390  33571  0
33570  33572  33203  0
33570  33203  33202  0
33570  33573  33572  0
33572  33391  33203  0
33574  33572  33573  0
33572  33575  33391  0
33572  33574  33575  0
33576  33575  33574  0
33575  33577  33392  0
33575  33392  33391  0
33575  33576  33577  0
33578  33577  33576  0
33577  33393  33392  0
33579  33577  33578  0
33577  33579  33393  0
33393  33580  33394  0
33393  33579  33580  0
33580  33581  33206  0
33580  33206  33394  0
33581  33385  33206  0
33582  33385  33581  0
33388  33403  33210  0
33208  33396  33390  0
33390  33396  33571  0
33583  33403  33584  0
33397  33382  33395  0
33585  33207  33001  0
33586  33207  33585  0
33399  33396  33212  0
33210  33403  33012  0
33207  33586  33398  0
33587  33213  33398  0
33401  33402  33400  0
33588  33400  33402  0
33589  33588  33402  0
33402  33407  33589  0
33403  33583  33216  0
33590  33397  33404  0
33213  33587  33405  0
33591  33405  33587  0
33592  33589  33407  0
33216  33411  33022  0
33216  33583  33411  0
33409  33408  33404  0
33593  33404  33408  0
33404  33593  33590  0
33594  33014  33405  0
33405  33591  33594  0
33407  33410  33592  0
33410  33413  33592  0
33595  33592  33413  0
33596  33024  33411  0
33024  33596  33408  0
33597  33408  33596  0
33408  33597  33593  0
33594  33412  33014  0
33598  33414  32815  0
32815  33412  33598  0
33599  33598  33412  0
33413  33223  33415  0
33413  33415  33595  0
33415  33222  33600  0
33416  33600  33222  0
33028  33414  33601  0
33028  33601  33029  0
33416  33417  33602  0
33029  33601  33418  0
33603  33418  33601  0
33604  33605  33606  0
33604  33606  33422  0
33423  33422  33606  0
33606  33607  33423  0
33608  33227  33418  0
33227  33608  33226  0
33609  33226  33608  0
33428  33423  33607  0
33610  33607  33611  0
33611  33612  33610  0
33613  33610  33612  0
33229  33425  33419  0
33614  33419  33425  0
33226  33609  33426  0
33228  33615  33420  0
33616  33420  33615  0
33420  33616  33421  0
33424  33232  33432  0
33433  33428  33607  0
33434  33433  33607  0
33607  33610  33434  0
33437  33434  33610  0
33610  33613  33437  0
33617  33437  33613  0
33614  33425  33429  0
33618  33429  33430  0
33616  33431  33421  0
33619  33431  33616  0
33421  33431  33427  0
33620  33432  33235  0
33235  33436  33620  0
33621  33437  33617  0
33437  33621  33438  0
33622  33435  33439  0
33618  33435  33622  0
33623  33622  33439  0
33435  33618  33430  0
33239  33431  33440  0
33431  33619  33440  0
33624  33440  33619  0
33625  33626  33436  0
33438  33621  33439  0
33623  33439  33621  0
33440  33624  33441  0
33627  33441  33624  0
33444  33442  33628  0
33442  33443  33628  0
33447  33628  33443  0
33436  33445  33625  0
33449  33625  33445  0
33446  33441  33629  0
33441  33627  33629  0
33448  33630  33251  0
33451  33450  33631  0
33632  33631  33450  0
33450  33446  33632  0
33633  33632  33446  0
33446  33629  33633  0
33251  33455  33254  0
33251  33630  33634  0
33251  33634  33455  0
33457  33635  33452  0
33636  33452  33635  0
33452  33250  33457  0
33253  33454  33460  0
33460  33454  33637  0
33638  33636  33635  0
33458  33635  33457  0
33258  33456  33639  0
33258  33639  33640  0
33258  33640  33061  0
33061  33640  33459  0
33461  33638  33635  0
33458  33461  33635  0
33256  33641  33259  0
33462  33642  33638  0
33462  33643  33642  0
33638  33461  33462  0
33641  33644  33259  0
33259  33644  33261  0
33462  33463  33645  0
33462  33645  33643  0
33646  33647  33648  0
33648  33647  33649  0
33649  33650  33648  0
33649  33647  33651  0
33649  33651  33650  0
33261  33644  33464  0
33652  33646  33653  0
33646  33652  33647  0
33264  33467  33654  0
33264  33654  33068  0
33469  33468  33655  0
33469  33655  33656  0
33652  33657  33647  0
33647  33657  33658  0
33271  33068  33654  0
33655  33468  33659  0
33471  33470  33660  0
33470  33270  33661  0
33470  33661  33660  0
33270  33271  33661  0
33468  33273  33659  0
33472  33662  33274  0
33472  33471  33663  0
33472  33663  33662  0
33273  33276  33664  0
33273  33664  33659  0
33280  33277  33665  0
33277  33474  33665  0
33274  33662  33666  0
33274  33666  33282  0
33473  33280  33667  0
33280  33665  33667  0
33281  33082  33668  0
33281  33668  33474  0
33282  33669  33283  0
33282  33666  33669  0
33477  33670  33284  0
33284  33670  33475  0
33475  33671  33276  0
33276  33671  33664  0
33473  33667  33480  0
33473  33480  33476  0
33082  33672  33668  0
33283  33669  33479  0
33283  33479  33287  0
33478  33673  33477  0
33478  33477  33288  0
33478  33294  33674  0
33478  33674  33673  0
33672  33082  33481  0
33669  33675  33479  0
33479  33676  33292  0
33479  33675  33676  0
33294  33482  33677  0
33294  33677  33674  0
33486  33290  33678  0
33290  33480  33678  0
33672  33481  33487  0
33672  33487  33679  0
33676  33680  33292  0
33292  33680  33096  0
33482  33483  33681  0
33482  33681  33677  0
33483  33682  33681  0
33483  33484  33682  0
33484  33683  33682  0
33484  33684  33683  0
33484  33485  33684  0
33485  33486  33685  0
33485  33685  33684  0
33486  33686  33685  0
33486  33678  33686  0
33679  33487  33488  0
33679  33488  33687  0
33680  33489  33096  0
33687  33492  33298  0
33687  33488  33492  0
33490  33489  33680  0
33688  33493  33302  0
33688  33689  33493  0
33298  33492  33299  0
33302  33690  33688  0
33691  33502  33305  0
33497  33690  33302  0
33498  33500  33499  0
33311  33692  33497  0
33503  33304  33693  0
33304  33499  33694  0
33304  33694  33693  0
33499  33695  33694  0
33499  33500  33696  0
33499  33696  33695  0
33500  33501  33697  0
33500  33697  33696  0
33501  33307  33698  0
33501  33698  33697  0
33308  33503  33505  0
33693  33505  33503  0
33698  33307  33699  0
33309  33699  33307  0
33700  33507  33701  0
33508  33507  33702  0
33507  33700  33702  0
33508  33702  33317  0
33703  33317  33702  0
33504  33692  33311  0
33704  33506  33505  0
33705  33699  33309  0
33706  33312  33502  0
33314  33701  33507  0
33314  33510  33701  0
33707  33701  33510  0
33317  33703  33512  0
33708  33512  33703  0
33318  33512  33708  0
33504  33318  33708  0
33309  33320  33705  0
33709  33705  33320  0
33710  33312  33706  0
33320  33322  33709  0
33322  33323  33709  0
33511  33321  33515  0
33711  33511  33515  0
33515  33514  33711  0
33712  33711  33514  0
33713  33712  33514  0
33514  33326  33713  0
33714  33713  33326  0
33329  33715  33326  0
33326  33715  33714  0
33716  33715  33329  0
33327  33709  33323  0
33709  33327  33717  0
33312  33710  33516  0
33718  33716  33329  0
33329  33331  33718  0
33719  33718  33331  0
33332  32924  33720  0
32924  33135  33720  0
33327  33333  33717  0
33721  33717  33333  0
33328  33722  33335  0
33722  33723  33335  0
33722  33328  33516  0
33331  33517  33719  0
33724  33517  33330  0
33720  33518  33332  0
33333  33142  33334  0
33333  33334  33721  0
33725  33721  33334  0
33723  33726  33335  0
33335  33726  33336  0
33330  33518  33724  0
33727  33724  33518  0
33334  33519  33725  0
33337  33336  33726  0
33524  33728  33525  0
33344  33525  33728  0
33728  33729  33344  0
33729  33339  33344  0
33519  33339  33729  0
33730  33340  33521  0
33731  33340  33730  0
33342  33149  33523  0
33340  33731  33526  0
33732  33733  33150  0
33150  33733  33149  0
33345  33527  33734  0
33150  33528  33732  0
33534  33353  33735  0
33736  33735  33353  0
33346  33345  33347  0
33734  33347  33345  0
33737  33539  33531  0
33350  33531  33539  0
33738  33737  33531  0
33737  33739  33539  0
33531  33530  33738  0
33740  33532  33351  0
33351  33540  33740  0
33741  33740  33540  0
33540  33352  33741  0
33742  33741  33352  0
33167  33535  33743  0
33167  33743  33533  0
33353  33536  33736  0
33536  33543  33744  0
33745  33744  33543  0
33355  33746  33356  0
33159  33538  33355  0
33538  33537  33747  0
33748  33529  33348  0
33348  33349  33748  0
33749  33748  33349  0
33349  33539  33749  0
33739  33749  33539  0
33356  33746  33357  0
33352  33544  33742  0
33750  33742  33544  0
33742  33750  33751  0
33361  33357  33752  0
33544  33547  33750  0
33753  33750  33547  0
33541  33754  33545  0
33545  33754  33359  0
33752  33755  33361  0
33547  33548  33756  0
33547  33756  33753  0
33549  33359  33757  0
33754  33757  33359  0
33363  33360  33758  0
33363  33758  33759  0
33360  33550  33758  0
33550  33171  33364  0
33361  33755  33366  0
33756  33548  33551  0
33756  33551  33753  0
33551  33549  33757  0
33551  33757  33753  0
32957  33363  33760  0
32957  33760  33761  0
32957  33761  33762  0
33364  33365  33763  0
33364  33763  33550  0
33554  33764  33555  0
33555  33765  33369  0
33555  33369  33177  0
33765  33556  33369  0
33367  33766  33553  0
33367  33557  33766  0
33560  33767  33373  0
33373  33767  33561  0
33375  33768  33558  0
33375  33563  33769  0
33375  33769  33768  0
33561  33770  33562  0
33561  33767  33770  0
33184  33376  33563  0
33562  33770  33771  0
33376  33189  33378  0
33376  33378  33563  0
33562  33771  33564  0
33564  33772  33565  0
33564  33773  33772  0
33378  33194  33381  0
33378  33381  33774  0
33565  33772  33380  0
33566  33775  33776  0
33578  33777  33579  0
33578  33778  33777  0
33779  33569  33385  0
33779  33385  33582  0
33779  33582  33780  0
33569  33779  33781  0
33566  33776  33584  0
33566  33584  33388  0
33776  33782  33584  0
33381  33783  33774  0
33576  33574  33778  0
33576  33778  33578  0
33579  33784  33580  0
33784  33581  33580  0
33388  33584  33403  0
33570  33571  33573  0
33573  33571  33785  0
33573  33786  33574  0
33201  33383  33585  0
33201  33585  33001  0
33584  33787  33583  0
33788  33583  33787  0
33382  33397  33567  0
33789  33586  33585  0
33396  33399  33790  0
33396  33790  33571  0
33399  33400  33791  0
33399  33791  33790  0
33791  33400  33588  0
33788  33792  33583  0
33586  33789  33398  0
33587  33398  33789  0
33588  33589  33793  0
33794  33583  33792  0
33795  33591  33587  0
33589  33796  33793  0
33589  33592  33796  0
33583  33794  33411  0
33596  33411  33794  0
33591  33795  33594  0
33592  33797  33796  0
33592  33595  33797  0
33412  33594  33599  0
33798  33797  33595  0
33600  33798  33595  0
33595  33415  33600  0
33799  33414  33598  0
33414  33799  33601  0
33800  33801  33802  0
33605  33802  33801  0
33803  33801  33804  0
33800  33802  33805  0
33604  33805  33802  0
33802  33605  33604  0
33806  33605  33801  0
33801  33807  33806  0
33801  33803  33807  0
33808  33807  33803  0
33809  33806  33807  0
33810  33807  33808  0
33807  33810  33809  0
33601  33811  33603  0
33805  33604  33812  0
33813  33812  33604  0
33604  33422  33813  0
33605  33806  33606  0
33607  33606  33806  0
33806  33809  33607  0
33814  33809  33810  0
33809  33815  33607  0
33809  33814  33815  0
33816  33815  33814  0
33817  33418  33603  0
33422  33424  33813  0
33611  33607  33815  0
33815  33818  33611  0
33815  33816  33818  0
33612  33611  33818  0
33819  33612  33818  0
33820  33417  33419  0
33418  33817  33608  0
33424  33432  33821  0
33424  33821  33813  0
33620  33822  33821  0
33613  33612  33819  0
33823  33419  33614  0
33615  33228  33426  0
33620  33821  33432  0
33626  33824  33620  0
33613  33825  33617  0
33429  33618  33614  0
33823  33614  33618  0
33426  33609  33615  0
33826  33615  33609  0
33615  33827  33616  0
33615  33826  33827  0
33619  33616  33827  0
33620  33436  33626  0
33622  33623  33618  0
33618  33828  33823  0
33829  33823  33828  0
33830  33827  33826  0
33827  33830  33619  0
33444  33628  33831  0
33831  33832  33444  0
33448  33444  33832  0
33617  33833  33621  0
33834  33621  33833  0
33621  33834  33623  0
33623  33834  33618  0
33835  33618  33834  0
33618  33835  33828  0
33619  33830  33624  0
33627  33624  33830  0
33447  33836  33628  0
33448  33837  33630  0
33838  33625  33449  0
33839  33833  33840  0
33833  33839  33834  0
33835  33834  33839  0
33836  33447  33452  0
33836  33452  33841  0
33630  33837  33842  0
33634  33630  33842  0
33842  33843  33634  0
33449  33453  33838  0
33844  33838  33453  0
33839  33845  33846  0
33839  33846  33835  0
33847  33451  33631  0
33632  33847  33631  0
33841  33452  33848  0
33841  33848  33849  0
33850  33849  33848  0
33634  33851  33455  0
33634  33843  33851  0
33453  33252  33844  0
33852  33844  33252  0
33454  33451  33637  0
33637  33451  33853  0
33847  33853  33451  0
33636  33854  33848  0
33854  33850  33848  0
33848  33452  33636  0
33252  33459  33852  0
33460  33637  33855  0
33856  33854  33642  0
33638  33642  33854  0
33857  33856  33642  0
33854  33636  33638  0
33858  33859  33860  0
33861  33860  33859  0
33859  33862  33861  0
33456  33455  33863  0
33456  33863  33639  0
33855  33864  33460  0
33460  33864  33256  0
33865  33857  33642  0
33648  33859  33858  0
33859  33648  33862  0
33866  33862  33648  0
33862  33866  33867  0
33256  33864  33641  0
33642  33643  33865  0
33653  33868  33869  0
33868  33653  33858  0
33646  33858  33653  0
33858  33646  33648  0
33866  33648  33650  0
33643  33645  33870  0
33643  33870  33865  0
33871  33869  33872  0
33871  33872  33873  0
33871  33873  33874  0
33871  33874  33653  0
33871  33653  33869  0
33650  33875  33866  0
33465  33876  33466  0
33466  33877  33467  0
33466  33876  33877  0
33645  33463  33469  0
33645  33469  33878  0
33645  33878  33870  0
33878  33469  33656  0
33878  33656  33874  0
33878  33874  33873  0
33878  33873  33870  0
33874  33656  33879  0
33874  33879  33652  0
33874  33652  33653  0
33877  33880  33467  0
33467  33880  33881  0
33467  33881  33654  0
33656  33655  33882  0
33656  33882  33879  0
33879  33882  33883  0
33879  33883  33652  0
33652  33883  33657  0
33651  33647  33884  0
33655  33659  33885  0
33655  33885  33882  0
33882  33885  33883  0
33883  33885  33886  0
33883  33886  33657  0
33658  33884  33647  0
33661  33271  33887  0
33271  33654  33887  0
33885  33659  33888  0
33885  33888  33889  0
33885  33889  33886  0
33886  33889  33890  0
33886  33658  33657  0
33663  33471  33891  0
33471  33660  33892  0
33471  33892  33891  0
33659  33893  33888  0
33659  33664  33893  0
33662  33894  33666  0
33662  33663  33894  0
33665  33895  33667  0
33665  33474  33895  0
33474  33668  33895  0
33666  33894  33896  0
33666  33896  33669  0
33670  33897  33475  0
33671  33898  33664  0
33667  33899  33480  0
33667  33900  33899  0
33667  33895  33901  0
33667  33901  33900  0
33895  33902  33901  0
33895  33668  33902  0
33668  33672  33902  0
33673  33903  33477  0
33477  33903  33670  0
33897  33671  33475  0
33899  33900  33904  0
33901  33902  33905  0
33669  33906  33675  0
33674  33677  33907  0
33480  33899  33908  0
33905  33902  33679  0
33902  33672  33679  0
33675  33906  33676  0
33681  33909  33677  0
33685  33686  33910  0
33678  33911  33686  0
33678  33480  33911  0
33480  33908  33911  0
33908  33899  33912  0
33905  33679  33687  0
33905  33687  33913  0
33914  33676  33906  0
33676  33914  33680  0
33681  33682  33915  0
33682  33683  33915  0
33683  33916  33915  0
33683  33684  33916  0
33684  33685  33916  0
33686  33911  33910  0
33913  33493  33689  0
33905  33913  33917  0
33913  33689  33918  0
33913  33918  33917  0
33913  33687  33298  0
33913  33298  33493  0
33919  33680  33914  0
33680  33919  33490  0
33689  33688  33920  0
33689  33920  33918  0
33490  33691  33305  0
33490  33919  33691  0
33690  33497  33692  0
33688  33690  33920  0
33690  33692  33921  0
33502  33691  33706  0
33922  33706  33691  0
33923  33700  33924  0
33700  33923  33702  0
33703  33702  33925  0
33702  33923  33925  0
33926  33921  33504  0
33692  33504  33921  0
33926  33927  33921  0
33701  33928  33700  0
33708  33703  33925  0
33925  33929  33708  0
33929  33926  33708  0
33504  33708  33926  0
33705  33698  33699  0
33930  33710  33706  0
33506  33704  33509  0
33931  33509  33704  0
33932  33705  33709  0
33933  33710  33930  0
33934  33707  33510  0
33935  33510  33511  0
33712  33713  33936  0
33714  33936  33713  0
33319  33509  33937  0
33931  33937  33509  0
33319  33937  33513  0
33511  33711  33935  0
33938  33711  33712  0
33939  33720  33135  0
33135  33513  33939  0
33937  33939  33513  0
33709  33717  33932  0
33933  33940  33723  0
33723  33722  33933  0
33941  33718  33719  0
33942  33941  33719  0
33719  33517  33943  0
33724  33943  33517  0
33719  33943  33942  0
33518  33720  33727  0
33942  33943  33944  0
33943  33724  33945  0
33946  33945  33724  0
33724  33727  33947  0
33724  33947  33946  0
33337  33726  33948  0
33337  33948  33520  0
33949  33520  33948  0
33943  33945  33950  0
33951  33950  33945  0
33943  33950  33944  0
33945  33946  33951  0
33952  33951  33946  0
33946  33947  33952  0
33953  33952  33947  0
33954  33729  33955  0
33728  33955  33729  0
33729  33954  33519  0
33520  33949  33521  0
33956  33957  33950  0
33957  33944  33950  0
33950  33951  33956  0
33958  33956  33951  0
33951  33952  33959  0
33951  33959  33958  0
33523  33960  33522  0
33524  33522  33961  0
33524  33961  33728  0
33730  33962  33731  0
33731  33962  33963  0
33731  33963  33526  0
33957  33956  33964  0
33965  33964  33956  0
33957  33964  33966  0
33967  33966  33964  0
33956  33958  33965  0
33958  33959  33968  0
33149  33969  33523  0
33149  33733  33969  0
33526  33963  33527  0
33964  33965  33967  0
33970  33967  33965  0
33965  33958  33970  0
33968  33970  33958  0
33733  33732  33971  0
33972  33732  33528  0
33973  33738  33974  0
33530  33974  33738  0
33974  33530  33975  0
33532  33975  33530  0
33976  33975  33532  0
33532  33740  33976  0
33977  33743  33535  0
33978  33977  33535  0
33535  33534  33978  0
33735  33978  33534  0
33736  33536  33979  0
33744  33979  33536  0
33980  33538  33747  0
33747  33537  33347  0
33747  33347  33980  0
33734  33980  33347  0
33528  33529  33972  0
33981  33972  33529  0
33737  33738  33982  0
33973  33982  33738  0
33737  33982  33739  0
33983  33741  33742  0
33741  33983  33984  0
33985  33984  33983  0
33355  33538  33986  0
33355  33986  33746  0
33529  33748  33981  0
33987  33981  33748  0
33748  33749  33987  0
33739  33987  33749  0
33742  33751  33983  0
33983  33988  33985  0
33988  33989  33985  0
33989  33541  33533  0
33743  33989  33533  0
33745  33543  33990  0
33357  33746  33991  0
33357  33991  33992  0
33357  33992  33752  0
33983  33751  33988  0
33988  33754  33989  0
33989  33754  33541  0
33543  33546  33993  0
33543  33993  33990  0
33750  33753  33751  0
33751  33753  33757  0
33751  33757  33988  0
33988  33757  33754  0
33546  33994  33993  0
33752  33992  33755  0
33994  33995  33993  0
33994  33996  33995  0
33758  33550  33997  0
33994  33998  33996  0
33760  33363  33759  0
33550  33763  33997  0
33366  33999  33552  0
33998  34000  33996  0
33763  33365  34001  0
33365  33553  34001  0
33552  33999  34002  0
33552  34002  33554  0
33554  34002  33764  0
34000  33998  34003  0
34000  34003  34004  0
33555  33764  34005  0
33555  34005  34006  0
33555  34006  33765  0
34004  34003  34007  0
33556  33765  34008  0
34007  34009  34010  0
34007  34010  34004  0
33557  34011  33766  0
34012  33556  34013  0
32968  34014  34009  0
33557  33370  34011  0
33560  33559  34015  0
33558  34015  33559  0
33558  33768  34015  0
33770  33767  34016  0
33770  34017  33771  0
33770  34016  34017  0
33563  33378  34018  0
33563  34018  34019  0
33563  34019  33769  0
33771  34017  34020  0
33771  34020  33773  0
33771  33773  33564  0
34020  34021  33773  0
33378  33774  34018  0
33773  34022  33772  0
33779  34023  33781  0
33781  34023  34024  0
33781  34024  33775  0
33775  34024  34025  0
33775  34025  33776  0
33774  34026  34018  0
34027  33772  34022  0
33777  34028  33579  0
33777  34029  34028  0
34030  34028  34029  0
34028  33784  33579  0
34031  34028  34030  0
34028  34031  33784  0
34031  33780  33581  0
34031  33581  33784  0
33780  33582  33581  0
33774  33783  34026  0
33380  33772  34027  0
33380  34027  33568  0
33574  34032  33778  0
33574  34033  34032  0
33777  33778  34032  0
33782  34034  33787  0
33782  33787  33584  0
34035  33383  33568  0
33573  34036  33786  0
33573  33785  34036  0
34033  33786  34036  0
33786  34033  33574  0
34037  33787  34034  0
33381  33567  33783  0
33383  34035  33585  0
34038  33585  34035  0
33571  33790  33785  0
33787  34037  33788  0
33585  34038  33789  0
33790  33791  34039  0
33790  34039  33785  0
33791  34040  34039  0
33791  33588  34041  0
33791  34041  34040  0
33788  34037  33792  0
34042  33792  34037  0
33397  34043  33567  0
33588  33793  34041  0
33793  34044  34041  0
33793  33796  34044  0
34045  34046  34047  0
34045  34047  34048  0
34048  34047  34049  0
34048  34049  34050  0
34049  34051  34052  0
33792  34042  33794  0
34053  33794  34042  0
33397  33590  34043  0
34054  33587  33789  0
33587  34054  33795  0
34055  34056  34046  0
34055  34057  34056  0
34058  34056  34057  0
34059  34046  34056  0
34046  34059  34047  0
34047  34060  34049  0
34049  34060  34051  0
34061  34051  34060  0
34062  33794  34053  0
33794  34062  33596  0
33590  33593  34063  0
34064  33795  34054  0
34065  33795  34064  0
34066  34047  34059  0
34047  34066  34060  0
34067  34061  34060  0
34068  33596  34062  0
33596  34068  33597  0
33597  34069  33593  0
34063  33593  34069  0
34070  33599  33594  0
33594  33795  34070  0
34065  34070  33795  0
34071  34059  34056  0
34072  34056  34058  0
34059  34071  34066  0
34073  34060  34066  0
34074  34060  34073  0
34060  34074  34067  0
34075  34067  34074  0
33599  34070  34076  0
34077  33798  33600  0
34056  34072  34071  0
34078  34071  34072  0
34066  34071  34073  0
34079  34075  34074  0
34080  34075  34079  0
33598  34081  33799  0
33598  33599  34081  0
34076  34081  33599  0
34071  34082  34073  0
34071  34078  34082  0
34083  34082  34078  0
34073  34082  34074  0
34084  34074  34082  0
34074  34084  34079  0
33800  33805  34085  0
33804  34086  33803  0
34087  33803  34086  0
33803  34087  33808  0
34088  33808  34087  0
34089  34090  33600  0
33600  33416  34089  0
34091  34082  34083  0
34082  34091  34084  0
33601  33799  34092  0
33601  34092  33811  0
33805  33812  34085  0
34093  34085  33812  0
33812  33813  34093  0
33808  34088  33810  0
34094  33810  34088  0
33810  34094  33814  0
33416  33602  34089  0
33813  34095  34093  0
33814  34096  33816  0
34097  33816  34096  0
33820  33602  33417  0
33821  34095  33813  0
34095  33821  33822  0
33819  33816  34097  0
33816  33819  33818  0
34098  33608  33817  0
33822  33620  33824  0
33822  33824  34099  0
34100  34099  33824  0
33825  33613  33819  0
33419  33823  33820  0
34101  33820  33823  0
33608  34098  33609  0
33824  33626  34100  0
34102  33819  34103  0
33819  34102  33825  0
33617  33825  34102  0
34104  34101  33823  0
34105  33609  34098  0
33609  34105  33826  0
34106  34107  34108  0
34106  34108  33832  0
34106  33832  33831  0
34109  34100  33626  0
33626  33625  34109  0
33833  33617  34102  0
33823  33829  34104  0
33826  34105  34110  0
33826  34110  33830  0
34106  33831  33836  0
33628  33836  33831  0
33832  34111  33448  0
33832  34112  34111  0
34111  33837  33448  0
34102  33840  33833  0
34102  34113  33840  0
34114  33829  33828  0
33830  34110  34115  0
33830  34115  33627  0
34106  33836  33841  0
34106  33841  34107  0
34116  34107  33841  0
34117  34118  33625  0
33625  33838  34117  0
33840  34119  33839  0
33845  33839  34119  0
34120  34114  33828  0
33627  34115  34121  0
33627  34121  33629  0
33841  33849  34116  0
34122  34116  33849  0
33843  33842  34123  0
33842  33837  34123  0
34119  34124  33845  0
33845  34124  33846  0
34120  33835  33846  0
33835  34120  33828  0
34125  33847  33632  0
34121  34125  33632  0
33632  33633  34121  0
34121  33633  33629  0
33849  33850  34122  0
34126  34122  33850  0
34127  34128  34129  0
34128  33860  34129  0
34123  34129  33860  0
33861  34123  33860  0
34123  33861  33843  0
34130  33843  33861  0
33843  34131  34132  0
33843  34132  33851  0
33843  34130  34131  0
33851  34132  34133  0
33851  34134  33455  0
33851  34133  34134  0
34135  33855  33853  0
33637  33853  33855  0
34135  33853  34136  0
33854  34126  33850  0
33854  33856  34126  0
33858  34128  34127  0
34128  33858  33860  0
33862  34130  33861  0
34130  34137  34131  0
33863  33455  34134  0
34134  34138  33863  0
33855  34135  34139  0
33855  34139  33864  0
33856  33857  34126  0
34140  34141  34142  0
34140  33868  34127  0
34127  33868  33858  0
33862  33867  34130  0
33863  34138  33639  0
33639  34138  34143  0
33639  34143  33640  0
34142  33869  34140  0
34140  33869  33868  0
33867  33866  33875  0
33867  33875  34144  0
33867  34144  34130  0
33864  34145  33641  0
33865  34146  33857  0
33872  33869  34142  0
33872  34142  34147  0
33872  34147  34146  0
33872  34146  33873  0
33875  34148  34144  0
33641  34149  33644  0
33865  33870  33873  0
33865  33873  34146  0
33875  33650  34150  0
33875  34150  34151  0
33875  34151  34152  0
33875  34152  34148  0
33644  34149  34153  0
33644  34153  33464  0
33464  34153  34154  0
33464  34154  33876  0
33464  33876  33465  0
33876  34155  33877  0
33650  33651  34156  0
33650  34156  34150  0
33877  34155  34157  0
33877  34157  33880  0
33651  33884  34156  0
34156  34158  34150  0
33884  34158  34156  0
33887  33654  33881  0
33887  33881  34159  0
33891  33892  34160  0
33660  33661  33892  0
33888  33893  34161  0
33888  34161  34162  0
33888  34162  33889  0
33663  33891  34160  0
33663  34160  34163  0
33663  34163  34164  0
33663  34164  33894  0
33893  33664  34165  0
33894  34166  33896  0
33894  34164  34167  0
33894  34167  34166  0
33664  33898  34165  0
33896  34166  34168  0
33896  34168  33669  0
33670  34169  33897  0
33671  33897  33898  0
33900  33901  33904  0
33669  34168  33906  0
33899  33904  34170  0
33904  33901  33905  0
34168  34171  33906  0
33907  33677  33909  0
33899  34170  33912  0
34170  33904  33917  0
33904  33905  33917  0
33907  33909  34172  0
33909  33681  34173  0
33681  33915  34173  0
33915  33916  34174  0
33915  34174  34175  0
33916  34176  34174  0
33916  33685  34177  0
33916  34177  34176  0
33685  33910  34177  0
33910  33911  34178  0
33910  34178  34177  0
33911  33908  33912  0
33911  33912  34178  0
33912  34170  34179  0
33912  34179  34180  0
34170  33917  34179  0
33917  33918  34179  0
34181  33906  34182  0
33906  34181  33914  0
33914  34181  33919  0
34173  33915  34175  0
34177  34183  34176  0
34177  34184  34183  0
34177  34178  34184  0
34178  33912  34185  0
34178  34185  34184  0
33912  34180  34185  0
34180  34179  34186  0
34179  33920  34186  0
34179  33918  33920  0
34181  34187  33919  0
33919  34187  34188  0
33919  34188  33691  0
34174  34176  34189  0
34176  34183  34189  0
34183  34184  34190  0
34180  34186  34185  0
33922  33691  34188  0
34174  34189  34191  0
34174  34191  34192  0
34189  34183  34193  0
34190  34193  34183  0
34194  34190  34184  0
34184  34185  34194  0
33927  34194  34185  0
34185  34186  33927  0
33921  33927  34186  0
34186  33920  33921  0
33690  33921  33920  0
34187  34195  34188  0
34196  34188  34195  0
34188  34196  33922  0
34191  34189  33924  0
33923  33924  34189  0
34197  34191  33924  0
34189  34193  33923  0
33925  33923  34193  0
34193  34190  33925  0
34190  34194  33929  0
33927  33929  34194  0
33930  33706  33922  0
33922  34196  33930  0
34198  33930  34196  0
33700  33928  33924  0
34199  33924  33928  0
34190  33929  33925  0
33929  33927  33926  0
34200  33505  33693  0
33693  33694  34200  0
33694  33695  34201  0
34202  34201  33695  0
33694  34201  34200  0
33695  33696  34202  0
34203  34202  33696  0
33696  33697  34203  0
33698  34203  33697  0
33701  34204  33928  0
34199  33928  34204  0
33701  33707  34204  0
33505  34200  33704  0
34205  33704  34200  0
34206  34205  34200  0
34207  34203  33698  0
33698  33705  34207  0
33707  33934  34204  0
33704  34205  33931  0
34207  33705  34208  0
34209  34208  33705  0
33705  33932  34209  0
33510  34210  33934  0
33510  33935  34210  0
33712  33936  33938  0
34211  33936  33714  0
33714  33715  34212  0
33716  34212  33715  0
34213  34212  33716  0
33710  33933  33722  0
33716  33718  34213  0
34214  34213  33718  0
33718  33941  34214  0
33939  33937  34215  0
33932  33717  34216  0
33721  34216  33717  0
33940  34217  33723  0
34218  33941  33942  0
33720  34219  33727  0
34220  33727  34219  0
33720  33939  34219  0
34221  34219  33939  0
34216  33721  34222  0
33725  34222  33721  0
33948  33726  34223  0
34223  33726  33723  0
33727  34220  34224  0
34222  33725  33519  0
34222  33519  34225  0
34224  33947  33727  0
34225  33954  33955  0
33954  34225  33519  0
34226  33942  33944  0
33947  34224  33953  0
34227  33522  33960  0
33961  33522  34227  0
33961  33955  33728  0
33949  34228  33521  0
33957  34229  33944  0
34226  33944  34229  0
33957  33966  34229  0
33952  33953  33959  0
34230  33959  33953  0
33523  33969  33960  0
33521  34228  34231  0
33521  34231  33730  0
33730  34231  33962  0
33967  34232  33966  0
34232  34229  33966  0
34233  33969  33733  0
34232  33967  34234  0
34235  34234  33967  0
33967  33970  34235  0
34236  33971  33732  0
33733  33971  34233  0
34237  33973  33974  0
33974  33975  34237  0
34238  33975  33976  0
33976  33740  34239  0
34240  34239  33740  0
33976  34239  34238  0
34241  34242  33978  0
33978  33735  34241  0
34243  34244  33734  0
33734  34244  33980  0
33734  33527  34243  0
33732  33972  34245  0
33732  34245  34236  0
33973  34246  34247  0
33740  33741  33984  0
33740  33984  34240  0
33977  34242  34248  0
33977  34248  34249  0
33977  34249  33743  0
33977  33978  34242  0
33735  33736  34241  0
33736  33979  34241  0
33979  33744  34250  0
33986  33538  34251  0
33538  33980  34251  0
33972  33981  34252  0
33972  34252  34245  0
33982  33973  34247  0
33982  34247  34253  0
33984  33985  34254  0
33984  34254  34240  0
33985  34255  34254  0
33985  33989  34249  0
33985  34249  34255  0
34249  33989  33743  0
33744  33745  34250  0
33745  34256  34250  0
33981  33987  34257  0
33981  34257  34252  0
33987  33739  34258  0
33987  34258  34257  0
33739  33982  34253  0
33739  34253  34258  0
33745  33990  34256  0
33990  33993  34259  0
33993  33995  34259  0
33759  33758  34260  0
33758  33997  34260  0
33996  34261  33995  0
33760  33759  34262  0
33760  34262  34263  0
33760  34263  33761  0
33759  34260  34264  0
33759  34264  34262  0
33755  33999  33366  0
33996  34000  34265  0
33996  34265  34261  0
33761  34263  34266  0
33761  34266  33762  0
34002  34005  33764  0
34000  34004  34267  0
34000  34267  34265  0
33553  34268  34001  0
33553  33766  34268  0
34008  34269  33556  0
34004  34010  34270  0
34013  33556  34269  0
34013  34269  34271  0
34009  34014  34272  0
34009  34272  34010  0
34014  34273  34272  0
33560  34015  33767  0
34015  34274  33767  0
33767  34274  34016  0
33768  34275  34015  0
33768  33769  34019  0
33768  34019  34275  0
34015  34275  34276  0
34015  34276  34274  0
34016  34274  34277  0
34016  34277  34017  0
34017  34278  34020  0
34020  34278  34279  0
34020  34279  34021  0
34018  34280  34019  0
34021  34281  33773  0
34024  34282  34025  0
34024  34023  34283  0
34024  34283  34282  0
34018  34284  34280  0
33773  34281  34022  0
34030  34285  34031  0
34030  34286  34285  0
34031  34287  33780  0
34031  34285  34287  0
34287  34023  33779  0
34287  33779  33780  0
34287  34283  34023  0
34025  34288  34289  0
34025  34289  33776  0
33776  34289  33782  0
34018  34026  34284  0
34029  34286  34030  0
34029  34290  34286  0
33782  34289  34291  0
33782  34291  34034  0
34032  34033  34292  0
34032  34292  34293  0
34032  34293  33777  0
33777  34293  34029  0
34290  34029  34293  0
34036  34294  34033  0
34295  34296  34297  0
34295  34297  34298  0
34295  34298  34299  0
34298  34300  34299  0
34291  34301  34037  0
34291  34037  34034  0
34291  34302  34301  0
34303  34301  34302  0
34294  34036  33785  0
34296  34304  34305  0
34306  34305  34304  0
34296  34305  34297  0
34307  34297  34305  0
34297  34307  34298  0
34045  34298  34307  0
34298  34045  34308  0
34048  34308  34045  0
34308  34048  34050  0
34301  34309  34050  0
34309  34301  34303  0
34301  34052  34037  0
34043  33783  33567  0
34310  33789  34038  0
34040  33785  34039  0
34040  34041  34311  0
34055  34307  34305  0
34307  34055  34045  0
34046  34045  34055  0
34050  34049  34301  0
34052  34301  34049  0
34052  34051  34037  0
34312  34037  34051  0
34037  34312  34042  0
34057  34305  34306  0
34305  34057  34055  0
34051  34313  34312  0
34053  34042  34312  0
34314  34043  33590  0
34315  34058  34057  0
34051  34061  34313  0
34316  34312  34313  0
34312  34316  34053  0
34314  33590  34063  0
34044  33796  34317  0
33796  33797  34317  0
33798  34317  33797  0
34318  34058  34315  0
34061  34067  34313  0
34319  34313  34067  0
34313  34319  34316  0
34320  34053  34316  0
34053  34320  34062  0
34068  34062  34320  0
34069  33597  34068  0
34321  34070  34065  0
34058  34318  34072  0
34067  34075  34319  0
34322  34319  34075  0
34319  34323  34316  0
34324  34316  34323  0
34319  34322  34323  0
34076  34070  34325  0
34321  34325  34070  0
34077  34326  33798  0
34327  34072  34318  0
34075  34080  34322  0
34328  34322  34080  0
34329  33799  34081  0
34325  34081  34076  0
34330  34086  34085  0
34077  33600  34090  0
34072  34327  34078  0
34078  34327  34083  0
33799  34329  34092  0
34331  34092  34329  0
34086  34330  34087  0
34332  34087  34330  0
34087  34332  34088  0
34094  34088  34332  0
34333  34084  34091  0
34084  34333  34079  0
34334  34079  34333  0
34079  34334  34080  0
34080  34334  34328  0
34335  34085  34093  0
34336  34335  34093  0
34096  33814  34094  0
34337  34090  34089  0
34089  33602  34337  0
34338  34337  33602  0
34339  34091  34083  0
34091  34339  34333  0
34340  34333  34339  0
34333  34340  34334  0
34341  34334  34340  0
33811  34092  33603  0
34342  33603  34092  0
34093  34095  34336  0
34343  34336  34095  0
34094  34344  34096  0
34096  34344  34097  0
34345  34097  34344  0
33820  34338  33602  0
34346  33817  33603  0
34095  33822  34343  0
34099  34343  33822  0
34347  34097  34345  0
34097  34348  33819  0
34103  33819  34348  0
34101  34338  33820  0
33817  34346  34098  0
34097  34347  34348  0
34349  34348  34347  0
34100  34109  34350  0
34102  34103  34348  0
34098  34351  34105  0
34107  34352  34108  0
34108  34112  33832  0
34118  34109  33625  0
34348  34349  34102  0
34113  34102  34349  0
34353  34104  33829  0
34104  34353  34354  0
34105  34355  34110  0
34356  34110  34355  0
34112  34357  34111  0
34111  34358  33837  0
34349  34359  34360  0
34349  34360  34113  0
33829  34114  34353  0
34110  34356  34115  0
34107  34116  34361  0
34362  34361  34116  0
33837  34358  34363  0
34113  34360  34364  0
34113  34119  33840  0
34113  34364  34119  0
34116  34122  34362  0
34365  34366  34127  0
34365  34127  34129  0
34365  34129  34367  0
34129  34368  34367  0
34129  34358  34368  0
34129  34123  34358  0
34363  34123  33837  0
33838  33844  34369  0
33838  34369  34117  0
33844  33852  34369  0
34119  34364  34124  0
34120  34370  34114  0
34371  33853  33847  0
34122  34126  34141  0
34122  34141  34366  0
34122  34366  34365  0
34122  34365  34362  0
34366  34141  34140  0
34366  34140  34127  0
34132  34372  34133  0
34132  34131  34372  0
34133  34372  34373  0
34133  34373  34134  0
34124  34374  33846  0
33846  34375  34120  0
34136  33853  34371  0
34136  34376  34135  0
34126  34377  34141  0
34131  34137  34378  0
34131  34378  34372  0
34134  34373  34379  0
34134  34379  34138  0
34380  33852  33459  0
34380  33459  33640  0
34380  33640  34381  0
34135  34376  34139  0
33857  34147  34126  0
34126  34147  34377  0
34377  34147  34141  0
34137  34130  34144  0
34137  34144  34382  0
34138  34379  34143  0
34143  34381  33640  0
34139  34383  33864  0
33857  34146  34147  0
34147  34142  34141  0
33864  34383  34145  0
34144  34148  34382  0
33641  34145  34149  0
34149  34145  34384  0
34148  34152  34385  0
34148  34385  34382  0
34149  34384  34153  0
34154  34155  33876  0
34154  34386  34155  0
34151  34387  34152  0
34155  34386  34388  0
34155  34388  34157  0
34157  34389  33880  0
34150  34158  34390  0
34150  34390  34391  0
34150  34391  34151  0
34389  34159  33881  0
34389  33881  33880  0
33890  34392  34393  0
33890  34393  33886  0
33886  34393  33658  0
33658  34393  34394  0
33658  34394  33884  0
33884  34394  34158  0
33892  33661  34395  0
33661  33887  34395  0
33887  34159  34396  0
33887  34396  34395  0
34161  34397  34162  0
34162  34398  33889  0
33889  34398  34392  0
33889  34392  33890  0
33892  34395  34399  0
33892  34399  34160  0
34395  34400  34399  0
34395  34396  34400  0
33893  34401  34161  0
33893  34165  34401  0
34165  33898  34402  0
34165  34402  34401  0
34167  34168  34166  0
34167  34164  34403  0
33903  33673  34169  0
33903  34169  33670  0
33897  34404  34402  0
33897  34402  33898  0
33897  34169  34405  0
33897  34405  34404  0
34167  34406  34168  0
34167  34403  34407  0
34167  34407  34406  0
33674  34408  33673  0
33673  34409  34405  0
33673  34405  34169  0
33673  34408  34409  0
34168  34410  34171  0
34168  34406  34410  0
33674  33907  34172  0
33674  34172  34408  0
34171  34182  33906  0
34171  34410  34182  0
34172  33909  34411  0
34172  34411  34408  0
34173  34175  34412  0
34173  34412  33909  0
34175  34174  34413  0
34181  34414  34187  0
34181  34182  34415  0
34181  34415  34414  0
34175  34413  34412  0
34413  34174  34192  0
34187  34414  34195  0
34196  34195  34416  0
34191  34197  34192  0
34414  34417  34195  0
34195  34417  34416  0
34198  34196  34416  0
33924  34199  34197  0
34198  34416  34417  0
34200  34201  34206  0
34207  34202  34203  0
34418  34417  34419  0
34417  34420  34198  0
34206  34201  34421  0
34201  34202  34421  0
34422  34421  34202  0
34202  34207  34422  0
34208  34422  34207  0
34417  34418  34420  0
33940  34420  34418  0
33933  34420  33940  0
34420  33933  34198  0
33930  34198  33933  0
34423  34210  33935  0
34424  34211  33714  0
33714  34212  34424  0
34425  34424  34212  0
34212  34213  34425  0
33937  33931  34215  0
33931  34205  34215  0
34426  34215  34205  0
34205  34206  34426  0
34208  34209  34427  0
34216  34209  33932  0
34418  34217  33940  0
33935  33711  34423  0
34428  34423  33711  0
33711  33938  34428  0
34429  34214  33941  0
33939  34215  34221  0
34209  34216  34430  0
34431  34430  34216  0
34216  34222  34431  0
33723  34217  34223  0
33941  34218  34429  0
34219  34221  34432  0
34219  34432  34220  0
34222  34225  34431  0
34433  33948  34223  0
34433  34223  34434  0
34217  34434  34223  0
34435  34429  34218  0
34225  33955  34436  0
34437  34436  33955  0
34431  34225  34436  0
34433  34438  33948  0
33949  33948  34438  0
34435  34218  33942  0
