#!ascii file
-63.025520  -37.571899  -16.939350  0
 -6.165108  -37.576492  -19.018209  0
-46.163658  -37.107685  -15.531640  0
-44.213261  -36.522545  -15.100759  0
 -7.383398  -37.960701  -20.289841  0
-23.059380  -37.144909  -20.991571  0
-29.301332  -36.317150  -20.779158  0
-19.810287  -38.376106  -22.733063  0
-21.207775  -37.310349  -23.306715  0
-52.607620  -37.688812  -21.160673  0
-57.403423  -37.087303  -20.443083  0
-59.554203  -37.414532  -20.025242  0
-61.664471  -37.363197  -20.265907  0
 -8.903225  -38.183331  -21.694159  0
 -9.918818  -38.631207  -22.930523  0
-17.666471  -39.513405  -24.432041  0
-18.519148  -38.341782  -23.605944  0
-51.558529  -37.597023  -22.088345  0
-11.564932  -39.264709  -24.743326  0
-12.920815  -39.848827  -25.948961  0
-14.484836  -40.080280  -26.306026  0
-17.010586  -39.583656  -25.869089  0
-15.583411  -39.653374  -26.636620  0
-25.656511  -36.207596  -22.887190  0
-26.263035  -36.503677  -22.160427  0
-21.288345  -37.583435  -24.736206  0
-23.808939  -36.959492  -23.651056  0
-53.519295  -36.904255  -24.361282  0
-54.938797  -36.525822  -25.237854  0
-55.801788  -37.195736  -26.078686  0
-19.289400  -37.218082  -27.701069  0
-20.241549  -37.011906  -26.836563  0
-56.432335  -37.710178  -27.354704  0
-56.675934  -38.572815  -30.671070  0
-20.135134  -37.443111  -30.301657  0
-49.194153  -39.834145  -32.952213  0
-48.764557  -39.330231  -33.835922  0
-56.147961  -38.927986  -34.010906  0
-55.827099  -37.524387  -29.826584  0
-55.724464  -37.496128  -33.453186  0
-42.855606  -35.606602  -34.082302  0
-42.736237  -36.364395  -36.143276  0
-43.895123  -35.923424  -35.312016  0
-41.915508  -35.577930  -32.232605  0
-41.945507  -36.029877  -34.952423  0
-43.158707  -35.186913  -33.143932  0
-47.318245  -39.575436  -34.192307  0
-47.297073  -39.353924  -31.529848  0
-49.981133  -39.884136  -34.704029  0
-34.492119  -39.694267  -34.589058  0
-35.471550  -40.540920  -36.238213  0
-42.172226  -36.974945  -36.467125  0
-44.211872  -35.724854  -34.602810  0
-50.930161  -39.523727  -35.411983  0
-53.513206  -39.598843  -35.559673  0
-52.485168  -38.802296  -35.524563  0
-29.329571  -36.643795  -36.234009  0
-41.613922  -37.810184  -37.879429  0
-54.655312  -38.454010  -35.010174  0
-38.526955  -41.213173  -40.049068  0
-37.848198  -41.145683  -40.381588  0
-36.769539  -40.383224  -39.842594  0
-39.996666  -39.332600  -39.780777  0
-38.493233  -40.406132  -40.754772  0
-27.503180  -36.404835   49.501595  0
 -1.638125  -38.203747   44.712837  0
 -0.618384  -37.148514   44.254463  0
 -0.699032  -37.267746   42.664043  0
 -3.354820  -38.488930   45.825394  0
-30.745876  -35.065987   44.358658  0
-28.672617  -34.844498   42.624371  0
-18.035139  -35.966003   42.338161  0
-20.105968  -36.168285   43.381062  0
-32.277462  -36.075203   45.492428  0
-31.949728  -37.505146   44.515411  0
-34.943737  -36.821991   45.155930  0
-36.272343  -36.864544   44.357635  0
-37.932472  -36.372192   42.998734  0
-31.070421  -37.001350   43.530029  0
-11.493623  -36.692513   41.540802  0
-15.282117  -35.604652   41.270519  0
-38.877041  -35.536732   40.388561  0
-29.228987  -36.507011   40.815552  0
 -3.374374  -34.893604   37.692154  0
-25.267323  -34.414124   38.881252  0
-37.710094  -36.075607   37.427246  0
 -4.377672  -35.815506   36.334660  0
-39.814793  -35.993710   40.246971  0
-42.506805  -36.646545   40.087723  0
-43.885101  -36.689507   39.118778  0
-27.163475  -35.066406   39.296299  0
-38.818687  -35.573326   39.191338  0
-44.836338  -37.352600   38.042206  0
-36.960236  -36.160992   35.347065  0
-37.859043  -37.163704   36.382145  0
-44.779850  -36.929062   34.090553  0
-35.934750  -36.405720   32.336891  0
-37.297024  -37.349136   34.411442  0
-35.427650  -35.895100   31.122869  0
-43.728474  -36.683544   30.622303  0
-34.443863  -37.094418   28.600296  0
-36.617783  -36.812519   32.892460  0
-36.368885  -36.900753   31.676701  0
 -1.010162  -35.920673   30.967270  0
 -0.918799  -35.178596   29.486406  0
-42.916405  -35.999836   29.722740  0
-42.918373  -36.457161   28.632206  0
 -1.040059  -35.480911   27.402262  0
 -1.053501  -33.930237   28.763691  0
-33.602787  -36.705105   26.520870  0
-36.692612  -36.722660   29.818663  0
-36.358814  -36.123940   28.303774  0
-42.483261  -36.587215   26.667528  0
 -1.315219  -35.165443   26.027954  0
-35.835358  -36.077263   26.997290  0
 -2.598152  -35.047733   25.140024  0
 -5.574798  -35.239975   23.240419  0
-33.031574  -36.535980   24.994579  0
 -8.953684  -35.854824   22.846174  0
-32.091450  -37.169781   24.265759  0
-10.761374  -36.336178   22.839779  0
-12.236809  -36.336796   22.145102  0
-34.921402  -36.116325   25.863527  0
-40.932957  -36.764015   22.529289  0
-51.606907  -36.713474   26.783138  0
-13.234173  -36.439323   21.238110  0
-33.481247  -36.350998   25.026148  0
-50.393070  -35.718105   25.993778  0
-53.959515  -36.281761   25.782042  0
-14.284441  -36.310234   19.963472  0
-48.516094  -35.646980   25.254065  0
-47.421459  -35.551884   23.810162  0
-45.074070  -35.533825   22.343555  0
-54.745560  -36.827614   22.990776  0
-53.468861  -37.309448   21.774637  0
-15.281590  -36.111591   18.575844  0
-38.150082  -36.743584   18.851879  0
-42.837730  -35.520317   20.568600  0
-51.147797  -38.013638   20.533659  0
-36.537640  -36.542736   17.877199  0
-34.804722  -36.588886   17.070011  0
-40.538586  -36.040573   17.956741  0
 -4.782155  -37.965591   22.110191  0
 -8.385281  -37.373314   21.857151  0
 -9.558311  -36.610661   20.778708  0
-33.680153  -36.908073   16.287916  0
-32.857487  -37.824356   16.006437  0
-57.039280  -36.932705   17.243841  0
-58.930752  -37.216816   15.837238  0
-11.695642  -36.278992   18.450670  0
-12.191960  -35.681568   17.310465  0
-58.971565  -37.903618   15.149919  0
-33.724293  -37.116497   15.176430  0
-36.757771  -36.814266   15.413981  0
-51.557980  -38.517212   12.968499  0
-57.919975  -38.078869   14.146650  0
 -3.562333  -36.890739   13.056169  0
-49.307930  -39.789394   12.812066  0
-54.421204  -39.576443   11.214931  0
 -2.347041  -36.398167    9.875953  0
 -1.674075  -36.136612    8.281052  0
-55.449799  -38.966793    6.965770  0
-55.743561  -38.907452    9.083196  0
 -1.831869  -36.209515    6.968056  0
 -2.749305  -36.353928    6.587608  0
-45.722069  -37.306927    4.119573  0
-48.016987  -37.578712    4.463130  0
-49.061527  -37.992756    4.063669  0
-51.725994  -38.863354    3.820402  0
-50.019779  -37.488129    3.192847  0
-53.529797  -39.080139    3.985984  0
-55.161915  -38.328045    4.683678  0
-36.647896  -35.975086    4.212189  0
-36.772491  -35.742126    2.981889  0
-38.354580  -35.612362    3.176936  0
-39.690128  -35.355293    3.579315  0
-37.967190  -35.542648    5.438286  0
-43.360714  -36.120953    3.290313  0
-44.635033  -37.209694    3.321045  0
 -3.243066  -37.740112    4.966413  0
 -0.032408  -34.446659    3.736142  0
  0.190325  -34.772629    2.096726  0
 -0.884207  -35.319916    4.250953  0
 -2.339111  -36.921021    4.148718  0
-32.629414  -34.691193    1.269828  0
-33.878967  -34.420582    1.855878  0
-32.308567  -34.997238    0.347002  0
-33.209583  -34.963463   -0.159293  0
-37.615311  -34.796238    0.306228  0
-39.782040  -35.048531    0.414590  0
-47.124668  -35.134399   -1.203215  0
-45.665108  -34.505413   -1.799568  0
-48.577362  -35.235802   -2.411935  0
-57.446293  -36.741638   -8.586181  0
-59.029926  -36.949020   -9.517322  0
-59.632656  -36.452003  -10.224181  0
-41.244148  -36.674896  -11.575617  0
-44.752514  -36.561638  -12.552010  0
-48.024570  -36.930344  -13.108953  0
-50.476749  -36.808521  -13.321720  0
-53.523422  -36.606224  -12.737533  0
 -2.100191  -36.703388  -11.950394  0
 -4.140666  -37.253914  -13.146015  0
 -6.025800  -35.629395  -14.094857  0
-10.284298  -34.600208  -14.353660  0
 -7.832570  -35.116741  -14.969913  0
 -9.860550  -34.522060  -14.706260  0
-12.137858  -34.119305  -14.428806  0
-17.357904  -36.492153  -14.445041  0
-17.268108  -35.806721  -14.272633  0
-23.209875  -36.129807  -15.277822  0
-40.070408  -36.270035  -12.368365  0
-10.701184  -34.014313  -14.365263  0
-13.667976  -34.351898  -14.367199  0
-15.436633  -33.985039  -15.919854  0
-21.743908  -36.570560  -16.871304  0
 -7.908583  -35.231899  -15.452518  0
 -9.840126  -33.826225  -14.816727  0
-11.773213  -33.701077  -14.829021  0
-13.896125  -33.673355  -15.173261  0
-16.335060  -34.644707  -17.094290  0
-17.540548  -35.027981  -17.458813  0
-18.576748  -34.493725  -18.008055  0
-20.993080  -33.636902  -18.048929  0
-23.207165  -35.569595  -16.403015  0
-53.188374  -35.262508  -13.828071  0
-61.959785  -36.658760  -15.451166  0
-63.278564  -36.710056  -17.722845  0
 -5.696596  -35.972374  -18.351139  0
 -6.059308  -34.850208  -18.018150  0
-19.949335  -33.111427  -18.757750  0
-25.493299  -36.122589  -19.787239  0
-28.769045  -36.416157  -19.092970  0
-49.857861  -35.468468  -14.588319  0
-51.813335  -36.379757  -14.198893  0
-63.112411  -36.513206  -18.681196  0
 -6.394273  -36.156818  -19.925600  0
-47.152008  -34.994064  -14.707163  0
 -8.102390  -36.031181  -21.721491  0
-22.024290  -37.605068  -22.141880  0
-54.817863  -34.460327  -20.371264  0
-60.413193  -36.896988  -19.757944  0
 -9.598718  -37.526596  -23.353632  0
-52.099701  -35.538902  -20.969309  0
-12.139949  -38.549259  -26.281742  0
-10.900261  -37.455486  -24.986731  0
-17.980642  -37.667358  -24.568865  0
-19.475750  -37.515282  -23.841908  0
-51.695431  -36.347511  -22.990871  0
-51.364574  -36.570885  -22.381130  0
-13.606088  -38.724216  -26.929251  0
-16.702986  -38.671978  -26.507942  0
-15.083568  -38.404263  -27.014490  0
-27.796297  -35.043610  -22.316126  0
-29.465912  -34.371593  -22.030132  0
-52.479382  -35.548233  -23.614311  0
-53.658772  -35.706581  -24.446936  0
-22.182802  -36.367744  -25.635475  0
-24.490414  -35.964893  -24.728779  0
-55.137524  -36.267582  -26.341267  0
-55.459423  -36.862373  -27.421843  0
-19.249542  -36.804626  -28.937796  0
-54.484219  -36.179821  -27.181684  0
-54.430374  -36.750534  -28.813002  0
-53.361526  -36.178665  -28.731829  0
-40.573505  -35.587128  -29.973328  0
-42.023006  -35.488636  -30.351645  0
-43.566750  -34.994198  -32.677013  0
-47.982925  -39.392368  -32.999718  0
-54.932472  -36.741119  -31.761152  0
-21.830296  -37.342236  -32.273155  0
-25.242373  -37.324459  -34.376556  0
-40.993168  -35.557682  -32.575584  0
-39.740345  -35.272049  -30.705160  0
-53.589828  -35.992504  -31.136936  0
-54.996277  -36.604694  -34.469944  0
-40.399323  -35.158619  -33.173893  0
-44.616016  -36.066700  -34.853767  0
-46.902199  -38.347656  -36.784855  0
-47.664085  -39.300598  -35.369568  0
-49.207855  -39.088844  -34.988258  0
-49.812950  -38.638329  -35.923462  0
-50.625145  -37.599319  -36.456043  0
-31.690275  -37.772400  -36.444546  0
-33.875416  -39.349998  -36.748753  0
-35.003265  -39.813435  -37.134586  0
-41.324188  -35.574532  -34.941559  0
-41.907516  -36.160843  -36.652714  0
-45.938744  -37.662323  -36.597553  0
-53.449043  -36.556461  -35.423615  0
-41.463799  -37.312363  -38.429752  0
-34.558327  -38.885342  -39.103615  0
-39.805359  -38.419624  -41.272770  0
-40.898602  -37.089855  -40.195705  0
-37.647079  -39.342617  -41.086594  0
-36.225662  -39.474869  -40.483543  0
-35.874123  -38.287491  -40.564373  0
-40.699516  -36.379124  -41.367977  0
-39.413502  -37.038353  -41.591248  0
 -7.276389  -37.181305   53.364777  0
 -9.729924  -37.103493   53.764061  0
 -7.974592  -37.862034   52.801208  0
-11.906273  -37.953987   52.796490  0
 -7.029835  -36.417091   53.459488  0
 -7.754256  -36.418503   53.796406  0
 -8.798717  -35.528046   54.191208  0
-11.121248  -35.958317   54.630470  0
-12.743728  -37.005882   53.913105  0
-15.397109  -37.637920   52.768661  0
-13.118017  -36.042061   54.654263  0
-14.841067  -35.986126   54.291931  0
 -6.432714  -37.181953   51.663731  0
 -6.500062  -36.297565   51.983349  0
 -5.316949  -35.711052   51.460571  0
 -9.183859  -38.221569   52.114281  0
-10.863676  -38.244751   51.490868  0
-13.569520  -38.089607   51.422413  0
-15.993782  -38.080181   51.308933  0
-17.313292  -38.041199   52.141968  0
-16.610258  -36.879284   53.213200  0
 -4.743604  -37.013851   51.167522  0
 -6.735987  -38.079117   50.785423  0
 -3.102668  -37.075661   50.565041  0
 -2.793829  -35.978226   51.244789  0
 -8.433504  -38.304626   50.902161  0
-11.735189  -37.861374   49.853130  0
-14.191855  -37.757362   50.151417  0
 -1.621430  -36.067802   50.532646  0
 -6.190022  -38.424957   49.302265  0
 -7.914115  -38.587646   49.555984  0
 -9.587316  -38.164143   49.079762  0
 -1.271780  -36.360439   48.359695  0
 -2.930931  -37.575302   48.333874  0
 -0.849254  -34.649940   50.170773  0
 -0.663480  -35.237549   48.679237  0
 -5.283588  -38.418606   48.265697  0
 -6.638296  -38.761459   48.253590  0
 -7.916848  -38.526810   48.254631  0
-10.895493  -37.484756   47.676476  0
-10.041133  -37.651379   45.962269  0
-30.316442  -35.020504   47.722351  0
 -2.334597  -37.817871   46.351074  0
 -1.169663  -36.757797   45.851524  0
 -0.852749  -35.462654   46.573925  0
 -4.896852  -38.649345   47.042049  0
 -6.429225  -38.613251   47.268036  0
 -7.994408  -38.364929   47.014030  0
-26.211552  -36.504398   50.276119  0
-24.877039  -37.215683   50.173763  0
 -7.279549  -38.577259   46.028831  0
-23.882530  -37.786377   48.975742  0
 -0.833567  -35.499889   44.177212  0
 -6.990332  -38.530228   44.712559  0
 -8.306693  -37.962585   44.384010  0
-22.053757  -37.367500   46.559204  0
-29.938734  -34.114552   44.118614  0
-33.989353  -35.899109   45.634720  0
-32.753696  -34.912922   45.953835  0
-35.493664  -35.527641   44.882290  0
 -1.025651  -34.592426   41.427929  0
-30.962065  -35.712593   43.913170  0
-37.084763  -35.295010   44.089058  0
 -1.666647  -35.023556   39.147312  0
-18.105362  -35.347237   42.918850  0
-26.677366  -34.481529   41.050720  0
-28.886625  -34.765491   41.026039  0
-38.943436  -35.106792   41.130222  0
-14.673300  -35.006397   41.317787  0
-37.843773  -35.166367   38.783016  0
-42.555786  -35.139896   40.244137  0
-24.562037  -33.993023   37.053871  0
-24.027538  -33.379097   37.641880  0
-39.514484  -34.639828   40.053280  0
-43.269329  -35.886456   39.973858  0
-44.755394  -35.836308   38.735683  0
 -4.344468  -35.470657   35.841347  0
-25.926657  -34.533821   37.750416  0
-26.326534  -33.039444   38.025829  0
-36.365299  -34.620625   35.980206  0
-45.238258  -36.237755   37.449978  0
-38.014675  -35.934593   36.964989  0
-45.323818  -36.856194   36.002113  0
-35.912643  -35.260216   33.529678  0
-37.070412  -36.247955   34.935707  0
-34.995609  -34.731773   32.590321  0
-36.422588  -35.839813   33.250309  0
 -1.468792  -34.376324   31.666576  0
-36.263115  -35.621189   32.339489  0
 -0.897336  -34.480499   30.626366  0
-33.501400  -35.686745   29.160944  0
-36.053097  -35.650272   30.748648  0
-36.111961  -35.438492   29.347357  0
 -1.142974  -33.517548   27.145441  0
-32.883102  -35.407330   27.114138  0
 -2.470259  -33.307220   25.799870  0
-33.266510  -35.807941   25.587166  0
 -4.898020  -33.950912   24.044945  0
 -6.850174  -34.466331   23.035601  0
-41.640278  -36.176453   24.403578  0
 -8.605874  -34.592873   22.373608  0
-32.501602  -35.079189   24.911802  0
 -9.962989  -34.947701   22.084427  0
-11.153406  -35.512875   22.189734  0
-53.948311  -35.331894   25.189487  0
-49.749695  -34.990780   24.366135  0
-51.811020  -34.767670   24.621037  0
-53.293346  -34.516975   24.429747  0
-54.813278  -35.736507   24.279676  0
-47.045071  -35.161724   22.297522  0
-49.307507  -34.567638   22.453484  0
-43.902046  -34.787605   20.145327  0
-46.406658  -34.855209   20.842691  0
-52.380402  -36.205967   19.035774  0
-37.498535  -35.319973   17.577446  0
-42.258251  -34.996056   19.093649  0
-52.785961  -35.518753   17.373325  0
 -5.159552  -36.995750   22.667418  0
 -7.432084  -36.372185   22.388592  0
 -3.695449  -37.310966   21.775871  0
 -2.993328  -36.894840   19.552979  0
 -2.747865  -35.837837   17.233765  0
-10.398027  -35.542156   19.650583  0
-15.627635  -36.260426   16.987915  0
-56.210167  -35.716377   16.219496  0
-58.024689  -35.837528   15.553459  0
 -2.962803  -35.909065   14.954604  0
-38.777275  -35.446705   16.645493  0
-59.174583  -36.293652   14.716276  0
 -3.649188  -36.004440   12.611971  0
-36.077255  -36.225418   15.451331  0
-59.219223  -37.153793   13.922462  0
-12.905151  -35.482468   16.550079  0
-54.029354  -38.269176   12.979774  0
-56.208401  -37.852154   13.127399  0
 -3.395736  -36.259121   11.123116  0
-14.157310  -35.341541   16.345474  0
-53.335579  -39.147949   12.284060  0
 -2.527198  -35.315994    9.247065  0
-56.038521  -38.385792   10.979499  0
-57.203243  -37.764267    9.755783  0
-57.153782  -37.537601    8.091629  0
-57.607933  -37.486481   11.118537  0
 -2.319821  -35.425323    7.990582  0
-60.703251  -35.823071    8.959288  0
-58.412792  -36.396412    7.251864  0
-44.206688  -35.876041    4.226630  0
-44.016315  -35.400948    5.538011  0
-42.133083  -35.139389    4.794866  0
-43.943249  -34.918633    6.807163  0
-41.115364  -34.785152    6.766164  0
-45.491234  -35.854088    5.470590  0
-45.957870  -35.365025    6.557499  0
-46.661308  -36.321602    5.392719  0
-47.659828  -35.456184    6.135937  0
-48.190948  -36.655560    4.735312  0
-57.239609  -36.561729    5.589208  0
-59.687092  -34.599365    4.881968  0
 -2.423338  -35.304821    7.362537  0
-36.154823  -35.819756    4.947262  0
-36.902294  -35.268753    5.897769  0
-38.595451  -35.102295    6.410811  0
-40.202709  -35.056599    4.975393  0
-41.303577  -34.977764    5.993568  0
-48.725258  -36.857975    4.039190  0
-56.264511  -36.662144    3.962187  0
-52.738579  -37.564648    1.895066  0
-54.891685  -37.347790    2.494530  0
 -2.396125  -36.134457    6.453672  0
-50.351482  -35.925152    1.112959  0
 -1.854129  -35.519714    4.948992  0
 -2.538671  -36.936272    5.545545  0
-32.548367  -33.426167    2.150213  0
-52.435883  -35.547054    0.018991  0
-54.219223  -36.472321    0.911379  0
-31.017895  -33.283443    1.704144  0
-31.817968  -34.476719    0.040639  0
-36.437073  -34.354198    0.065069  0
-43.444462  -33.550503   -0.919682  0
  0.426365  -34.943455   -2.867862  0
-44.457714  -33.994564   -1.969475  0
-47.764149  -34.510281   -3.141019  0
-45.568096  -33.982975   -3.268718  0
-55.340878  -35.723469   -7.155698  0
-59.417950  -36.028713   -9.176733  0
-40.516426  -34.962593   -9.992265  0
-43.367474  -34.900005  -10.280714  0
-45.760273  -34.742344  -10.803124  0
-47.935688  -35.591297  -12.146976  0
-50.927315  -35.780449  -12.796497  0
-59.006695  -35.071896  -11.050518  0
-56.097275  -35.623650  -12.051409  0
 -2.789040  -35.929207  -12.126254  0
 -4.853008  -35.873535  -13.327284  0
-14.980399  -34.996067  -14.865135  0
-14.531095  -34.774136  -14.548221  0
-18.448709  -35.426674  -14.494133  0
-21.501616  -35.457790  -14.587173  0
-23.592852  -34.564598  -15.640244  0
-61.823578  -35.110199  -14.929524  0
-58.692665  -35.441982  -14.624220  0
-62.552696  -36.062561  -15.419736  0
-62.950054  -35.145576  -16.281384  0
 -8.404359  -34.294418  -15.397525  0
-22.186447  -31.650375  -19.001961  0
-23.529915  -34.446278  -17.057369  0
-41.675674  -36.172768  -12.890862  0
-42.939671  -36.443417  -13.997902  0
-56.942101  -34.763184  -13.892102  0
 -7.411843  -34.467293  -16.779728  0
 -9.319919  -33.261959  -15.656272  0
-12.353112  -32.690670  -15.520271  0
-15.560611  -32.827236  -16.627268  0
-16.232264  -34.222584  -17.938986  0
-17.099892  -34.806507  -18.452202  0
-18.180124  -34.576443  -18.591843  0
-27.961002  -34.996437  -19.438753  0
 -6.301324  -34.586845  -19.625622  0
-14.623803  -32.202354  -16.400612  0
-17.961605  -34.006500  -19.205027  0
-29.649441  -35.123760  -20.067150  0
-61.230659  -36.251049  -19.592312  0
-62.290623  -36.187641  -19.271587  0
-59.922707  -35.745533  -19.087448  0
 -6.785239  -35.005703  -20.634560  0
-16.352398  -33.388924  -18.151506  0
-16.915144  -34.155022  -18.995926  0
-23.828735  -35.860394  -20.861902  0
-57.844395  -35.541008  -19.600979  0
-22.729071  -35.815376  -22.084888  0
-29.997629  -34.173367  -21.447840  0
-50.942825  -34.525394  -21.677134  0
 -9.094294  -36.758961  -23.151924  0
 -9.627561  -36.323601  -23.738501  0
-20.500185  -36.871052  -24.116802  0
-21.113897  -36.270748  -23.628740  0
-11.722234  -37.068855  -26.497677  0
-14.132215  -37.416370  -27.441776  0
-12.457574  -36.483288  -27.353304  0
-19.103931  -36.616413  -24.347073  0
-15.431218  -36.703239  -27.004213  0
-17.378555  -36.593132  -25.316275  0
-27.155312  -33.854240  -24.505219  0
-52.791538  -34.512386  -24.651501  0
-25.882950  -34.666634  -24.807384  0
-53.937046  -35.417408  -25.495089  0
-53.178398  -35.183571  -26.340866  0
-19.742809  -36.128368  -27.702766  0
-21.228277  -36.138786  -26.592094  0
-21.874371  -35.198826  -26.047701  0
-24.701696  -34.367012  -25.598976  0
-41.069653  -35.090317  -28.260061  0
-40.590485  -34.397568  -27.295303  0
-39.578941  -34.923286  -28.109945  0
-42.330753  -33.965458  -27.762941  0
-42.525482  -34.894165  -29.350412  0
-43.035133  -34.091133  -28.974970  0
-39.136532  -34.958149  -28.911983  0
-44.029919  -34.127640  -31.395418  0
-52.293636  -34.870323  -27.283455  0
-52.446487  -35.029762  -29.135136  0
-52.967747  -34.815109  -31.290440  0
-18.247856  -36.207565  -30.528439  0
-18.917860  -36.909210  -31.328033  0
-20.251059  -36.724445  -32.322906  0
-21.575478  -36.547626  -32.931854  0
-38.667057  -34.123375  -30.277599  0
-54.330296  -35.813686  -33.763130  0
-54.088844  -34.594269  -35.203270  0
-38.986004  -34.212234  -32.323273  0
-45.372169  -35.771942  -35.346832  0
-46.163967  -37.101738  -37.098625  0
-48.476322  -38.732895  -35.905571  0
-31.045494  -36.608932  -36.099041  0
-48.675957  -37.967808  -37.028828  0
-51.808357  -35.369141  -35.978443  0
-32.004978  -36.859264  -36.612736  0
-32.858360  -37.908314  -38.200817  0
-40.870617  -34.482475  -35.707779  0
-47.059254  -36.789486  -37.408493  0
-48.270908  -36.868988  -37.458168  0
-41.799015  -36.011780  -39.067230  0
-41.824131  -34.144985  -38.804192  0
-50.101910  -34.848843  -36.466908  0
-33.948841  -37.892937  -39.673412  0
-34.149277  -36.721394  -40.008957  0
-36.850922  -35.620731  -40.925186  0
-39.604141  -35.647537  -41.786827  0
-40.543648  -34.876331  -41.657887  0
-39.079945  -34.390244  -41.628098  0
-10.172525  -34.377800   54.919628  0
-13.283083  -34.758762   55.071487  0
-14.907410  -33.939423   54.875233  0
-17.698496  -35.934422   53.302670  0
-18.481394  -37.477455   52.592155  0
-18.505836  -38.177773   51.149651  0
-20.334415  -37.634739   51.913723  0
-20.203281  -36.546066   52.850349  0
 -1.319500  -34.756023   50.881420  0
-13.638303  -36.905880   48.345810  0
-16.396101  -37.310589   48.425972  0
-17.871037  -37.816460   49.219490  0
-19.669535  -37.977573   49.906372  0
-22.922295  -37.049606   51.305016  0
-24.622671  -35.621613   51.154896  0
-23.054708  -37.758862   50.244141  0
-26.638453  -34.937267   50.452362  0
 -0.916041  -33.970894   49.891228  0
-12.217066  -36.635105   46.844276  0
-15.687871  -36.483864   47.168701  0
-22.592764  -37.849377   49.445797  0
-27.787743  -34.368340   49.483978  0
-28.983665  -33.495102   48.887810  0
-29.881018  -33.721684   48.164074  0
-31.040537  -34.409035   46.350033  0
 -0.968812  -34.195694   47.387459  0
-11.170159  -36.829082   45.565372  0
-14.337849  -35.921864   46.155220  0
-21.231237  -37.545067   48.032169  0
 -9.166706  -37.842884   44.828747  0
-30.498600  -33.264732   45.956013  0
 -0.965882  -33.762375   45.121670  0
-10.484938  -36.983414   44.095329  0
 -1.170691  -32.836014   42.204464  0
 -9.719801  -37.149170   43.267662  0
-11.177797  -36.363003   42.184135  0
-29.191345  -33.028252   43.736095  0
-26.739294  -33.808559   41.727856  0
-34.721458  -34.150227   45.884338  0
-36.550720  -33.556156   44.638138  0
-19.601858  -35.775444   43.981636  0
-31.395386  -33.885899   45.819141  0
-30.551453  -33.911140   44.533482  0
-38.015942  -34.216393   43.330441  0
-38.685188  -34.005074   42.330269  0
-25.258703  -33.889977   40.086823  0
 -1.825538  -33.852348   39.714470  0
-16.721724  -34.934135   42.097542  0
-30.016865  -34.637760   42.864464  0
-38.926952  -34.715862   40.375237  0
-37.958599  -34.025391   39.616009  0
 -3.209534  -33.215031   39.041412  0
-13.054946  -35.362003   41.855000  0
-24.377058  -33.194908   38.741428  0
-36.744801  -34.132351   38.125542  0
-43.957439  -35.121666   39.395023  0
-23.796349  -32.899712   36.916203  0
-38.512299  -34.926590   37.012165  0
-24.697376  -32.939617   36.632061  0
-35.529182  -33.533058   35.286549  0
-37.696697  -34.986275   34.406425  0
-45.316242  -36.584152   34.592464  0
 -2.291444  -34.638016   33.895512  0
 -2.907830  -34.843674   34.900909  0
-33.183430  -34.260265   30.869143  0
 -1.938969  -33.290646   32.406391  0
-44.224785  -35.738747   33.203114  0
-36.518433  -34.190586   31.328594  0
-43.421139  -35.363827   31.572781  0
-35.916172  -33.791283   30.007618  0
-31.305473  -34.119652   28.263443  0
-31.627003  -34.483276   27.100863  0
-30.278839  -33.709949   26.282303  0
-35.570530  -34.579079   28.727654  0
-42.565975  -35.480801   26.665625  0
 -1.662301  -32.693165   26.975811  0
-32.259392  -34.609150   25.783625  0
-34.561085  -34.248283   27.530998  0
 -5.198987  -32.290165   25.178999  0
 -7.166577  -33.200001   23.642794  0
-31.485266  -33.705997   25.375305  0
 -9.288491  -32.688892   22.657621  0
-41.721737  -35.081318   24.031372  0
 -9.659760  -33.930393   22.059395  0
-10.656715  -34.046364   21.810410  0
-33.814960  -34.939186   26.112547  0
-11.436265  -34.986347   21.659674  0
-12.002856  -34.340309   21.246218  0
-33.040627  -35.782738   24.738384  0
-32.804691  -34.705551   25.384943  0
-40.690151  -35.072205   21.185806  0
-13.275307  -34.504295   20.439585  0
-14.204423  -34.101654   19.622768  0
-38.954983  -35.469498   19.411041  0
-51.861633  -33.987862   23.269035  0
-54.092983  -34.464706   24.043501  0
-55.076935  -35.339401   22.883986  0
-15.087195  -34.410622   18.428940  0
-54.423401  -35.720200   20.590776  0
-45.311592  -34.337563   19.831804  0
-47.716755  -33.988590   20.535332  0
-53.423512  -34.827652   17.775564  0
 -3.713408  -36.373398   23.058519  0
 -2.184258  -35.916077   22.082321  0
 -5.108386  -35.907322   23.113150  0
-42.481487  -34.393402   18.747869  0
 -2.451303  -36.370342   21.091009  0
 -8.802596  -35.042133   21.303862  0
-35.362373  -35.937016   15.957130  0
-14.856846  -36.084335   16.007568  0
-55.032112  -33.881077   16.159639  0
-11.235821  -34.307644   18.267370  0
-56.291000  -34.662323   15.286410  0
-57.225117  -34.014378   14.580562  0
-59.521908  -35.100956   13.968251  0
-60.596191  -35.745388   13.439055  0
-60.039722  -33.519798   13.363021  0
-57.641617  -37.470131   12.409785  0
-59.539852  -36.837875   12.716422  0
-60.912754  -36.108746   12.735625  0
-62.576107  -34.570652   12.188504  0
-61.898224  -33.409935   12.993105  0
-55.654808  -38.015034   12.306936  0
-61.144943  -36.085133   11.377395  0
-62.580791  -34.985706   10.665044  0
-63.624386  -33.468349   10.836900  0
-63.402649  -31.725288   12.000827  0
 -2.745912  -34.539494   10.429394  0
-59.360710  -36.905270   10.779230  0
-63.602566  -33.586842    9.385510  0
-63.841175  -31.835894    9.521307  0
 -2.582520  -34.442471    8.816295  0
-62.679672  -34.057343    7.976300  0
-63.340633  -32.468262    7.985987  0
-61.701317  -33.959785    6.079060  0
-62.530758  -32.682816    6.654671  0
 -2.847718  -33.934292    8.591991  0
-39.658085  -34.209095    7.100814  0
-37.617142  -34.378010    6.094245  0
-45.034821  -34.427124    7.375059  0
-48.310997  -35.594955    5.184973  0
-36.229076  -35.028133    4.923359  0
-48.399681  -35.370834    4.227356  0
-57.533150  -34.860161    2.975987  0
-59.121559  -33.952354    3.460615  0
-60.433098  -33.351460    4.273222  0
-57.307190  -33.988197    1.774467  0
 -0.335764  -33.543385    5.158198  0
-30.378723  -32.255501    2.827733  0
-54.432163  -34.974598    0.087346  0
-55.856659  -35.150303    1.020905  0
-53.470570  -33.766941   -0.460384  0
-56.135220  -33.333946    0.539054  0
-31.419359  -33.074127    1.024310  0
  0.228295  -32.871815   -1.480019  0
-32.456318  -33.367561   -0.074177  0
-34.022480  -34.016407   -0.464290  0
-37.681644  -32.972668    0.512183  0
-40.618771  -33.196774    0.601202  0
-35.959747  -32.862167   -0.401029  0
-35.017685  -32.051525   -0.345617  0
  0.264141  -34.013817   -6.053042  0
-49.907177  -34.726006   -3.903920  0
-51.989555  -35.019646   -4.820735  0
  0.006872  -34.509125   -9.532758  0
-58.521606  -35.170536   -7.790645  0
-59.800587  -34.746876   -8.836670  0
-39.487511  -34.192551  -10.094928  0
-49.593460  -34.162472  -11.320108  0
-59.823181  -33.960258   -9.507358  0
-39.257797  -33.925133  -11.025932  0
-52.115879  -33.901852  -11.562777  0
-54.913715  -33.943604  -11.434990  0
-57.494957  -33.861134  -11.084071  0
 -0.578134  -34.892769  -11.162412  0
 -2.598302  -34.623123  -11.246902  0
 -5.074737  -35.081127  -12.620432  0
 -7.016089  -34.722576  -14.193500  0
-10.459798  -34.658882  -13.417673  0
-11.669683  -34.514095  -13.389552  0
-12.633935  -34.653229  -13.565564  0
-39.815937  -33.333916  -11.392153  0
-15.459978  -35.037735  -14.097040  0
-15.454643  -34.376778  -14.339205  0
-19.383585  -34.805038  -15.026432  0
-40.907883  -34.891338  -11.955619  0
-22.094797  -34.412991  -15.404270  0
-43.198380  -35.347717  -13.347931  0
-60.535995  -34.214447  -14.132399  0
-44.691074  -35.059242  -14.372487  0
-51.426819  -33.300026  -14.340364  0
-52.961239  -32.691795  -13.825480  0
-54.508545  -33.694923  -13.536913  0
-56.842361  -33.544247  -13.472209  0
-10.359468  -32.419476  -16.143055  0
-49.196930  -33.501736  -14.312997  0
-62.933685  -35.489922  -17.696602  0
 -6.716681  -33.379372  -19.171721  0
 -7.526784  -32.611942  -18.548750  0
 -8.459571  -33.000240  -17.197102  0
-13.824373  -31.755194  -16.371584  0
-13.328954  -31.327951  -16.945950  0
-59.512222  -33.795742  -17.693604  0
-57.918610  -33.348534  -18.405375  0
-56.456459  -33.884903  -19.548084  0
-61.706203  -34.617241  -17.246897  0
-15.355801  -31.997499  -17.105892  0
-16.125849  -32.619358  -18.248985  0
-24.396263  -34.338886  -21.438784  0
-52.134369  -33.775101  -20.865425  0
-17.075327  -32.871174  -19.357561  0
-22.007132  -35.356186  -23.001930  0
-50.978115  -34.678226  -22.636564  0
 -7.270103  -34.119576  -21.445574  0
 -8.909341  -34.657494  -23.262899  0
-30.060196  -33.173191  -22.787342  0
-10.588608  -35.418205  -24.950823  0
-11.611825  -35.718163  -26.412079  0
-19.300125  -35.506275  -24.378008  0
-12.661807  -35.210518  -27.397257  0
-13.809182  -35.987492  -27.543552  0
-16.424498  -34.932007  -26.161757  0
-17.457270  -35.325764  -25.442024  0
-29.834463  -31.982174  -24.193352  0
-51.560982  -34.214413  -23.381392  0
-52.246033  -34.333031  -23.809267  0
-28.491182  -32.523766  -24.606251  0
-40.366978  -33.250565  -27.636774  0
-41.378281  -33.692841  -27.082645  0
-42.039501  -32.787529  -27.657593  0
-43.127579  -32.869228  -28.616001  0
-22.391033  -34.272751  -25.968803  0
-26.042408  -33.529621  -26.015036  0
-39.164841  -34.025806  -28.096689  0
-17.976860  -34.407700  -29.130480  0
-21.156712  -33.622753  -26.518286  0
-44.047581  -32.846405  -30.210344  0
-45.070797  -34.541252  -33.580925  0
-18.304420  -35.477936  -31.581707  0
-23.079350  -36.343014  -34.064442  0
-53.314674  -34.034176  -32.330750  0
-54.490070  -33.458942  -35.200134  0
-24.510019  -35.719975  -35.397102  0
-46.768097  -35.824432  -36.715172  0
-46.730446  -34.250008  -35.031357  0
-54.289639  -33.869221  -36.097759  0
-18.730057  -34.501453  -31.956902  0
-21.485796  -34.789482  -33.570244  0
-23.029490  -34.790241  -34.684753  0
-53.208080  -33.906322  -36.294342  0
-32.037388  -36.023575  -37.761921  0
-39.545685  -33.263210  -34.868198  0
-48.548512  -34.838467  -36.387539  0
-51.478981  -34.070274  -36.060902  0
-32.670174  -36.772358  -39.111282  0
-41.065952  -32.686752  -37.896713  0
-41.393906  -34.543007  -40.530178  0
-36.845249  -33.372894  -41.252277  0
 -7.900130  -34.731506   53.540615  0
 -9.582693  -33.666275   54.721031  0
-10.938375  -31.663931   54.883575  0
-12.425681  -32.947086   55.238777  0
 -6.615809  -35.084019   52.050785  0
-16.715065  -33.796558   53.890213  0
-15.792885  -32.594612   54.623753  0
 -5.329959  -33.833984   51.206577  0
 -7.043708  -33.227898   51.816624  0
 -8.048194  -33.453690   52.868256  0
-18.182398  -33.390533   53.632050  0
-19.823078  -34.988182   53.309898  0
-21.806301  -35.856449   52.594261  0
-23.656664  -35.371117   51.837227  0
-25.164364  -33.667507   51.130341  0
 -2.326787  -33.313080   50.920792  0
-21.463696  -37.920620   50.234203  0
-26.654699  -32.589603   50.296894  0
-19.205379  -37.112675   47.095280  0
-28.078789  -32.602695   49.132130  0
 -1.497670  -33.138657   48.646084  0
-13.251978  -35.726898   44.687057  0
-16.172028  -35.872860   46.059948  0
-17.745977  -35.672527   44.839661  0
-19.891592  -36.478756   45.323627  0
 -1.452905  -32.853703   47.123478  0
-29.630924  -31.886974   46.409927  0
-29.254959  -31.842766   44.814568  0
-12.418904  -35.942028   43.126190  0
 -1.045304  -32.051987   43.480282  0
-26.869837  -32.049305   42.420994  0
-27.581055  -31.422400   43.497555  0
-32.912437  -32.480125   46.258621  0
-35.419060  -32.757858   45.714642  0
-25.446404  -32.490280   41.184059  0
 -1.242232  -33.245235   40.917858  0
 -2.315566  -32.621708   40.111675  0
-24.787390  -32.688541   40.301880  0
-38.734818  -33.824512   40.970318  0
-28.712395  -33.306507   41.388371  0
-29.578728  -32.956127   43.420933  0
 -3.846826  -33.967087   37.181572  0
-27.684238  -33.052380   39.537483  0
-42.183220  -33.350456   40.211784  0
-40.925152  -33.180656   40.215885  0
-40.444923  -31.988428   39.649807  0
-43.863392  -33.894234   39.542892  0
-45.006435  -34.871361   38.906551  0
-39.460014  -32.778580   38.359669  0
-23.965868  -30.584396   36.337429  0
-24.849751  -31.202883   37.310913  0
-38.937019  -33.038010   35.307926  0
-45.979546  -36.343914   35.696743  0
 -2.265067  -33.506119   33.789211  0
-34.280273  -32.993244   33.561417  0
-38.106735  -33.734028   33.749660  0
-45.746323  -35.954029   34.219704  0
-32.491859  -32.942482   31.142504  0
-37.332958  -33.566959   32.480656  0
 -2.039290  -32.057549   31.053661  0
 -1.149918  -32.970207   30.128757  0
 -2.264108  -31.582825   29.577936  0
-30.718498  -33.132694   28.926922  0
 -1.360175  -32.391209   28.545294  0
-36.816612  -32.178028   31.311918  0
-34.182945  -32.370434   28.343040  0
-43.116188  -35.012619   29.680441  0
-29.369383  -33.134453   26.915730  0
 -3.126112  -31.766291   27.068090  0
-33.229015  -33.587051   26.544279  0
 -7.256795  -31.860607   24.651850  0
 -8.372132  -32.140144   23.418577  0
-29.758123  -32.622795   25.816772  0
-30.767958  -31.910107   25.536724  0
-10.841907  -32.291943   21.983986  0
-31.666418  -32.039143   25.811148  0
-32.607716  -33.386391   25.836235  0
-12.833177  -31.581867   20.612505  0
-41.465919  -34.660408   22.531216  0
-39.945087  -34.580254   19.776039  0
-53.609009  -33.666847   23.814388  0
-55.017368  -34.277710   23.987289  0
-55.811649  -35.383739   21.725254  0
-56.497887  -34.716534   22.452579  0
-55.788651  -34.827694   20.650019  0
-50.898167  -33.079998   22.118088  0
-47.971661  -33.404972   20.718817  0
-55.463398  -33.689892   18.485996  0
 -2.392786  -34.911667   22.907251  0
 -4.180085  -34.922020   23.257816  0
 -6.467386  -34.589626   22.560076  0
-38.176315  -34.985863   16.998808  0
 -2.591240  -35.741703   19.142454  0
 -1.791345  -35.214947   19.934351  0
-10.533956  -33.321846   18.716146  0
 -8.583659  -33.699036   20.606716  0
-14.945711  -34.542145   17.277660  0
 -2.094105  -34.521503   17.318058  0
-39.958321  -34.366577   17.853853  0
 -2.413583  -34.755478   13.753439  0
-55.918148  -33.820271   15.160266  0
-12.226382  -34.310177   17.535067  0
-58.643467  -33.517879   13.784201  0
-60.805382  -32.369240   13.016065  0
-61.957027  -31.564793   12.912401  0
-63.730347  -30.534369   10.825959  0
-63.564877  -30.599108    8.968824  0
 -2.080833  -32.946407    9.429621  0
-62.864288  -31.101871    7.674253  0
-43.036243  -33.435570    7.533612  0
-40.528286  -33.541653    7.359301  0
-45.194126  -33.699055    7.414110  0
-47.339127  -34.286011    6.301575  0
-61.104008  -32.531540    4.830876  0
-61.829357  -31.263887    6.731751  0
-35.781525  -34.750412    3.370041  0
 -2.041188  -35.030369    7.472373  0
 -2.645442  -33.906914    8.110239  0
-34.874191  -34.145908    2.196369  0
-49.117264  -36.002346    2.936975  0
-54.214794  -31.946661    4.629955  0
-56.048603  -31.862045    4.005718  0
-55.286121  -31.707355    6.324284  0
-57.678501  -31.416988    5.172327  0
-57.096180  -32.126129    3.127623  0
-58.713245  -32.967075    3.155532  0
 -1.413990  -33.799248    5.700900  0
-33.912666  -33.708073    2.035706  0
-55.728111  -31.596010    2.489801  0
  0.244788  -32.774693    3.107925  0
-57.171062  -33.081818    1.841817  0
-31.052891  -32.082237    1.537128  0
-38.952267  -31.463581    0.408125  0
-40.044071  -31.738998    0.560823  0
-41.408367  -31.978163    0.589295  0
-37.663574  -31.373177    0.137034  0
-42.494553  -32.330700    0.174070  0
-36.620544  -31.360147   -0.524275  0
-44.681843  -33.352856   -2.410156  0
-45.803345  -33.082901   -2.922264  0
-47.952904  -33.857220   -3.375983  0
-50.820129  -34.135086   -3.955324  0
-54.650017  -34.319740   -5.330966  0
-58.020443  -34.104015   -6.247850  0
-59.153839  -33.897385   -6.788603  0
-59.490715  -33.001518   -6.730367  0
-40.838402  -33.561901   -9.548380  0
-42.831867  -33.335545   -9.572768  0
-45.187199  -33.763103  -10.081508  0
-47.795124  -33.111767  -10.510793  0
-51.497261  -32.197010  -10.648605  0
-54.154438  -32.339569  -10.765186  0
-58.828991  -33.281681  -10.104877  0
 -4.145266  -33.032509   -9.110103  0
 -3.576229  -34.026657  -10.763473  0
 -5.340246  -32.885975   -9.334198  0
 -0.679701  -33.648689   -9.958169  0
 -9.078848  -33.719212  -13.376657  0
-10.511527  -33.982040  -13.487432  0
-13.459302  -34.166538  -13.877006  0
-41.387604  -32.433708  -11.845451  0
-17.807440  -33.482075  -15.812171  0
-23.478941  -32.444038  -16.846756  0
-20.174395  -33.584370  -16.231272  0
-43.664963  -33.374729  -12.779767  0
-59.655495  -33.087601  -13.359423  0
-61.488724  -33.079407  -14.000014  0
-45.584408  -33.601227  -13.881447  0
-62.260014  -33.842716  -15.462574  0
-61.166550  -32.896362  -16.139795  0
 -9.952045  -31.727386  -17.559055  0
-11.468008  -31.447899  -17.106947  0
-27.627226  -33.629482  -20.180353  0
-29.330162  -33.391891  -20.383284  0
 -7.074031  -32.707310  -20.027538  0
-19.122185  -32.687111  -19.307358  0
-25.872988  -33.774799  -21.024223  0
-30.391438  -33.154575  -21.601822  0
 -8.161308  -32.883732  -21.571119  0
-15.456850  -31.306263  -17.327991  0
-16.600376  -31.283764  -18.142702  0
-18.075039  -32.222858  -19.825552  0
-23.271484  -34.218994  -22.540375  0
-50.965874  -32.918690  -22.288116  0
 -7.995038  -33.388294  -22.576502  0
-22.662153  -33.492542  -23.103104  0
 -9.921881  -33.077694  -24.108170  0
-11.404225  -34.559273  -26.107044  0
-10.983992  -33.632713  -25.015688  0
-20.838419  -34.012424  -23.624952  0
-14.262409  -34.923756  -27.116360  0
-13.034056  -33.959629  -27.216459  0
-18.505812  -34.382141  -25.311592  0
-52.062653  -33.510223  -24.287825  0
-14.738313  -33.543846  -27.105135  0
-43.698341  -31.212212  -29.328531  0
-52.191841  -33.239475  -25.336872  0
-52.459320  -33.926773  -28.307581  0
-27.566715  -32.568493  -26.831629  0
-28.346601  -32.109684  -25.884884  0
-39.670105  -33.157497  -29.123013  0
-43.624397  -31.580196  -29.573395  0
-19.038113  -34.196911  -27.603725  0
-19.865183  -33.459499  -27.069822  0
-20.515814  -32.548908  -27.454201  0
-24.204885  -32.987877  -27.055355  0
-38.830181  -33.105423  -29.992603  0
-45.600525  -32.186920  -31.245638  0
-21.216223  -31.581095  -28.565887  0
-26.186827  -32.218143  -28.641180  0
-37.997772  -32.785839  -31.539463  0
-17.525574  -33.682468  -30.953754  0
-46.405830  -32.688656  -32.713799  0
-54.216328  -33.195423  -33.591370  0
-54.906242  -31.751228  -35.509617  0
-27.128199  -35.819328  -36.576199  0
-38.029575  -32.136898  -33.259529  0
-47.561092  -32.683086  -34.343792  0
-48.492748  -33.064346  -35.509289  0
-54.191830  -32.863956  -36.034199  0
-53.194637  -31.330221  -36.106728  0
-19.843792  -34.209259  -32.636333  0
-20.503302  -33.996456  -33.237301  0
-26.015535  -35.048439  -36.261551  0
-29.122437  -35.308231  -37.381207  0
-31.127729  -35.927887  -36.323971  0
-49.586048  -33.437378  -36.082520  0
-51.151287  -32.386806  -35.959965  0
-21.840481  -33.850704  -34.178101  0
-24.810902  -34.295578  -35.779148  0
-39.307564  -32.057724  -35.542194  0
-32.344368  -35.429497  -39.086845  0
-40.428772  -31.085211  -37.739838  0
-34.131310  -33.993168  -39.976074  0
-41.150211  -32.935341  -39.822830  0
-40.536251  -31.144827  -39.533993  0
-40.152130  -32.687523  -40.949635  0
-38.568504  -32.476498  -41.394730  0
 -9.405760  -32.487473   53.596924  0
-13.125884  -30.664906   55.108322  0
-14.693729  -31.216009   55.092453  0
 -8.486025  -32.473309   51.993275  0
 -9.615372  -31.927500   52.424522  0
-10.557150  -30.992008   53.736835  0
-16.913158  -31.606762   54.341270  0
-20.027452  -32.504864   54.205013  0
-21.151138  -33.453281   53.829098  0
-22.214493  -33.516735   53.141460  0
-23.827869  -32.762081   51.970669  0
 -4.168017  -32.173168   50.486919  0
 -5.623215  -31.610052   50.501987  0
 -7.054632  -31.267179   50.434143  0
-10.293032  -31.555210   51.300926  0
-27.358301  -31.393429   49.495026  0
 -2.024641  -32.507339   50.192478  0
 -9.081752  -31.633823   50.587791  0
-28.092674  -31.405714   48.855156  0
-28.917978  -31.661133   48.008251  0
 -2.342796  -31.575123   48.188255  0
-15.734951  -35.215363   44.337620  0
-28.514877  -30.733234   46.418262  0
 -1.975803  -31.114326   46.253788  0
 -1.257674  -31.712683   44.424770  0
-16.473690  -34.777615   42.921982  0
-27.668465  -30.368820   44.915161  0
-34.621796  -31.029644   46.150051  0
-14.878263  -34.725410   42.374176  0
-30.754679  -32.428864   45.548668  0
-31.610800  -30.928097   45.888317  0
-37.921524  -33.037437   43.912399  0
 -1.361523  -31.528814   41.409397  0
-24.811020  -30.295174   40.698780  0
-23.894775  -31.372952   38.068512  0
-28.988258  -32.377010   42.478218  0
-38.482487  -32.768425   40.229614  0
-36.565548  -33.044209   38.207138  0
 -3.054222  -32.454540   39.068974  0
-28.269897  -31.630924   40.977261  0
-35.567841  -32.495018   35.744717  0
-44.110477  -32.477837   39.485344  0
-42.369625  -31.475372   39.758606  0
-45.302662  -33.298378   38.956417  0
-40.347790  -31.172762   38.340900  0
-46.045143  -33.901241   37.658577  0
-46.415810  -32.457096   37.666000  0
-45.210442  -31.657541   38.923779  0
 -3.128071  -33.731514   36.158314  0
-27.108128  -31.262110   39.141289  0
-46.386562  -35.849766   36.086746  0
-46.852711  -34.302147   36.556759  0
-46.849319  -33.075745   36.742283  0
 -2.241215  -33.144295   35.171436  0
-39.912781  -31.421436   35.576679  0
-47.000660  -35.547913   35.934116  0
-47.777996  -35.039162   35.828590  0
-48.031750  -33.750851   36.109756  0
 -1.995717  -32.390133   33.718544  0
 -2.109035  -31.904413   32.298927  0
-24.380993  -30.085566   36.953777  0
-39.070602  -31.698402   33.975780  0
-46.725895  -36.014084   35.010250  0
-47.598492  -35.865074   34.960468  0
-48.491356  -34.298100   34.993835  0
-44.207680  -34.796440   32.060627  0
-46.813324  -35.866421   33.607334  0
-48.508060  -35.635422   34.126076  0
-49.368755  -34.935417   33.659760  0
-45.537373  -35.225925   33.007118  0
-45.225937  -34.768490   31.732893  0
-48.285423  -36.278408   32.684093  0
-49.431042  -36.080746   32.849056  0
-50.454857  -35.139931   32.451229  0
 -2.977828  -30.686352   30.793213  0
 -4.084042  -31.071503   28.607574  0
 -3.597467  -30.700558   29.749279  0
 -6.096966  -30.093349   30.073528  0
 -7.073827  -30.990795   28.808401  0
-31.486921  -32.013969   29.878977  0
-47.096249  -35.830761   31.143063  0
-50.048958  -36.301350   31.661055  0
-51.288185  -35.426506   30.697062  0
-51.380486  -33.980366   31.748455  0
-51.461609  -34.327278   30.849552  0
-35.255779  -31.783749   29.612909  0
-44.335251  -34.421535   29.525503  0
-48.376637  -36.043217   30.370350  0
-46.111649  -35.011154   29.117470  0
-50.487770  -35.942738   30.023123  0
-52.009911  -34.510406   30.083612  0
 -4.932382  -31.283102   27.258287  0
 -7.610151  -31.108206   27.118320  0
-51.847195  -35.144638   29.314096  0
-52.581398  -33.954594   29.215229  0
 -6.402277  -31.506754   25.916578  0
 -8.654980  -30.913548   25.587763  0
 -9.550568  -30.718838   27.010372  0
-10.581625  -30.558245   26.740593  0
-29.472006  -32.631977   27.791391  0
-43.442478  -34.745724   27.632334  0
-45.455318  -34.739109   27.697741  0
-48.103085  -34.959244   27.664757  0
-50.478474  -34.866810   28.171726  0
 -8.693241  -31.201107   24.227079  0
-10.001891  -30.644808   24.902786  0
-29.521805  -31.945002   27.416031  0
-46.103962  -34.390667   26.148067  0
-10.306517  -31.249733   23.068336  0
-11.340628  -30.599760   26.310545  0
-29.368567  -32.134426   26.321487  0
-32.620251  -31.669430   26.972559  0
-33.747223  -30.600449   28.099308  0
-43.491245  -34.640053   25.701149  0
-11.293576  -31.318047   22.018728  0
-42.182053  -34.132652   22.257322  0
-13.726304  -31.525194   19.478054  0
-40.522667  -34.112827   19.195274  0
-55.176342  -33.221371   23.948853  0
-56.282200  -33.976467   23.875317  0
-57.650299  -33.906296   21.561390  0
-56.842236  -34.046448   20.488865  0
-57.413342  -33.737522   22.871559  0
-58.090645  -32.903328   21.391762  0
-57.554810  -33.093620   19.806454  0
 -2.196447  -33.216599   22.262512  0
 -3.636367  -33.807846   23.114588  0
 -1.230226  -33.385033   20.537361  0
-50.400200  -32.319042   22.055840  0
 -1.285511  -34.290485   19.998995  0
-13.879599  -31.879492   18.741734  0
-45.290314  -33.360390   19.880207  0
-55.094913  -33.496689   17.047220  0
 -1.165300  -33.209278   18.462521  0
 -9.209562  -32.840893   19.613400  0
-42.072723  -33.844425   18.922171  0
-13.744785  -33.913395   17.383543  0
 -1.760574  -33.508331   14.387547  0
 -1.682054  -32.830025   15.789619  0
-57.071976  -32.943119   14.847324  0
 -1.472348  -33.525425   12.060725  0
-58.724186  -31.887201   13.774334  0
-59.578777  -30.689987   13.002086  0
 -0.728139  -32.122894   12.258919  0
 -1.040242  -32.274742   10.466434  0
-62.681202  -30.405121   11.865806  0
-60.895794  -30.262537   12.261569  0
-52.671825  -31.220114   11.882143  0
-54.346420  -31.660267    9.349240  0
-56.056538  -31.131342   10.212341  0
-56.112743  -31.498123    8.722149  0
-58.873604  -29.895622    9.916784  0
-56.930656  -30.289577   11.601088  0
-59.615967  -29.586706   11.173736  0
-61.355145  -29.361504    9.917457  0
-63.404934  -29.817390   10.081104  0
-52.682793  -31.615705    7.650560  0
-59.253620  -30.349520    8.186703  0
-62.092899  -29.960182    8.606325  0
 -2.363097  -32.309059    9.155968  0
-57.827202  -31.111355    6.985955  0
-60.049667  -30.741835    6.785158  0
 -2.943654  -32.216866    8.627898  0
-39.908546  -33.288303    6.920733  0
-38.738880  -33.917629    5.545538  0
-45.001396  -33.085068    6.696671  0
-46.530075  -33.656582    6.024121  0
-59.729431  -31.620663    4.972109  0
-36.943405  -34.501926    3.792875  0
-47.214348  -34.437881    4.017630  0
-48.610809  -35.225471    2.119692  0
-52.047836  -31.658905    6.015093  0
-51.381779  -31.207291    7.737728  0
  0.494982  -32.474762    4.890748  0
 -0.608940  -32.342144    6.189135  0
 -2.001639  -33.256435    6.432579  0
 -1.862354  -32.419167    6.747202  0
