#!ascii file
 34.109035   20.791996  -25.828634  0
 35.084820   21.975340  -25.981752  0
 33.020649   21.499462  -25.225508  0
 35.752914   21.705799  -26.924992  0
 31.600134   21.959034  -24.829050  0
 30.587620   21.943678  -25.485994  0
 35.246407   21.568317  -28.283117  0
 28.843321   21.625771  -26.370445  0
 26.464169   21.724552  -26.416403  0
 24.554281   22.129932  -25.662209  0
 22.449196   22.399967  -25.327787  0
 22.043663   21.829716  -25.178068  0
 21.675550   22.403311  -26.241636  0
 33.410831   21.839214  -30.481853  0
 20.450947   22.417326  -27.720119  0
 20.224348   21.825476  -28.957716  0
 21.513611   22.601452  -31.625196  0
 20.595320   22.217350  -29.943930  0
 33.488998   24.580153  -33.049938  0
 27.013727   20.965193  -34.083843  0
 27.957102   20.462696  -34.812023  0
 25.479900   21.606802  -33.838810  0
 23.566113   22.155678  -33.653122  0
 35.093456   23.691027  -33.696434  0
 34.018410   24.632755  -33.943886  0
 28.312792   20.067205  -35.418797  0
 37.146183   23.095896  -34.060719  0
 36.196770   23.726833  -34.858677  0
 29.861555   19.995255  -38.899841  0
 30.223476   23.215797  -38.421776  0
 31.912081   23.148071  -38.637043  0
 35.123955   22.968235  -38.118877  0
  9.109488   21.267216   56.886921  0
  4.734393   22.701780   56.209904  0
  2.903789   23.057598   54.870804  0
 10.458467   21.933443   55.888706  0
 10.080589   22.949982   54.981861  0
  8.910746   23.220888   54.219769  0
  7.721340   22.594723   55.740177  0
  5.911105   23.294653   54.648796  0
  2.669402   22.885998   53.888470  0
 10.641189   23.193712   53.223183  0
  9.654732   22.908026   52.273777  0
  8.098383   22.653126   52.627197  0
  6.307258   22.701504   53.202019  0
  2.365760   21.213400   51.656757  0
  6.501786   22.119907   52.019634  0
  1.824450   20.051121   49.538342  0
  8.369356   22.139439   49.960133  0
  1.622826   20.624514   47.712330  0
  1.929493   20.868238   49.737099  0
  9.371870   21.969313   47.740341  0
  1.624626   20.058332   46.209885  0
  0.994774   20.257185   43.399940  0
 10.603547   22.217093   46.149609  0
 32.098488   18.036661   47.693619  0
  1.341761   19.617985   41.284416  0
 31.319067   19.323584   46.984612  0
 35.894028   18.785835   45.987663  0
 30.504623   18.764446   46.162094  0
 30.574146   20.666914   45.775646  0
 15.772766   20.116653   45.638603  0
  1.693860   19.993696   39.764256  0
  1.669945   20.953548   40.763367  0
 37.142906   18.982824   44.957630  0
 29.881132   20.417328   44.055462  0
 29.705179   21.248705   43.047527  0
  1.801273   21.955044   40.088711  0
 37.831635   18.207047   43.780209  0
 38.125629   19.827190   43.461147  0
 28.827280   20.268965   39.945206  0
 29.575516   21.392805   41.468246  0
 25.584341   17.230425   42.122036  0
 25.414230   17.064362   43.511818  0
 24.178242   17.644682   42.398079  0
 24.515207   17.276228   41.241463  0
 23.623281   17.303185   40.861607  0
  1.290578   19.783209   37.677711  0
  1.334816   22.038570   38.641796  0
 37.959209   17.843657   41.398018  0
 38.694843   18.835903   42.830551  0
 36.591290   17.016638   41.357838  0
 36.351383   17.143408   39.728191  0
 25.636051   17.554695   40.261032  0
 22.340500   17.864071   40.562660  0
 38.883915   18.842289   41.472507  0
 38.844913   19.686003   42.211990  0
 38.587315   20.095949   40.820374  0
 26.835079   18.828043   37.917984  0
 26.159538   18.965900   37.528530  0
 19.520710   20.030071   39.234093  0
  1.067154   20.163687   35.026611  0
 38.682346   18.760721   40.337345  0
 37.799252   17.688711   39.404930  0
 35.892773   17.374901   38.143986  0
 26.374866   20.233496   36.393627  0
 37.244331   17.367733   38.206543  0
 39.353996   21.366289   39.646561  0
 26.853958   19.596151   36.085476  0
 25.215919   20.926575   34.727440  0
  1.113393   19.254250   32.626812  0
 27.353672   20.572058   32.774532  0
 43.169960   21.270609   37.631474  0
 40.849091   21.660023   39.353207  0
 41.651390   21.913790   38.654598  0
  5.225221   19.400908   29.251019  0
  4.535084   20.200914   30.039057  0
 46.274647   21.947695   32.709103  0
 46.743290   22.667633   30.674549  0
 23.685890   21.515554   32.349941  0
  9.347080   20.165844   30.096449  0
 10.725202   22.205446   30.955885  0
 46.219597   21.027285   29.939070  0
 46.778740   22.128090   29.932968  0
 26.817007   21.110373   31.154367  0
 44.438435   21.169329   28.959690  0
 25.663115   21.163235   31.133858  0
 12.514646   20.945681   29.740143  0
 12.728620   21.932688   29.117990  0
 42.719982   20.744137   28.045746  0
 40.846416   20.515520   27.383480  0
 39.945515   21.325092   27.501535  0
 37.660206   21.402119   27.100639  0
 35.410435   21.376297   26.496233  0
 11.536804   21.810499   27.476627  0
 33.016235   21.357107   24.870613  0
 10.787057   22.256588   26.575583  0
  9.240537   22.577858   26.069643  0
 10.251149   22.547928   25.768744  0
  7.512500   22.981712   26.647392  0
  5.568836   23.087112   27.052660  0
  3.517117   22.422047   26.987862  0
  5.010495   24.632475   24.826002  0
  4.034126   23.701485   25.829350  0
  2.492082   21.964216   25.150078  0
  3.914414   21.278038   19.782553  0
 38.099354   19.777967   20.034592  0
 42.369816   21.349716   17.406832  0
 50.117687   22.309019   15.506455  0
 47.979271   22.515039   15.173550  0
 46.677742   22.247477   15.818337  0
 45.364601   21.722940   16.374428  0
 44.357941   22.041674   16.085346  0
 51.515366   20.319292   14.112266  0
 50.833710   21.443296   14.117260  0
 48.307281   22.501238   14.408612  0
 49.424603   22.398197   13.891795  0
  5.533698   21.765387   15.998032  0
  4.956800   21.422529   14.934259  0
  3.299342   20.029856   14.860541  0
  1.875229   20.182262   13.753811  0
 51.458950   20.422554   12.830145  0
 30.910416   19.255684   11.471018  0
 29.497656   19.490612   11.927015  0
  0.323050   20.071049   12.790908  0
 -0.126534   20.525944   12.019955  0
 51.560650   21.771763   10.881309  0
 27.165251   20.920645   10.481915  0
 51.293907   22.322437    8.516664  0
 33.575184   18.578691    9.336370  0
 35.653862   17.928095    7.924482  0
 50.689236   23.175999    5.564135  0
 51.100582   21.312387    4.500734  0
 35.625576   18.161123    7.045815  0
 50.305176   22.497847    4.008090  0
 49.771652   21.837759    2.773149  0
 36.645889   17.755913    5.367301  0
 49.301994   20.366377    1.394619  0
 48.260494   21.704771    2.814994  0
 47.420609   20.283178    1.964254  0
 45.498451   21.385618    4.793142  0
 44.753544   20.045177    3.276995  0
 43.358433   21.202982    5.860272  0
 43.195927   20.529661    4.333168  0
 35.224487   18.282103    3.960632  0
 42.152248   20.386187    3.173204  0
 35.168999   18.432722    1.932385  0
  1.281596   19.925907    4.510507  0
  1.555545   20.945391    5.655062  0
 34.180130   19.481596    2.984573  0
 34.882671   19.894026    0.314327  0
  2.117609   20.649210    3.217636  0
 35.926262   19.874739   -1.447080  0
  1.195982   22.106386    0.659605  0
 44.066681   19.105047   -2.770869  0
 43.845928   19.588335   -1.169148  0
 37.047031   19.346643   -3.305181  0
 36.805809   20.059839   -2.331724  0
 27.890429   19.251129    2.584085  0
 28.581476   16.897530    0.163851  0
 43.851566   18.978540   -4.052520  0
 38.971573   20.001822   -5.148715  0
 27.885351   16.325602   -1.030139  0
  0.471763   21.947315   -1.591478  0
 43.177578   19.023777   -4.986989  0
 40.987865   18.427711   -5.281752  0
 39.318859   18.922129   -5.432856  0
 26.773678   17.380016   -2.895441  0
  0.441034   22.024649   -2.828550  0
 39.977993   19.727877   -5.642002  0
 32.206749   17.422771   -1.136060  0
 30.626377   16.357693   -1.584459  0
 32.675732   16.995333   -2.493350  0
 30.320698   16.157425   -3.091313  0
  0.810966   21.407593   -3.585392  0
 34.428593   17.797300   -4.233719  0
 33.897453   18.359549   -1.969192  0
 32.614513   16.859476   -4.561448  0
 30.866207   16.715240   -5.023883  0
 24.540442   20.186527   -3.882802  0
  2.650525   20.863737   -4.200908  0
 36.052170   18.519005   -5.442563  0
 35.269371   18.793335   -3.159444  0
 32.554123   16.965450   -6.493556  0
 34.886505   17.564884   -6.209046  0
 30.630693   17.091835   -7.222632  0
 31.421997   17.108856   -8.244881  0
  2.423825   19.708878   -5.022248  0
 36.765999   18.429401   -6.554341  0
 36.097244   17.756861   -7.727304  0
 34.333523   17.110031   -7.920209  0
 37.938999   19.030687   -7.293021  0
 32.593616   17.162092   -8.424892  0
 35.431973   17.527575   -9.154544  0
 37.235767   18.444683   -8.761642  0
 34.245300   17.348061   -9.570065  0
 32.180000   17.602966   -9.849538  0
 25.236984   19.174425   -8.094963  0
 16.742615   23.519962  -11.153950  0
 17.035629   25.132059  -11.061937  0
 17.736692   24.901670  -11.042705  0
 15.707947   23.965044  -11.609516  0
 16.535887   25.365252  -11.218362  0
  1.240049   19.386126   -6.496434  0
 35.466522   18.205688  -10.135276  0
 37.474751   19.155600   -9.165929  0
 33.843254   18.126114  -10.659483  0
 18.371336   23.527811  -11.907308  0
 14.818047   24.564302  -11.791886  0
  7.888998   21.545258  -10.548618  0
  0.523810   19.295603   -8.079318  0
 -0.530242   18.282162  -10.770833  0
 -0.216293   19.336412   -9.729782  0
 -0.918982   19.430319  -11.168324  0
 35.287289   19.694880  -10.992478  0
 26.284769   17.837553  -10.926134  0
 26.097315   17.686918  -12.997054  0
 27.161310   18.313122  -11.187960  0
 26.666971   17.895777  -10.045025  0
 11.482427   23.495947  -12.415320  0
  6.878507   21.403280  -11.125248  0
 -0.749801   18.608074  -12.188630  0
 26.294640   18.555277  -13.451372  0
  5.582775   20.189548  -13.558006  0
 -0.152978   18.476421  -13.457838  0
 25.836987   19.177141  -15.108485  0
 26.727634   19.384895  -14.227989  0
 25.376785   19.469221  -16.127394  0
 25.746248   20.679617  -15.382092  0
  2.233999   18.624533  -16.573492  0
  0.540539   18.171152  -14.393514  0
 24.173676   20.373137  -16.364929  0
  1.242146   19.056234  -15.938974  0
 45.163017   24.178667  -14.690640  0
 43.732323   24.445717  -14.005640  0
 41.776459   23.762121  -12.705994  0
 40.412060   24.124878  -13.244449  0
 39.177620   23.050158  -12.767113  0
 45.608040   24.051701  -16.403736  0
 38.442116   23.896587  -14.032907  0
 36.532497   23.732256  -15.023577  0
 44.299156   24.565048  -18.076267  0
 43.118633   23.989342  -19.257277  0
 34.046474   23.719084  -15.615026  0
 43.230911   25.414938  -18.281979  0
 41.963287   25.713058  -18.879473  0
 41.438892   23.626238  -22.234110  0
 42.068321   25.487482  -21.002453  0
 31.892817   24.250160  -16.506086  0
 30.222609   23.894247  -18.292158  0
 40.721931   25.475166  -22.423149  0
 29.903412   24.380024  -20.041718  0
 39.851490   24.405809  -23.725588  0
 29.827353   22.457159  -20.798325  0
 30.197979   24.416542  -22.266968  0
 38.073475   24.076838  -25.157259  0
 31.455437   24.037537  -23.903008  0
 33.257092   24.150097  -24.825413  0
 36.870907   23.331907  -26.008715  0
 35.189999   22.635250  -25.249281  0
 36.188805   22.645521  -26.119570  0
 35.040909   23.949612  -25.245886  0
 35.999153   23.931395  -25.967943  0
 32.724457   22.954769  -25.006298  0
 36.258732   24.065754  -27.012636  0
 22.897203   23.301723  -25.721930  0
 21.479805   23.834837  -26.819008  0
 33.683235   23.628798  -30.089907  0
 20.753551   23.659611  -28.451925  0
 20.938490   23.743605  -29.919733  0
 33.288242   24.542536  -31.774553  0
 22.288530   22.830887  -32.670162  0
 21.910873   23.748184  -31.415668  0
 22.560120   23.595758  -32.924408  0
 23.819059   23.741146  -33.647957  0
 25.704643   23.070629  -34.463013  0
 27.078575   22.885153  -35.831730  0
 36.398415   23.413670  -36.633080  0
 34.339973   24.689032  -36.733978  0
 34.744350   24.098925  -37.650597  0
 33.914299   23.085316  -38.463081  0
  3.986864   23.186405   54.384274  0
  4.008901   22.609505   53.735977  0
  2.927653   22.112671   53.388901  0
  4.620135   22.044086   52.863895  0
  3.236807   21.564785   52.613598  0
  5.056744   22.189257   52.190689  0
  3.132429   21.692297   51.840881  0
  6.861931   22.477221   51.579491  0
  9.832472   22.841599   46.705029  0
  1.233262   21.442158   42.203331  0
 34.034515   19.026373   47.013416  0
 32.697887   19.426735   47.246738  0
  2.231210   22.505699   40.999908  0
 34.238922   20.677896   46.573696  0
 32.291904   20.955429   46.757484  0
 27.045322   17.984966   44.063969  0
 26.551605   17.912596   45.208191  0
 24.763287   17.296892   44.282383  0
 18.327574   20.891518   43.662079  0
 14.179784   20.983658   46.396931  0
 36.709473   20.549837   44.960983  0
 35.562454   21.983778   44.860607  0
 33.811359   21.903585   45.919636  0
 32.209797   22.348959   45.570332  0
 30.892965   22.564735   44.655033  0
 26.624546   18.526051   40.992573  0
 23.863522   17.646334   43.806816  0
 22.920963   18.051962   42.353603  0
 15.577094   20.361996   46.096218  0
 12.403828   22.146919   46.148251  0
 37.068375   21.639904   43.556847  0
 35.762810   22.947235   43.602356  0
 30.392839   22.808048   42.822262  0
 31.175026   23.884420   43.758259  0
 31.107716   24.580257   42.625675  0
 21.560394   19.068750   40.312012  0
 18.942255   21.195042   40.397823  0
 38.010792   21.202879   42.029812  0
 36.349789   22.793756   41.933899  0
 30.279316   23.673063   41.575367  0
 29.442532   21.973335   39.721096  0
 26.782290   19.862719   38.463509  0
  2.263963   23.550089   39.761448  0
 37.977722   21.396481   40.739830  0
 37.524170   22.002317   41.205093  0
 36.917301   22.481932   40.412712  0
 28.358166   20.537636   38.338024  0
 20.329357   19.953623   39.319107  0
  1.062611   22.118361   37.463734  0
 38.334465   21.681696   40.000477  0
 29.641270   22.433918   37.142242  0
  0.797060   22.458256   36.213055  0
 37.790726   22.463318   39.044533  0
  0.944324   21.418388   33.263111  0
 39.194187   22.307428   38.923298  0
 29.722704   22.629780   34.981323  0
 23.706709   22.061157   33.750366  0
 22.638393   22.582310   32.688030  0
  2.744985   20.548344   30.573299  0
  1.571975   20.039650   31.431358  0
  2.067881   21.515898   31.450697  0
  3.957874   21.351072   30.763556  0
 40.255955   23.003487   38.109783  0
  7.808522   21.082033   30.466545  0
  6.158958   22.158602   31.241684  0
  9.182405   22.081739   31.067608  0
 46.319618   23.552336   31.238571  0
 45.393124   22.855856   33.372089  0
 43.838146   22.565071   35.865314  0
 42.657925   22.315468   37.664963  0
 41.306931   23.197083   37.682079  0
 42.234501   23.175056   36.871300  0
 28.066401   21.573751   32.312672  0
 22.990910   22.681053   32.449471  0
 43.671741   23.736792   34.726559  0
 27.530638   21.726101   31.567238  0
 11.946938   22.348087   30.293137  0
 46.378384   22.438183   29.533569  0
 24.011763   22.725489   32.187313  0
 44.430706   22.582674   29.001108  0
 43.647495   21.646233   28.390636  0
 39.209641   23.176483   28.104092  0
 42.340382   21.868813   27.993809  0
 36.920372   22.641270   27.292084  0
 26.827749   22.388990   31.754284  0
 11.922501   22.302389   27.653639  0
 33.653202   21.765411   25.929634  0
 11.383962   23.044601   26.002840  0
 33.487686   20.933075   24.271744  0
 10.710993   23.120632   24.684498  0
 10.063087   23.131367   23.781164  0
 35.006386   20.233097   23.431812  0
 34.555569   21.029734   24.084028  0
  9.426360   22.902161   23.977493  0
  8.280595   23.619543   24.675133  0
  6.839675   24.862444   23.726181  0
  4.312855   24.672419   23.061707  0
  3.169373   23.067614   22.748522  0
  9.189412   23.526335   23.299955  0
 38.020725   20.064671   22.055805  0
 39.253494   20.391850   21.455179  0
  3.606156   23.212368   20.113132  0
 40.269489   21.208277   19.647928  0
  5.002029   22.658123   17.331448  0
 43.790077   22.445482   16.373611  0
 42.977577   22.375715   17.520725  0
 47.373840   22.762550   14.306784  0
 46.079121   23.118858   14.800002  0
  5.540910   22.529978   14.949811  0
  5.349463   23.078463   15.588195  0
 50.659256   21.818743   13.219796  0
 48.048817   23.752190   13.631917  0
  3.204471   20.983507   13.849771  0
  4.510710   22.338753   13.615507  0
 50.743416   22.699034   12.379406  0
 49.645107   24.065245   12.583117  0
 28.398726   21.193138   10.751226  0
  1.940466   20.996477   12.854506  0
 50.385235   24.237595   11.339882  0
 30.740175   19.658846   10.237461  0
 29.486012   20.707073   10.465214  0
 50.996830   23.553190    9.983272  0
 50.632568   25.108257    8.905128  0
 31.871857   19.015381    9.011622  0
 30.655926   19.732431    8.792591  0
 50.606270   24.300220    6.743820  0
 32.065731   19.009781    7.650600  0
 26.302288   21.867365    8.723450  0
  1.086669   20.943838    9.611764  0
 33.672310   18.828932    6.276604  0
 31.278791   20.174461    7.254095  0
 49.618225   24.363691    5.439003  0
 49.125530   23.069901    3.874887  0
 47.852074   23.353245    4.923622  0
 48.453781   25.039434    6.045461  0
 46.873001   24.217176    6.681298  0
 45.700535   22.786978    6.829895  0
 44.083458   21.903011    6.963983  0
 43.032436   22.431652    8.445919  0
 41.985313   21.827751    6.639565  0
 32.975452   19.878628    5.613998  0
 33.971546   19.116961    4.376075  0
 32.923832   21.488218    5.742660  0
 41.743519   21.280699    3.846392  0
 33.862457   20.644457    3.330207  0
 26.744349   20.877985    5.391021  0
 42.783890   19.403650    0.144687  0
 42.255234   21.515562    2.772819  0
 35.010281   20.993151    0.387978  0
  2.117070   21.309074    4.344412  0
  2.307959   21.160685    3.708051  0
  2.284074   21.168566    2.843978  0
  1.685596   22.771303    2.624535  0
  1.173916   23.780977    1.948833  0
 36.479404   20.830521   -1.782580  0
  1.023498   23.336105    0.284702  0
 46.135685   19.925367   -3.402651  0
 29.369162   18.488525    1.545075  0
 29.280745   20.047625    2.731356  0
  0.699215   23.818735   -0.689098  0
 45.105377   19.703686   -4.689467  0
 37.542656   20.522318   -3.157167  0
 38.925411   21.156469   -4.347524  0
 30.496628   17.542549    0.122861  0
 31.956408   18.958580    0.105009  0
 30.426958   19.442696    1.610057  0
 31.587612   20.647917    1.163813  0
  0.529284   22.932703   -2.338973  0
 44.875858   20.178955   -5.178141  0
 40.419323   21.219532   -5.587483  0
 33.494759   19.534689   -0.564750  0
 28.865557   16.182423   -1.867303  0
 28.053793   16.632599   -3.133286  0
 42.384434   20.660227   -5.511876  0
 34.854240   19.310102   -1.550928  0
 27.379330   17.525974   -3.424064  0
  0.873752   22.559408   -3.099480  0
 35.646534   20.007408   -2.049989  0
 37.233215   19.870255   -3.859149  0
 29.486479   16.853540   -4.768723  0
 27.865078   18.113701   -4.221941  0
 24.202663   20.601660   -4.962955  0
  2.279573   22.872471   -3.088328  0
  3.477251   22.370213   -3.789987  0
 37.723587   19.232994   -5.461369  0
 28.906343   17.668022   -5.209063  0
  2.978675   21.638468   -4.703919  0
 29.746426   17.418886   -6.528986  0
 24.819767   20.870152   -6.266962  0
 39.154354   20.571444   -6.166430  0
 17.747437   26.101343  -10.261260  0
 17.578217   26.278847   -9.524179  0
 16.363548   25.997902  -10.707356  0
  9.227973   23.644833  -10.272742  0
 30.677235   18.294304   -9.894526  0
 19.199835   25.324247  -10.813376  0
  8.536453   23.094379  -11.214640  0
  0.897811   20.667110   -6.123239  0
  0.667933   20.070457   -7.083152  0
 -0.288073   20.710146   -7.910799  0
 37.469902   20.562775   -9.510733  0
 38.274071   20.306578   -8.173388  0
 32.129707   18.680809  -10.976844  0
 26.831814   18.823298   -9.350260  0
 20.106121   22.884018  -12.847471  0
  7.429585   22.747778  -11.484962  0
 -0.874083   20.503782  -10.318215  0
 33.519638   19.183592  -11.538987  0
 27.824011   20.124317  -10.205964  0
 27.128347   19.170399  -12.700462  0
 26.997965   20.430513  -14.309875  0
 27.832239   19.920801  -11.413640  0
 27.837049   20.639776  -13.001084  0
  6.023386   22.367556  -12.833169  0
  4.797007   21.462284  -14.101793  0
 -0.432652   19.248329  -12.790027  0
 -0.750545   20.260094  -12.203043  0
 -0.386377   19.795725  -13.643093  0
 27.128691   21.216038  -14.011712  0
  3.507461   20.789043  -15.309404  0
  0.406696   19.320702  -14.584673  0
 26.240696   21.372547  -14.781325  0
 24.441425   22.326696  -15.537992  0
 25.760378   22.486834  -14.972555  0
 22.950346   22.162252  -15.372364  0
 44.181862   25.044983  -15.279855  0
 41.874920   25.035921  -14.181227  0
 40.736542   25.394091  -15.118423  0
 42.049660   25.911182  -16.974432  0
 39.458763   25.680523  -16.359177  0
 42.813423   25.666679  -15.483070  0
 44.257401   25.228844  -17.018286  0
 43.555538   25.716877  -16.774427  0
 37.511654   26.334650  -16.830339  0
 39.385857   26.844549  -18.271988  0
 35.542847   24.944302  -15.904202  0
 33.058571   25.109667  -16.129044  0
 34.449570   26.459106  -16.812494  0
 41.207455   27.083252  -19.868694  0
 32.277977   25.879076  -16.812645  0
 30.995775   26.042240  -18.531069  0
 40.844456   26.988291  -21.162674  0
 30.596731   26.430862  -21.330719  0
 39.575821   25.579056  -23.205078  0
 31.181459   26.046993  -23.501356  0
 37.831558   25.946199  -24.025848  0
 37.115944   24.606701  -25.734264  0
 36.735802   25.537214  -25.173666  0
 35.226135   23.764668  -25.145397  0
 35.299618   25.100874  -24.984425  0
 33.848137   25.753782  -24.936350  0
 33.749729   24.842081  -25.109146  0
 32.030399   24.005508  -24.882662  0
 30.401541   23.724659  -26.113575  0
 27.772238   23.380962  -27.293367  0
 24.691357   24.319908  -27.424215  0
 23.360111   24.287828  -26.569489  0
 22.458822   24.669441  -26.941797  0
 35.337669   24.541920  -28.561550  0
 21.613312   24.845293  -28.305527  0
 21.352194   24.085150  -29.029043  0
 33.747673   25.663387  -30.675554  0
 33.104515   25.782162  -32.086861  0
 22.531507   25.022093  -31.962742  0
 21.474047   24.807259  -30.054220  0
 23.239607   25.314013  -33.319153  0
 33.162296   26.438894  -33.606869  0
 33.209488   26.736277  -32.315849  0
 25.903414   24.784744  -35.142918  0
 24.341015   25.465528  -34.232815  0
 27.146221   25.841724  -35.829239  0
 29.256615   25.013533  -37.061066  0
 32.661648   24.561871  -38.016392  0
 31.284067   25.015032  -37.619385  0
  4.678092   22.277952   52.724998  0
  3.768932   22.118378   52.193520  0
  2.515785   21.838223   50.539219  0
  1.667629   22.147018   46.876163  0
  1.494756   22.507296   44.022957  0
  9.552332   23.630043   46.986252  0
  1.506840   22.396614   42.672340  0
 10.215353   24.390003   45.330822  0
  2.243127   23.297976   41.488194  0
 27.928572   19.276003   44.731895  0
 28.029972   19.963146   42.743164  0
 25.475754   18.293001   45.735535  0
 24.187862   18.419188   44.713425  0
 11.438396   23.975918   44.986954  0
 34.056587   22.907497   44.484455  0
 32.425423   23.625595   44.152325  0
 23.154488   19.015596   43.368439  0
 22.322392   20.067162   41.683472  0
 17.099966   20.431923   45.176041  0
  2.935568   23.835295   40.653126  0
 34.298088   24.303823   43.225300  0
 32.525520   25.360542   42.955826  0
 26.887001   20.132746   40.273247  0
 27.694670   21.097399   41.000935  0
 27.259731   21.231691   39.236671  0
 21.050564   20.991022   40.253704  0
 35.592110   24.050833   41.314724  0
 33.703274   25.738108   42.272522  0
 31.537691   25.329130   41.640968  0
 20.118086   21.537130   39.990715  0
  1.773522   23.857191   39.190289  0
  1.062304   23.600563   38.110023  0
 34.733753   25.554445   41.008362  0
 33.877182   26.104948   41.411861  0
 30.479406   23.877314   39.557301  0
 31.383759   25.087576   39.788147  0
 27.250879   21.735538   38.219845  0
 26.377840   21.839445   36.338753  0
 36.175541   24.054228   40.127769  0
 31.180265   24.488548   38.204632  0
 24.585985   22.553022   35.043953  0
 36.823765   23.952335   39.171711  0
 35.689541   25.200325   40.533215  0
 31.041830   24.160666   36.767193  0
 22.125004   23.688152   34.544331  0
 22.099998   23.010391   33.438423  0
  0.583779   23.353418   35.355305  0
  0.566311   22.891697   33.595047  0
 38.482906   23.090576   37.560867  0
  2.903098   22.652225   31.679230  0
  1.314314   22.411247   32.380051  0
 21.536079   23.729548   32.961346  0
 39.089886   23.629133   36.589928  0
 40.920036   23.969749   36.056477  0
 29.534424   22.787806   33.931206  0
 28.587597   22.898865   32.995945  0
 22.216061   23.801619   32.300858  0
 45.317623   24.864201   31.635857  0
 43.956902   24.795383   33.637150  0
 42.466015   24.382421   35.215988  0
 45.844494   24.273895   30.047045  0
 22.997133   23.749943   32.308060  0
 41.407967   23.619156   28.897552  0
 36.841671   24.277739   27.436531  0
 24.943041   23.629833   32.667213  0
 34.352028   23.396029   26.265833  0
 12.433617   23.073643   28.162622  0
 33.825806   23.435520   25.527025  0
 12.081026   23.222345   26.650032  0
 11.203442   24.302244   24.188759  0
 35.421055   21.386179   23.946444  0
 41.218140   21.284946   22.627388  0
 40.080120   21.082499   23.083525  0
 41.146545   21.197107   21.471025  0
 38.128647   20.992981   23.360025  0
  9.656992   24.419008   22.128548  0
  5.342699   25.428911   23.582880  0
  3.794754   24.500570   21.059820  0
  3.553841   24.824163   18.867090  0
  4.044150   24.763487   17.621248  0
 42.983273   22.978041   18.679390  0
  4.907717   23.879690   16.792265  0
 44.876755   24.239822   18.063667  0
 44.050114   23.171425   16.862698  0
 45.838593   24.060196   15.954360  0
  4.817080   23.958015   14.845171  0
  4.977636   23.086926   14.090722  0
 47.902313   24.927559   14.070921  0
 48.847691   25.262512   13.171871  0
  2.777808   21.673950   12.358321  0
 49.894440   25.949625   11.677859  0
  2.158267   21.641764   11.325212  0
  3.871189   22.822887   12.112232  0
 50.087181   26.574305   10.161233  0
 29.095669   21.847221    9.172130  0
  4.169222   23.742065   11.700809  0
  2.462745   22.226332    9.645539  0
 46.029621   25.991573    8.952421  0
 47.489143   25.703608    7.489339  0
 45.638229   24.194216    8.298615  0
 44.742138   24.750509    9.560994  0
 47.245285   26.929825    8.794005  0
 44.196827   23.131092    8.928781  0
 43.131157   24.042421   10.209124  0
 41.760658   24.117979   10.095536  0
  3.890989   24.394070   10.164283  0
 50.073082   26.032087    7.799533  0
 49.048286   26.287413    7.301770  0
 30.899126   21.756826    7.415695  0
 29.738216   22.262846    8.317049  0
  3.200771   23.749763    8.347420  0
  2.198024   21.952251    8.079473  0
 41.388443   22.181742    5.952293  0
 41.412258   23.756861    8.591044  0
  1.809862   21.508684    6.686357  0
  2.408040   22.296471    6.964533  0
  3.106546   24.424610    6.636387  0
 41.423958   22.576197    5.259896  0
  2.297068   23.599506    5.227214  0
 34.377262   21.796848    3.469289  0
 27.354010   20.483315    3.798159  0
  1.821460   23.578476    3.875493  0
 35.684319   22.689898    1.845454  0
 43.275894   21.426931    1.486421  0
 44.785759   20.897833    0.202399  0
 46.697418   20.876463   -1.729956  0
 36.359604   22.357576    0.062995  0
 37.502842   21.494614   -1.835308  0
 38.874916   21.696522   -3.518242  0
 30.435789   21.604176    2.749002  0
 46.616867   20.532394   -4.649064  0
 47.127743   20.685230   -3.320682  0
  0.958462   24.315430   -1.540849  0
 39.954792   21.996401   -4.958830  0
 32.815201   20.732994    0.162727  0
 25.972271   19.194588   -3.317673  0
  1.180880   23.351004   -2.625561  0
 45.640759   21.618555   -5.165994  0
 41.473324   21.891224   -5.324419  0
 34.009056   20.942087   -0.578310  0
 26.759418   19.258106   -3.585708  0
 25.189852   20.823259   -3.886005  0
 37.314644   21.026871   -3.299129  0
 26.632828   20.295172   -4.649241  0
 38.436096   20.269808   -4.780248  0
 38.395210   21.140205   -4.269438  0
 39.292702   21.193899   -5.381783  0
 27.892038   18.570082   -5.149983  0
  4.180801   23.443178   -3.883636  0
 28.815338   18.707441   -6.573082  0
 17.303101   26.168142   -9.395761  0
 18.031275   25.844175   -7.977039  0
 38.490311   22.128277   -7.744663  0
 29.954620   18.272030   -8.457712  0
 29.564293   19.913149   -8.492352  0
 25.624781   20.448521   -7.502575  0
 18.261017   26.360189   -8.410383  0
 18.553905   26.513914   -9.481099  0
  3.756033   23.387331   -4.733306  0
  2.165092   22.231640   -5.446062  0
 29.848364   19.730284  -10.102643  0
  8.925637   24.103006  -11.124337  0
  0.199518   21.663696   -6.610977  0
 38.193790   21.655590   -8.990042  0
 30.839058   20.202459  -11.265162  0
 27.234793   20.947325   -8.368277  0
  9.133501   24.006662  -11.959085  0
  8.356545   23.912188  -12.701431  0
 -0.565639   22.117863   -7.510766  0
 -0.977765   22.162285   -8.863456  0
 37.644115   22.325790   -9.663040  0
 35.973774   21.905439  -10.666433  0
 32.575718   20.063297  -11.919718  0
  7.244843   23.732018  -13.114629  0
 -0.756626   21.660633  -10.659027  0
  0.423177   22.373362  -11.942680  0
 34.149147   21.122637  -11.810016  0
 28.790024   20.936068  -11.846056  0
 28.430412   22.138487  -13.123205  0
 21.775227   22.992104  -13.452432  0
 21.692144   24.998211  -11.587993  0
  0.452027   20.670433  -14.343412  0
 27.131002   22.423239  -13.970734  0
 23.414442   23.820118  -13.222519  0
 21.678438   21.876530  -14.629433  0
  4.403514   23.228367  -14.441907  0
  2.167215   20.389843  -15.819507  0
  2.861082   22.641930  -14.923744  0
  1.808398   21.371655  -15.274693  0
  1.672395   22.442873  -13.920717  0
 25.132034   23.476006  -13.936044  0
 37.920380   27.762285  -19.360981  0
 36.510918   27.182697  -17.629177  0
 40.101028   27.811609  -19.883505  0
 33.041893   28.354992  -18.237661  0
 32.373425   27.424648  -17.681541  0
 35.180862   28.443266  -18.750254  0
 40.199799   27.843876  -20.586115  0
 31.969358   28.371935  -20.282034  0
 37.868568   27.166000  -22.641752  0
 31.687067   28.108686  -22.823385  0
 32.444256   27.218138  -24.390581  0
 36.079178   27.230162  -24.348738  0
 34.326042   27.101854  -24.769243  0
 36.149639   25.725475  -25.946692  0
 34.940670   25.140936  -25.138525  0
 32.449493   25.785662  -24.999735  0
 30.349512   26.772226  -26.933990  0
 29.055258   25.316460  -27.525366  0
 26.612980   24.807835  -27.937326  0
 22.681751   26.089712  -28.403334  0
 23.451294   25.802158  -27.701855  0
 36.138073   26.475235  -27.545446  0
 35.321274   26.613272  -29.060862  0
 22.407784   26.253487  -30.213707  0
 33.147907   27.525251  -31.896093  0
 33.997307   27.504986  -30.695755  0
 23.203936   26.711090  -32.653915  0
 32.712353   27.727589  -33.306858  0
 24.083630   26.970797  -33.724968  0
 25.435579   27.023197  -34.360355  0
 28.623098   26.416119  -36.412045  0
 28.123280   27.910769  -34.808559  0
 30.143763   27.181215  -36.168762  0
  7.480536   22.812227   52.715603  0
  5.735000   22.785009   53.239426  0
  3.090139   22.853790   52.429409  0
  2.495790   23.089048   49.633278  0
  2.113378   23.975138   46.523876  0
  9.181261   23.666655   48.758930  0
  1.728510   23.493816   42.502472  0
 27.916632   20.138908   45.680416  0
 29.123243   21.212114   43.892025  0
 26.162941   19.029989   46.424759  0
 26.540384   19.954185   46.595898  0
 25.184422   19.892124   45.963257  0
 28.873150   22.232868   41.931629  0
 22.940609   21.017330   43.358707  0
 27.823658   22.694109   39.806313  0
 21.664204   21.956551   41.905785  0
 16.405005   20.498234   46.119720  0
 12.916387   22.360928   46.617596  0
  3.498578   24.737202   39.881027  0
 18.674494   22.013334   41.115398  0
  1.975865   24.841251   38.626057  0
 32.801453   26.038511   41.295349  0
 27.025755   23.496399   38.388565  0
 19.123774   21.858013   40.125031  0
 25.526243   24.179575   36.993843  0
  0.749324   24.488749   37.290291  0
 32.175934   25.577091   39.381683  0
 22.969913   23.906584   35.448410  0
 33.591450   25.925743   40.553909  0
  0.509428   24.075510   35.343613  0
  0.171411   23.682775   34.372650  0
 38.260181   24.197557   37.802971  0
  3.859461   23.094454   31.499014  0
  0.642102   23.306938   32.882668  0
 30.230330   24.004135   35.071083  0
  7.420681   23.072483   31.250895  0
 39.637196   24.196859   36.346535  0
 44.619881   25.981441   32.212444  0
 43.622055   25.955677   34.062141  0
 44.997971   25.738583   30.909161  0
 28.550594   24.237638   34.293644  0
 21.886076   25.323921   32.427197  0
 22.552988   25.058317   31.405918  0
 12.184084   23.473629   28.918766  0
 44.236263   25.027939   30.066191  0
 42.845898   24.830280   29.978390  0
 40.271866   24.589769   29.029064  0
 38.229881   25.031971   28.278086  0
 24.045956   24.200863   32.677204  0
 23.174047   24.537270   32.198723  0
 23.160725   25.133190   31.322905  0
 34.298405   23.320210   24.816509  0
 11.384330   24.340277   25.590164  0
 43.757080   22.742413   22.108221  0
 44.298237   23.266830   23.373817  0
 46.374489   24.305017   22.067734  0
 41.924080   22.344614   24.021465  0
 43.504826   24.068386   24.648552  0
 40.873634   22.920197   24.696312  0
 37.817768   22.352800   23.997610  0
 38.225422   24.036638   24.559044  0
 36.672237   23.729393   24.104788  0
 35.551453   22.652313   24.209356  0
 11.314378   25.155724   22.154694  0
 11.583166   25.344305   23.312397  0
 43.074352   23.016779   19.837994  0
 45.108120   23.719194   20.677111  0
 45.453442   24.543898   19.329222  0
 10.853461   25.170935   21.287531  0
  8.042811   25.653896   21.866013  0
  5.816086   25.958138   22.620342  0
  4.414232   25.946571   20.835848  0
 44.408890   24.608419   18.566895  0
  3.613240   25.347744   19.649216  0
 45.075184   25.346519   18.077745  0
 45.907845   25.333832   18.331442  0
  4.263189   26.340029   16.303751  0
  4.839901   24.801464   15.882206  0
 47.216770   25.604799   17.793798  0
  4.857702   25.009272   15.062131  0
 47.373909   24.735968   15.106127  0
 47.961067   25.706570   16.565367  0
 48.315716   26.252384   15.165456  0
 48.535812   27.122955   12.818509  0
 49.392925   26.982611   11.167457  0
 44.791573   27.082907   10.273556  0
 43.292786   25.849350   10.901760  0
 46.419373   28.175814   10.424711  0
 46.307514   27.377190    9.500888  0
 42.144691   26.777437   11.804746  0
 40.441334   25.884420   11.101536  0
 40.848572   24.870916   10.143134  0
 28.470976   23.498507    8.317431  0
 26.914738   22.541176    9.070028  0
 47.849895   27.596581    9.396107  0
 49.354767   27.207829    9.223765  0
 29.224033   22.928112    8.568931  0
 30.837925   23.565739    7.756674  0
 41.480488   23.701218    7.235549  0
 32.664963   23.704996    6.800420  0
 26.679884   22.756268    7.902705  0
 27.031933   22.285780    6.324176  0
 34.966484   24.345316    4.849997  0
 35.049229   23.185751    3.836167  0
  1.509502   25.827677    3.931165  0
 42.352177   24.156778    5.638683  0
 42.786716   23.277859    4.175361  0
 28.184158   21.858397    4.587973  0
  1.235579   24.603725    3.181223  0
 43.559025   22.678122    2.761707  0
 45.921722   22.987385    1.601812  0
 29.423672   22.749208    4.128160  0
  1.087854   25.401310    0.932646  0
 39.014595   22.862209   -2.019508  0
 38.579201   23.860489   -0.448183  0
 47.449272   22.247402   -2.122032  0
 47.235779   22.778263   -0.221812  0
 32.276871   22.107571    0.873040  0
 47.005928   21.745737   -3.970374  0
 39.980888   22.839128   -3.471998  0
 41.176445   23.742800   -4.175252  0
 41.431114   22.812748   -5.047784  0
 33.597500   22.418413   -0.313017  0
 34.814941   22.982002   -1.400418  0
  2.190728   24.210087   -2.172365  0
  3.800290   24.471691   -2.580112  0
 43.649818   22.686981   -5.049136  0
 35.516193   21.774004   -2.067806  0
 37.310474   22.080055   -3.560824  0
 38.652279   22.671967   -4.330520  0
 25.048775   21.374500   -5.246452  0
 25.908972   21.366514   -5.335172  0
 39.307629   22.221533   -5.052823  0
 39.348965   22.471502   -6.305069  0
 27.415369   20.857887   -6.246285  0
 17.782215   25.904755   -6.317393  0
 17.869532   25.626999   -6.404858  0
 17.654749   25.141994   -6.058266  0
 17.793821   25.829594   -7.688731  0
 28.641321   20.618179   -7.439589  0
 29.133114   19.530949   -7.316798  0
 38.061432   23.620630   -7.535088  0
 37.968796   22.951958   -7.975296  0
 29.232542   20.753910   -8.771943  0
 26.113327   21.230324   -7.019870  0
 18.816378   26.945850   -8.728638  0
  9.763549   24.349075   -9.270037  0
  9.290959   24.589422   -9.519939  0
 37.698902   23.339142   -8.916737  0
 36.690216   23.676371   -9.787209  0
 29.303743   20.566343   -9.856178  0
 29.526409   20.944180  -11.159379  0
  9.153284   24.916559  -11.957946  0
  9.151291   25.046299  -10.476164  0
  0.643825   23.914850   -6.094078  0
 34.782394   23.513865  -10.587852  0
 30.329079   21.961262  -12.125123  0
 28.699865   20.810904  -10.295150  0
 -0.654733   23.375195   -7.960894  0
 -0.851769   23.437218   -9.105011  0
 -0.161558   24.412018   -9.905198  0
 33.389954   22.391823  -11.731418  0
 32.217274   21.570707  -12.047334  0
  8.049031   24.960136  -13.358070  0
  6.282844   24.666681  -14.054216  0
  0.944421   24.543549  -10.726760  0
 29.651394   22.347126  -12.427018  0
 23.161570   25.093222  -11.795355  0
  5.261980   25.378407  -14.326567  0
  3.605831   24.453705  -14.503478  0
  1.812624   23.842960  -12.779721  0
  2.535542   24.294430  -14.066353  0
 24.516491   24.640333  -12.955651  0
 25.797197   24.371624  -13.321978  0
 27.581738   23.740520  -13.355252  0
 26.443914   23.313580  -13.863626  0
 38.580189   27.930700  -20.286993  0
 34.058189   29.941732  -21.481815  0
 33.438732   29.480392  -19.923824  0
 36.065266   28.760353  -20.782101  0
 32.926685   29.940939  -22.347273  0
 37.791767   27.943312  -21.326878  0
 34.575542   28.877129  -23.896748  0
 35.883560   28.635290  -22.415600  0
 33.089600   29.570436  -23.725107  0
 34.830589   26.060135  -25.454992  0
 33.723389   26.641563  -25.133301  0
 32.218628   27.152966  -25.532764  0
 28.341446   27.164738  -28.210382  0
 27.295946   26.165798  -28.307741  0
 25.288916   26.011703  -28.325699  0
 36.119442   26.870003  -26.476849  0
 35.378307   27.187460  -25.792517  0
 34.819523   27.947340  -28.749182  0
 26.764584   27.731205  -28.703400  0
 24.280787   27.411961  -28.691628  0
 23.332968   28.000013  -29.896875  0
 32.836899   28.686529  -31.085318  0
 23.299791   27.577559  -30.970930  0
 31.834618   28.763367  -32.537628  0
 24.587137   28.106110  -32.470619  0
 31.696760   27.804781  -34.744801  0
 26.275255   28.719349  -33.390724  0
 27.501806   29.511292  -32.896282  0
 29.956640   28.795588  -33.818462  0
  4.201570   24.032234   55.258705  0
  3.411370   23.665298   54.260677  0
  5.033259   23.535852   54.639877  0
  6.158972   23.632048   55.105728  0
  4.282925   23.252729   53.697781  0
  6.239459   23.569109   54.273655  0
  2.738012   23.977093   54.794804  0
  7.193610   23.530960   54.468163  0
  8.284722   23.423120   54.001606  0
  2.467415   24.028236   53.564293  0
  8.724326   22.769964   51.728176  0
  2.259652   24.254030   51.358692  0
  2.496798   24.367403   48.790623  0
  1.570577   24.811245   43.920364  0
 14.793499   21.986046   47.737267  0
 13.742414   22.756144   47.623596  0
 14.541241   21.590769   47.081310  0
 15.760611   22.179939   48.688305  0
 15.898840   21.677591   47.417454  0
 13.312263   23.822216   47.645164  0
 12.642828   23.736931   46.129276  0
 16.946293   21.259888   46.459488  0
  1.789492   24.994230   42.277893  0
 28.801315   23.131355   45.962505  0
 26.887163   21.418558   47.057365  0
 29.631260   22.709635   44.477016  0
 26.078003   20.232292   46.973301  0
 17.750246   20.911755   45.183884  0
 10.923932   25.282089   44.224602  0
  3.479774   24.946487   40.641052  0
 29.912136   23.484856   42.868637  0
 30.027630   24.712721   43.068295  0
 25.581984   20.888712   46.721035  0
 23.983959   21.867678   45.157234  0
 22.074181   22.765028   43.369167  0
 18.536329   21.873083   44.007507  0
  4.236050   25.770048   39.791107  0
 28.590582   24.039021   41.135960  0
 20.305233   22.621929   41.541023  0
 19.263088   22.667534   41.614998  0
 18.979328   22.510197   42.912483  0
 12.185033   23.479416   45.635540  0
 27.317921   24.548752   39.621361  0
  4.103988   25.944372   38.743183  0
 26.223450   24.815071   38.263187  0
 23.973034   24.819550   36.602573  0
 24.628407   26.182112   38.360497  0
 21.980196   24.993233   36.287472  0
 22.384584   26.423658   37.942890  0
  1.752852   26.069790   37.369091  0
 21.396648   25.687845   36.105450  0
  0.625859   24.859827   36.407028  0
 37.170185   25.131367   39.924725  0
 38.664925   25.242058   39.237679  0
 38.474552   26.493652   40.041286  0
 34.564915   26.304197   40.691540  0
 32.677948   26.193954   39.955193  0
 31.374716   25.372524   37.567455  0
 21.458464   24.884329   33.699501  0
  4.353402   23.575720   30.979956  0
  1.400277   23.855822   32.219837  0
  0.205717   24.384108   33.762115  0
 43.450302   26.965849   34.164337  0
 42.650505   25.858469   35.320927  0
 40.784687   25.299789   36.697567  0
 10.542414   23.414822   30.294031  0
 44.358215   26.861397   31.493752  0
 43.919949   27.293921   32.958733  0
 43.813934   26.300104   30.622902  0
 26.141249   24.208479   33.643131  0
 24.722746   24.847980   33.412724  0
 25.343420   24.901039   33.931221  0
 24.279209   25.009344   32.846714  0
 24.054171   25.682999   31.656029  0
 41.474709   25.850971   30.074520  0
 36.310696   25.968393   27.936117  0
 38.177574   26.972492   29.647921  0
 21.763947   25.495440   28.874403  0
 21.923952   25.930466   30.659868  0
 12.143706   23.881456   27.314642  0
 34.347153   24.758339   26.534496  0
 22.859802   25.062704   29.078222  0
 23.781937   25.704983   29.634527  0
 45.844425   25.876144   24.056074  0
 47.251953   25.437332   23.417164  0
 47.787842   26.759493   22.707891  0
 48.578815   25.945276   21.863657  0
 46.805695   24.762392   23.166136  0
 43.182461   25.380644   25.087856  0
 41.913383   24.376945   25.478228  0
 47.784576   25.078821   22.213728  0
 40.083961   24.845247   25.663786  0
 35.699501   23.987490   24.140017  0
 35.196884   24.703957   24.641916  0
 12.635394   26.085140   21.965527  0
 12.601484   25.919731   21.108463  0
 46.568966   24.639030   20.783194  0
 47.107067   25.573069   19.680819  0
 45.784363   26.077021   18.858353  0
 11.778253   26.016714   19.992281  0
  5.704773   26.655909   21.231110  0
 45.208515   25.204414   18.613850  0
 44.163677   26.416119   18.498585  0
 10.011939   25.588343   20.788837  0
  7.836902   26.874144   20.518450  0
  6.143007   27.362320   20.738117  0
  3.399578   26.646473   18.486530  0
 40.024429   25.842451   17.476263  0
 38.464218   25.377861   16.868067  0
 40.170650   26.052032   19.435364  0
 37.306614   25.253160   17.286310  0
 45.502720   26.835880   18.626749  0
 37.449623   25.541309   16.080681  0
  3.632532   27.153091   16.781471  0
 47.237335   26.314409   18.389832  0
 48.007748   25.833086   17.471748  0
 48.343498   26.554770   17.680120  0
 48.563416   26.322073   17.069416  0
  4.664408   26.150017   15.926843  0
 48.541164   26.233927   16.164167  0
 48.578518   26.971289   16.657236  0
 48.172207   28.227160   14.823396  0
 47.803135   28.757387   13.205761  0
  4.412362   24.409710   13.621396  0
 48.188240   27.906815   10.822870  0
 47.382984   28.750944   11.814558  0
 46.605118   29.452965   12.991043  0
 45.124771   28.979591   12.150476  0
 43.701801   27.793943   11.567444  0
 43.322300   28.523796   12.542126  0
 41.931969   27.959455   12.918663  0
 39.821728   27.297920   12.577102  0
 39.200176   26.857355   11.580432  0
  3.719350   24.870764   11.775804  0
  3.652610   25.307686   13.211110  0
 39.803352   26.165728   10.612602  0
  3.881231   25.577093   11.013061  0
 41.139938   25.374538    9.132200  0
  3.737563   25.944582    9.006297  0
  2.706335   25.749048    5.961263  0
 42.090294   25.725634    7.821560  0
  2.051979   27.090132    5.852977  0
 27.711432   23.069305    6.036326  0
 36.496407   24.142218    3.040530  0
 29.039528   23.655071    5.523667  0
 44.488438   23.979450    4.084094  0
 45.720585   24.070242    3.144055  0
 37.861980   23.989777    0.937531  0
 39.221947   25.196335    0.521740  0
 30.568138   23.596943    2.992383  0
 47.231243   24.508480    1.695500  0
 47.471172   24.316416    0.285097  0
 47.257893   24.268545   -1.127837  0
 46.716194   23.689667   -3.094182  0
 40.568432   24.610514   -2.272358  0
 31.636734   23.867167    2.077750  0
 46.181873   22.603403   -4.859614  0
 42.747513   25.577414   -3.317890  0
 43.447330   24.387526   -4.176680  0
 32.883148   24.138432    0.994760  0
  2.068272   25.241442   -1.265347  0
  1.658240   25.915033   -0.464989  0
  3.249100   25.681828   -1.615329  0
 44.846252   23.698784   -4.738762  0
 36.779350   23.099207   -2.999714  0
 39.265545   25.026054   -4.530342  0
 18.520990   25.014971   -4.413886  0
 18.030203   24.659100   -4.248701  0
 18.102694   25.995869   -5.555282  0
 17.188482   25.204155   -5.044536  0
 39.664436   24.999403   -5.630890  0
 18.728846   26.762836   -5.271263  0
 18.763815   26.906071   -6.647422  0
 17.835081   26.162384   -8.232426  0
  4.392353   25.300226   -3.551143  0
 38.960564   25.309414   -6.823229  0
 34.218914   27.392511   -7.237885  0
 34.503586   25.253386   -8.545761  0
 32.702248   27.050016   -7.576376  0
 35.194439   25.788847   -7.611584  0
 32.054012   26.882332   -8.134031  0
 28.049536   21.170261   -8.081042  0
 19.313370   27.220047   -8.017698  0
 16.137070   26.317116   -9.930948  0
  9.637975   25.399908   -7.950308  0
  3.554794   24.885439   -4.360130  0
  1.656192   24.397865   -5.171656  0
 36.388374   24.685234   -8.113914  0
 36.694698   26.014521   -7.357206  0
 20.160255   27.529585   -8.771389  0
 10.268854   25.067272   -9.028625  0
 10.119082   24.707703  -11.200783  0
  8.901079   25.583794   -9.287760  0
  8.622030   26.639345   -9.938646  0
 32.828865   24.960503  -10.005986  0
 31.662394   26.219858   -9.525287  0
 20.250263   26.581638   -9.853262  0
  8.184573   26.480848  -11.293435  0
  8.111053   26.064306  -12.482118  0
 -0.753634   24.874870   -7.895331  0
 32.322899   23.438135  -11.337969  0
  6.848727   25.877005  -13.429166  0
 -0.727005   24.769009   -8.993619  0
 31.171225   24.028336  -11.399465  0
 30.243500   23.576921  -12.048052  0
 29.759848   23.956839  -12.285305  0
 22.671221   26.380465  -10.619563  0
 24.490135   25.472950  -11.757610  0
 28.401531   25.025492  -12.852671  0
 25.308174   25.389990  -12.745837  0
 25.527122   25.968054  -11.664699  0
 26.385973   25.397388  -13.067887  0
  3.995773   25.602041  -14.206453  0
  3.000845   25.030216  -14.364511  0
  2.766520   25.193840  -13.310604  0
  1.655958   25.133377  -11.255444  0
 34.114334   29.981428  -23.163210  0
 33.386204   30.352928  -23.117815  0
 33.475662   27.920198  -25.851372  0
 31.927736   28.467201  -26.816818  0
 30.241024   28.069834  -27.826519  0
 35.340321   27.885128  -27.172117  0
 25.117048   29.161612  -29.319727  0
 24.074129   28.816483  -30.065199  0
 32.970966   29.309313  -29.226889  0
 30.698017   29.464777  -31.442234  0
 28.870453   29.644539  -32.501190  0
 25.638636   29.694094  -31.635481  0
  7.751055   24.680662   54.952393  0
  2.334992   25.042030   54.765278  0
  2.092584   25.280384   52.525688  0
 16.157040   24.650139   51.877014  0
 16.383690   23.654409   51.575901  0
 17.818062   24.251013   52.082207  0
  9.154804   23.603239   52.919044  0
  9.434625   23.550955   51.231968  0
 19.841555   23.665831   51.301071  0
 19.955372   25.195965   51.713474  0
 16.904968   22.838036   50.778561  0
 14.987686   23.505379   50.180035  0
  2.049955   25.619392   50.578377  0
 19.180893   22.832743   50.905949  0
 17.992136   22.630301   50.700928  0
 20.553753   22.787050   49.943592  0
  2.692818   25.599737   46.931725  0
  2.439613   25.660212   45.372585  0
 18.071646   22.320454   49.140388  0
 20.384052   22.793571   48.144005  0
