#!ascii file
 46.630329  -52.632748  -33.322544  0
 47.075130  -51.611950  -33.663731  0
 45.643837  -52.350548  -33.368294  0
 32.775089  -51.406921  -32.696548  0
 33.925041  -51.336426  -33.262550  0
 40.584305  -51.857273  -34.322750  0
 24.700476  -51.414791  -33.847549  0
 23.101995  -51.093071  -34.697922  0
 42.542301  -51.952423  -36.040989  0
 35.394142  -51.022804  -35.377907  0
 36.234081  -51.122425  -36.367889  0
 37.075687  -51.245209  -36.950912  0
 45.117825  -51.097122  -37.596687  0
 45.592590  -51.561607  -38.611237  0
 45.597523  -51.197109  -39.221382  0
 46.008038  -50.632507  -38.885437  0
 39.697495  -51.293266  -38.295532  0
 14.891267  -50.785206   47.395359  0
 12.937954  -50.364017   47.480415  0
 11.309601  -50.679382   47.658596  0
 11.957366  -50.075222   47.321201  0
 16.127649  -50.892651   46.568451  0
 17.502388  -51.037556   45.415073  0
  9.855850  -50.742725   45.495525  0
 19.098921  -51.463470   44.726780  0
 20.150734  -51.226921   43.103779  0
 18.308008  -50.973782   43.521027  0
  9.715104  -50.707264   43.263348  0
  4.364742  -50.131706   43.010597  0
  5.415345  -49.332539   42.611221  0
  4.627031  -49.399239   42.745419  0
  4.932967  -50.894238   42.723953  0
  6.018037  -50.138588   41.982189  0
  3.680334  -50.949154   42.869484  0
 20.982378  -50.886639   41.777214  0
  9.836215  -50.654991   40.884129  0
  2.069734  -50.973961   41.934193  0
  3.274504  -49.495228   42.570293  0
  2.158146  -49.607555   42.095669  0
 21.956703  -50.933285   40.855095  0
  6.074204  -50.617241   40.629230  0
  1.292445  -50.546394   39.942371  0
 21.861734  -50.349743   39.504253  0
 16.955910  -51.536118   39.196896  0
 13.980595  -51.440895   39.106884  0
  9.154571  -51.146225   39.026581  0
 34.092800  -51.444099   38.754086  0
 32.699928  -51.249680   38.735806  0
 15.374375  -50.704540   37.101616  0
  0.709672  -50.602413   37.696163  0
 37.021976  -50.936825   36.825043  0
 35.528961  -51.009335   37.852371  0
 29.534861  -50.421921   37.377876  0
 27.041729  -51.313698   37.399765  0
 23.925299  -51.057018   37.802517  0
 16.970491  -50.989872   37.438221  0
 13.796975  -50.804596   36.897495  0
  9.645879  -50.352940   37.294052  0
  6.096493  -50.258987   38.996109  0
  6.152647  -50.239712   37.697712  0
 23.908350  -50.005196   36.352100  0
 13.251225  -50.893925   35.953072  0
 39.656868  -51.142586   35.240715  0
 39.561249  -50.561756   35.790241  0
 38.336643  -50.601963   36.083904  0
 17.834660  -50.647614   36.092579  0
  9.067399  -50.615234   36.315430  0
  6.831914  -50.225845   36.010910  0
 40.006977  -51.010242   33.984501  0
 40.470173  -50.472527   35.287857  0
 18.335035  -50.406082   34.173386  0
  8.169618  -50.719593   35.626366  0
  2.038906  -49.741016   34.810204  0
  2.502902  -50.600941   34.110706  0
 39.160648  -50.795303   32.888599  0
 40.062885  -50.413010   33.075771  0
 34.137745  -50.878315   32.726315  0
 31.790369  -50.864208   33.391636  0
 29.887230  -50.962341   33.438213  0
 19.410486  -50.927746   32.647835  0
 14.179048  -51.006485   33.937649  0
 14.767600  -50.454762   34.817982  0
  2.989700  -50.849930   32.900852  0
 36.922451  -50.825203   32.339909  0
 15.997184  -50.364151   33.494370  0
 16.688110  -50.692684   32.662113  0
  2.656826  -50.856705   31.898596  0
  3.402674  -50.286148   32.213070  0
 37.756950  -50.149181   31.944445  0
 34.654411  -50.133400   31.286386  0
 25.903807  -50.310509   30.998180  0
  2.099890  -50.123856   30.846312  0
  1.334946  -50.637627   30.116568  0
  8.596659  -49.791542   29.787266  0
 22.473427  -50.167828   28.061543  0
 23.178146  -50.567501   29.382084  0
 10.041040  -49.757999   29.335123  0
 11.279691  -49.981266   28.350574  0
  7.113545  -50.126118   29.583279  0
  5.071566  -50.220337   28.562626  0
  1.925905  -50.451923   29.077099  0
 21.850580  -50.068764   26.687155  0
 21.593267  -50.298119   25.921036  0
 32.913834  -51.635437   25.582109  0
 32.460415  -50.947968   24.625191  0
 31.181717  -50.431961   24.375994  0
 26.967106  -51.074158   24.582569  0
 25.705757  -51.038776   24.364857  0
 13.358153  -49.393494   25.289730  0
 32.012432  -50.256027   23.435270  0
 27.867559  -50.329758   23.600016  0
 23.744370  -50.589844   24.206656  0
 14.283958  -49.983898   23.632624  0
 31.730227  -49.923923   22.484575  0
 15.090939  -50.018425   22.224173  0
  4.001227  -51.075989   23.417135  0
 31.652338  -50.776104   21.848955  0
 14.935315  -50.823803   21.424236  0
  5.800588  -50.744072   22.573555  0
  4.531307  -50.109718   22.416660  0
  1.956408  -50.073017   22.229509  0
  6.717247  -49.933514   21.760122  0
  1.643289  -50.559155   21.789228  0
  1.869904  -50.163429   20.953430  0
 50.477272  -49.994846   20.151081  0
 48.810883  -50.193775   20.946331  0
 46.975513  -50.234627   20.413630  0
 15.145143  -50.327400   19.858765  0
  9.957603  -50.167282   19.642067  0
  7.731827  -49.751846   21.104753  0
  8.883000  -50.003078   20.155792  0
  2.813163  -50.510323   19.842516  0
 50.420643  -49.836334   19.023306  0
 45.097301  -49.863110   20.007269  0
 43.492561  -49.640705   19.056393  0
 28.192482  -48.906891   19.055834  0
 27.449440  -49.457241   18.427794  0
 13.088694  -50.303913   19.065233  0
  4.280575  -50.332443   18.659002  0
  4.444138  -50.412460   17.577662  0
 50.502148  -50.584389   17.338051  0
 26.812365  -50.215462   17.404888  0
 25.257765  -50.793774   16.310959  0
 25.675386  -50.113224   16.205540  0
  3.275007  -50.556755   16.426662  0
 51.344479  -51.368126   14.629546  0
 50.710522  -51.005325   16.054604  0
 49.448238  -51.303688   14.584063  0
 48.592896  -50.840645   15.922576  0
 24.715296  -50.601261   15.515573  0
  2.982536  -51.102345   15.988402  0
  2.887777  -50.539829   15.714141  0
 48.145473  -51.158226   14.157407  0
 47.359745  -50.611691   15.110041  0
 24.550743  -50.269089   14.509523  0
  7.080553  -50.520508   15.004519  0
  3.586048  -50.077682   15.155046  0
 51.885086  -51.608860   13.095277  0
 39.162380  -49.631088   13.747778  0
  9.559032  -50.178009   14.444959  0
 51.158604  -51.545494   12.160811  0
 48.609638  -51.302338   12.290851  0
 23.844748  -50.504196   12.632217  0
 13.534347  -50.485935   13.297818  0
 24.015156  -49.995377   11.294029  0
 14.486951  -49.820526   12.183634  0
 50.552769  -51.231575   10.876089  0
 48.762466  -51.137409   11.096773  0
 35.067558  -50.189323    9.915419  0
 36.648785  -48.931873   10.697030  0
 24.531553  -50.259975   10.113494  0
 52.209732  -50.876263    9.939752  0
 51.299046  -50.642406    9.778362  0
 15.012577  -50.441940   10.083811  0
 53.080982  -50.574718    8.804622  0
 30.551096  -50.645393    8.803294  0
 27.527645  -50.579391    9.108259  0
 12.873607  -50.542706    8.658440  0
 53.486195  -50.834492    7.995844  0
 43.575390  -50.936733    7.081841  0
 10.723975  -50.746220    8.474051  0
  8.911708  -50.789062    8.567941  0
  8.205780  -51.157856    8.400368  0
  7.571698  -51.191864    7.842864  0
 53.266701  -50.416378    6.231068  0
 47.676598  -51.010155    6.006768  0
 40.690308  -50.125938    6.324479  0
  9.154474  -51.291016    7.090403  0
  7.082922  -50.792343    6.965108  0
 53.309513  -51.124500    6.154339  0
 52.644924  -51.309578    5.258598  0
 50.043179  -51.110104    5.138260  0
 44.880280  -50.342663    6.284850  0
 11.126998  -51.005402    6.444726  0
  7.949504  -50.382935    6.072333  0
 51.686260  -51.223606    4.518160  0
 52.282898  -50.992020    4.415420  0
 52.469383  -50.230122    4.941679  0
 37.158226  -49.869881    4.941086  0
 12.051632  -50.645615    5.454567  0
 12.817263  -51.157143    4.949549  0
 51.687466  -50.533489    3.966224  0
 50.691784  -50.749252    3.982484  0
 35.210438  -50.195133    2.386794  0
 11.705052  -50.334320    4.089112  0
 34.644730  -50.408020    0.721576  0
 10.435289  -50.706314    1.977039  0
 35.215794  -49.858959   -1.996029  0
  8.709894  -50.778313   -2.484226  0
  9.471525  -50.857456   -0.283315  0
 35.831528  -50.521843   -2.485217  0
 37.006832  -51.154537   -2.960958  0
 36.980339  -50.309814   -3.889973  0
 16.087959  -50.925125   -4.476707  0
 14.769831  -51.003555   -4.353916  0
 39.309364  -50.559578   -6.093651  0
 16.664896  -50.604671   -5.362409  0
 12.641433  -50.647121   -5.958058  0
  7.712678  -50.807674   -4.609752  0
 11.392864  -50.513794   -7.115003  0
  6.591858  -50.647732   -6.780528  0
  9.578926  -50.717415   -8.067079  0
  5.378549  -49.879810   -7.838168  0
 49.959885  -49.828133  -10.498754  0
 47.431110  -49.134956  -10.133747  0
 45.170937  -49.826973   -9.785100  0
 42.251034  -50.313423   -9.114882  0
  3.795559  -49.483749  -10.136965  0
 51.575264  -49.676231  -10.947374  0
 36.466270  -51.285709  -11.242672  0
 35.422310  -50.694397  -11.379424  0
  6.498934  -50.304062  -11.113791  0
  5.284217  -50.408501  -11.434069  0
  4.609650  -49.767429  -11.239445  0
 52.995811  -50.608540  -12.470121  0
 38.152679  -50.731277  -11.836132  0
 34.781796  -50.099972  -11.783743  0
 33.998253  -49.643993  -12.523687  0
 31.862057  -51.088654  -13.024934  0
 19.848755  -50.266586  -11.525180  0
 18.844303  -50.121162  -10.554749  0
 52.038105  -50.459068  -12.859480  0
 45.301113  -50.364223  -12.780950  0
 41.592888  -50.561768  -12.532014  0
 20.211878  -49.322029  -14.676805  0
 33.213577  -49.963211  -14.838597  0
 34.256855  -50.034431  -16.229309  0
 18.001894  -50.024597  -15.961092  0
 17.042755  -50.553017  -16.516479  0
 15.579272  -51.133514  -17.268581  0
 35.452568  -50.393509  -17.063200  0
 37.815178  -49.669537  -17.698210  0
 23.581646  -50.375267  -18.941729  0
 20.289539  -50.253174  -18.048674  0
 15.859328  -50.957409  -18.000824  0
  7.766531  -52.215137  -17.827702  0
  5.651887  -51.797760  -18.052309  0
  6.690049  -51.204254  -18.248999  0
 50.194424  -50.947212  -18.753874  0
 48.604160  -50.695923  -19.065454  0
 43.794743  -50.737640  -18.811808  0
 17.482603  -50.504223  -18.109051  0
 10.159590  -51.239037  -18.953815  0
 11.046505  -50.233753  -19.311708  0
  9.685761  -50.190506  -18.729572  0
  9.108051  -52.309444  -18.841324  0
  8.030802  -50.689022  -18.534277  0
  5.959980  -50.617119  -19.165766  0
 51.493370  -50.154179  -19.340034  0
 46.153397  -50.748959  -19.169003  0
  6.098105  -50.284798  -20.135691  0
 38.787842  -50.727173  -21.103170  0
 22.618240  -49.920300  -20.256443  0
 13.855894  -50.515175  -20.946751  0
 49.756557  -50.471329  -22.276909  0
 41.819229  -50.710754  -22.297293  0
 42.856457  -51.126621  -22.736584  0
 40.336079  -50.401314  -21.854319  0
 20.598101  -49.453236  -21.522198  0
 17.840315  -50.237602  -21.899759  0
 16.410896  -50.307522  -21.713490  0
 49.763523  -50.627357  -23.405806  0
 49.979576  -50.973885  -23.980177  0
 42.049171  -50.781685  -23.529396  0
 36.481289  -50.667606  -24.099379  0
 49.257458  -50.581558  -24.181202  0
 45.133503  -50.625004  -24.992748  0
 45.478767  -49.122799  -24.589609  0
 40.898087  -50.928520  -25.051140  0
 12.219517  -50.056400  -23.771549  0
 16.290052  -50.807659  -25.897398  0
 15.964924  -49.769508  -25.792625  0
 38.241394  -50.828812  -26.084215  0
 39.244312  -50.653538  -25.718624  0
 26.391504  -50.916916  -26.214310  0
 25.536993  -50.961250  -26.467018  0
 24.539185  -50.847027  -27.009563  0
 29.348051  -50.400734  -27.003094  0
 29.738337  -50.131592  -28.052830  0
 23.436832  -51.099339  -28.225422  0
 17.213676  -50.645027  -28.096441  0
 17.585211  -50.047565  -27.357029  0
 44.083572  -49.979198  -29.475508  0
 21.862589  -50.801620  -29.074570  0
 16.682308  -50.594723  -29.660643  0
 15.184896  -51.301693  -30.047970  0
 45.147415  -49.998653  -30.603016  0
 19.913168  -50.526897  -29.980022  0
 16.179491  -50.936607  -30.939684  0
 17.001072  -50.419434  -30.698673  0
 28.859362  -49.083466  -29.845898  0
 18.365215  -50.352062  -30.545431  0
 47.245274  -50.578945  -32.259453  0
 46.534958  -50.087921  -31.716293  0
 27.601362  -50.778019  -31.870176  0
 47.728760  -50.307152  -34.132839  0
 44.485962  -51.132923  -33.701073  0
 41.492863  -51.384010  -33.743507  0
 33.187565  -49.937454  -32.790836  0
 32.033596  -49.883427  -32.356728  0
 30.847309  -49.874802  -32.588917  0
 29.531067  -49.880100  -33.764233  0
 25.291590  -49.507179  -32.682327  0
 22.896158  -49.811794  -33.804306  0
 22.447802  -49.811581  -34.308010  0
 47.069939  -50.423416  -34.629227  0
 46.080704  -51.060867  -34.110966  0
 42.990307  -51.108349  -33.536945  0
 34.129108  -50.399052  -33.622066  0
 28.813492  -50.025177  -34.698704  0
 22.559303  -50.128986  -34.838200  0
 42.641182  -51.059296  -35.071281  0
 28.199614  -50.030540  -35.165165  0
 22.998537  -50.126503  -35.150196  0
 43.934456  -50.825367  -36.190262  0
 44.736095  -50.361641  -35.660625  0
 24.126621  -51.182774  -35.716888  0
 26.049109  -50.933128  -35.917168  0
 45.980774  -50.222031  -38.087337  0
 37.112877  -49.895664  -37.146053  0
 38.849060  -50.421940  -37.663155  0
 44.055397  -50.319901  -39.215843  0
 41.242161  -50.106419  -38.308216  0
 45.197407  -49.767891  -39.127743  0
 14.836853  -50.408150   46.880383  0
 13.501779  -50.054741   46.632397  0
 14.842607  -50.194447   45.952263  0
 10.933723  -50.149971   46.616108  0
 16.278328  -50.624199   45.387714  0
 10.375564  -50.167370   43.572670  0
 11.901389  -49.814812   44.746529  0
 16.733788  -50.638317   43.798008  0
 11.761055  -49.297615   41.318188  0
  4.362953  -48.471127   42.699722  0
  5.901986  -48.361195   43.014084  0
  6.241014  -48.905518   42.681442  0
  4.779213  -47.370911   43.414913  0
 17.359558  -50.550411   42.730465  0
 18.918890  -50.274799   41.541714  0
 10.749283  -49.846161   41.247250  0
  6.555830  -49.125298   42.351585  0
  6.491669  -49.564903   41.035419  0
  1.601819  -49.591995   40.847195  0
 20.231195  -49.959835   40.031078  0
 11.003894  -49.375912   39.807831  0
  1.280873  -49.175850   38.523788  0
 22.103153  -49.662479   37.818211  0
  9.937704  -50.062763   38.880936  0
 34.215324  -50.571842   37.787434  0
 31.402756  -50.054005   37.259476  0
 22.749043  -49.565128   36.507004  0
 20.704224  -49.058987   37.964970  0
 16.767736  -50.410450   35.992500  0
 10.898157  -49.188831   37.524639  0
  1.077235  -49.368340   36.910316  0
 36.652702  -50.169662   36.399776  0
 32.901669  -49.664742   36.544430  0
 26.383434  -50.047688   36.307343  0
 10.177165  -49.466022   36.215260  0
  6.998547  -48.745319   37.373142  0
  1.770534  -48.471817   35.602863  0
 40.345818  -49.844662   35.959099  0
 39.380657  -49.392723   36.167221  0
 41.339924  -49.316437   35.535931  0
 37.987667  -49.606834   35.971550  0
 35.815891  -49.677910   35.859951  0
 29.210884  -48.944805   35.972015  0
 24.438457  -49.225853   35.268097  0
  9.229788  -49.671631   35.446499  0
 41.282551  -49.391624   34.706924  0
 16.604237  -50.097782   34.460670  0
  8.670479  -49.179256   35.091915  0
  7.862532  -49.512840   35.387642  0
 40.632828  -49.392803   33.308842  0
 17.666216  -50.301865   33.200695  0
  3.801361  -49.542011   33.334999  0
  3.451163  -49.042320   33.954479  0
 39.690948  -49.118748   32.498589  0
 30.945751  -49.947498   31.938623  0
 28.735691  -50.237759   32.184277  0
  4.362900  -48.969883   32.372181  0
 38.078159  -49.418579   31.667963  0
 36.040665  -48.857330   30.147091  0
 32.860561  -49.954681   31.181492  0
 27.263643  -49.352276   30.525187  0
  3.721979  -49.329567   31.516689  0
 23.990732  -49.663940   29.292461  0
  2.251901  -49.124474   29.297054  0
  5.982851  -49.761177   28.671341  0
  3.648281  -49.483967   28.098026  0
  2.619936  -49.163437   28.435520  0
 12.312266  -48.969036   26.599646  0
 22.288084  -49.171051   25.408361  0
 23.004814  -48.705681   24.308371  0
 29.551928  -49.705338   23.379852  0
 28.217415  -49.595543   22.825460  0
 26.069607  -49.638531   22.670120  0
 24.818441  -50.010906   23.461782  0
 23.478333  -49.306625   23.752377  0
 30.736240  -49.276703   22.922890  0
 24.938700  -48.886307   22.322380  0
  3.069391  -49.796722   22.198490  0
 31.141766  -49.618290   21.690556  0
 27.069143  -49.031277   22.047552  0
  5.632900  -49.035576   20.744072  0
  1.536265  -49.366623   21.707760  0
 16.071175  -49.216854   20.913059  0
 16.213650  -49.119301   20.005199  0
  1.229589  -49.541470   20.525711  0
 49.505100  -49.255329   21.081980  0
 48.168831  -49.101788   21.337889  0
 45.741074  -48.880642   20.512558  0
 30.470560  -48.675636   21.111259  0
  7.331479  -49.298084   20.575827  0
 44.026352  -48.150307   19.193253  0
 29.509737  -47.989307   19.916609  0
 14.680958  -49.690590   18.763050  0
 11.938421  -49.670025   18.550663  0
  3.975092  -49.670502   18.055130  0
  2.879097  -49.268715   19.084061  0
  1.443521  -49.290543   19.774134  0
 48.234261  -49.626892   18.029182  0
 49.398895  -48.850697   20.090712  0
 42.865517  -48.233982   18.176222  0
 13.431517  -48.531773   17.385506  0
 46.927158  -49.720345   16.611420  0
 46.068264  -47.995140   18.241470  0
 41.262169  -49.058270   16.617483  0
  2.984565  -49.356659   16.727232  0
  3.426928  -49.442638   17.311586  0
 45.897369  -49.712696   14.899555  0
 25.234957  -49.463165   15.491496  0
  2.631589  -49.990959   15.996617  0
 45.112701  -48.424252   15.720240  0
 40.203510  -48.965553   15.126808  0
  5.447653  -49.202454   14.754230  0
  7.042891  -49.295444   14.472780  0
  2.955663  -49.320679   15.508441  0
 46.448940  -50.489380   12.708191  0
 24.769381  -49.278633   14.207756  0
 44.381920  -48.975842   13.717024  0
 38.219330  -48.746212   12.450673  0
 24.376226  -49.081455   12.803040  0
 12.798881  -48.655933   12.840424  0
 47.246948  -50.733917   11.082438  0
 45.454266  -50.081665   10.558845  0
 44.940121  -49.872841   11.927877  0
 49.700890  -50.140682    8.717427  0
 48.530514  -50.656940    9.865504  0
 25.112930  -48.200985   10.359631  0
 52.214931  -50.057629    8.791563  0
 46.549915  -49.620007    8.504134  0
 44.965626  -49.454956    9.199568  0
 26.905035  -49.146664    8.794752  0
 25.850811  -48.762856    9.355639  0
 13.708244  -48.878071    8.520483  0
 53.146755  -50.001060    8.291111  0
 51.637505  -49.286072    7.503588  0
 50.452427  -49.132324    7.341906  0
 29.557962  -49.351448    8.459947  0
 31.994764  -48.600410    8.452943  0
 12.414938  -48.903496    7.812787  0
 11.357866  -49.660156    7.904699  0
  6.385018  -49.499161    8.190511  0
  6.383986  -50.405315    8.020311  0
  5.701328  -50.392441    7.449895  0
  4.667123  -49.364731    7.975927  0
  3.932688  -49.734291    7.559547  0
 53.112656  -49.796410    7.618373  0
 42.246017  -49.673729    6.014579  0
  8.798754  -49.176483    7.799264  0
  5.420945  -50.415928    6.434621  0
  3.361309  -50.147572    6.509355  0
  2.752348  -49.318790    6.953217  0
  2.448961  -49.337719    6.133523  0
 52.136230  -49.319355    5.995288  0
 46.281498  -50.090748    5.199639  0
 43.659145  -49.134251    5.082744  0
 10.403460  -50.190006    5.860291  0
  6.873081  -50.283726    5.669193  0
  5.552166  -50.359409    4.561054  0
  3.556279  -50.483559    4.985738  0
  2.634201  -49.974609    4.834178  0
  2.350997  -48.715084    5.367071  0
 48.378418  -50.202377    3.953239  0
 36.342796  -49.352913    3.594769  0
 10.791806  -49.745708    4.479208  0
  9.520373  -49.696751    5.153929  0
  2.946090  -49.197140    3.505252  0
 51.585846  -49.561050    4.422580  0
 50.941555  -50.382015    3.135899  0
 50.105816  -50.459805    2.828718  0
 46.156441  -49.271301    3.733615  0
  4.097381  -50.606022    2.956917  0
  3.185323  -50.415073    2.983896  0
  2.865343  -49.894070    2.765245  0
 51.026535  -49.775955    3.124687  0
 50.443554  -50.099331    1.983158  0
 49.400219  -50.181568    1.799251  0
 10.238086  -50.046093    2.611795  0
  9.093435  -50.196976    0.299924  0
  5.661404  -50.003510    1.346837  0
  3.984361  -50.323437    1.321300  0
  3.418245  -49.971191    1.137666  0
  4.503221  -49.800522    0.158402  0
  7.811966  -49.869804   -2.102643  0
 35.646004  -49.452511   -3.147452  0
  6.963648  -49.423668   -4.202367  0
 15.053888  -49.915661   -6.020021  0
 13.800160  -49.863018   -6.241918  0
  7.089144  -49.858646   -5.096703  0
 38.075268  -49.702461   -5.795736  0
 17.339195  -50.521233   -7.053082  0
  6.332400  -49.478340   -6.810451  0
 12.376106  -49.557232   -7.436832  0
 40.278061  -49.667461   -7.973623  0
 17.252768  -49.907127   -9.191155  0
 10.895721  -49.639725   -7.937537  0
 41.699345  -48.900986   -9.028255  0
  9.395667  -49.493488   -9.007888  0
  4.613757  -48.982296   -8.124900  0
  3.905065  -48.553169   -8.571052  0
  3.721206  -48.852364   -9.377482  0
 52.563499  -49.656773  -11.543957  0
 53.116024  -49.122692  -12.315079  0
 17.651802  -49.305199  -10.947651  0
 16.373747  -49.501293   -9.780260  0
  7.044056  -49.290127  -10.837812  0
 52.805679  -49.045979  -13.036452  0
 19.001894  -49.143517  -11.502769  0
 20.221117  -49.233078  -12.778017  0
  5.956720  -48.788155  -11.353129  0
 49.343590  -49.839931  -12.974989  0
 50.972626  -48.264305  -13.363048  0
 41.312897  -49.394863  -12.806513  0
 38.289425  -49.327133  -12.551382  0
 35.781185  -48.965431  -12.768422  0
 32.631931  -50.126190  -13.120485  0
 20.521925  -48.703949  -13.833262  0
 19.509964  -49.078465  -15.437201  0
 17.273977  -49.996887  -17.271494  0
 17.914383  -49.395210  -16.507021  0
 21.653721  -49.206886  -18.318411  0
 22.837841  -49.046738  -18.789099  0
 19.242811  -49.405842  -18.142178  0
 18.522377  -49.398968  -17.746147  0
 50.256176  -49.981525  -19.290512  0
 42.435654  -49.315628  -18.930828  0
 45.225334  -49.547966  -19.471317  0
 39.707207  -48.737312  -18.478397  0
 10.898235  -48.871662  -19.300890  0
  6.972801  -49.856205  -19.093918  0
 48.002930  -49.898365  -19.489716  0
 22.758333  -49.044140  -19.716999  0
 12.788678  -49.572685  -20.223221  0
 11.999883  -48.523281  -19.847771  0
  6.529198  -49.412674  -19.890804  0
 21.851965  -48.376705  -20.838303  0
 14.653113  -49.114704  -21.166708  0
  6.873116  -48.878109  -20.802727  0
 50.651276  -49.120598  -20.791313  0
 49.863613  -49.018044  -21.912844  0
 38.708004  -49.977982  -21.837860  0
 37.707249  -49.891029  -22.267601  0
 37.020111  -50.014610  -23.070902  0
  7.743590  -48.413815  -21.844488  0
 39.740677  -49.880440  -22.894480  0
 10.355882  -48.566559  -23.227657  0
 49.233479  -49.804886  -23.691780  0
 48.461971  -49.656342  -24.302090  0
 40.073780  -50.169525  -24.187654  0
 37.465614  -50.243793  -24.667850  0
 46.861462  -48.604603  -24.510525  0
 43.847206  -49.749210  -25.672775  0
 38.557198  -49.893131  -24.138994  0
 13.391795  -49.302788  -24.796301  0
 11.972128  -48.927689  -23.810467  0
 43.151100  -49.379173  -26.951433  0
 27.322998  -49.004204  -24.837385  0
 26.126719  -49.202957  -24.792866  0
 24.790930  -49.992935  -25.685768  0
 14.645510  -49.350780  -25.493673  0
 43.060535  -49.518478  -28.493519  0
 17.098433  -49.671455  -26.411032  0
 22.858898  -50.334442  -27.906855  0
 20.847519  -49.946445  -28.932362  0
 18.335489  -49.354286  -27.888010  0
 43.786469  -49.585743  -30.415506  0
 19.695997  -49.857002  -29.644632  0
 17.775148  -49.962368  -29.650908  0
 18.843161  -49.337513  -28.998873  0
 46.186272  -49.484310  -32.137108  0
 27.684919  -49.121464  -31.012056  0
 47.475830  -49.675514  -33.007957  0
 47.699947  -49.301582  -33.944202  0
 47.192905  -49.501240  -35.488983  0
 47.146065  -48.940208  -35.448044  0
 45.703739  -50.384918  -34.927719  0
 43.724052  -50.678638  -34.456558  0
 33.439522  -48.968224  -33.762569  0
 34.387215  -49.781509  -35.154289  0
 46.286076  -49.852924  -36.050934  0
 45.709904  -50.127190  -37.088791  0
 35.059223  -49.925850  -36.357540  0
 26.878679  -49.338688  -35.333561  0
 25.721090  -49.212597  -35.449169  0
 24.059809  -49.138241  -35.212532  0
 35.779026  -49.729259  -37.010777  0
 46.333717  -49.420288  -37.238785  0
 45.919388  -49.812733  -38.764187  0
 39.007839  -49.692333  -36.891769  0
 40.778805  -49.115822  -37.116848  0
 37.874222  -49.727856  -36.985477  0
 43.428616  -49.016621  -38.319401  0
 24.606981  -47.604218   45.524445  0
 23.114361  -47.614761   46.377918  0
 23.362846  -47.629387   45.331711  0
 24.684799  -46.807518   46.465622  0
 26.745041  -46.888256   45.305561  0
 28.145723  -48.283833   44.500416  0
 28.997404  -47.618332   44.555500  0
 25.972612  -47.820820   45.003647  0
 25.198982  -48.034546   44.517864  0
 28.458235  -48.785797   43.844872  0
 25.517620  -47.302921   45.553444  0
 14.579944  -49.953838   44.133785  0
  6.332704  -47.804718   43.792259  0
  6.577987  -48.232594   43.604187  0
  6.192038  -46.936161   44.912224  0
  7.022631  -47.699276   44.386894  0
 29.859091  -48.835510   43.610859  0
 30.083036  -48.379578   43.818401  0
 26.906370  -48.437496   43.143661  0
 25.155218  -48.011112   43.738838  0
 12.785333  -49.293106   42.006081  0
  7.047254  -48.213120   43.369740  0
  2.801368  -46.762505   43.062508  0
  2.945437  -48.338757   42.540890  0
 30.068630  -48.998600   43.059883  0
 28.601324  -48.915474   42.423359  0
 16.204971  -49.908005   42.274433  0
 14.545876  -49.373188   41.831490  0
  7.677702  -47.981701   42.583702  0
 25.960522  -47.326630   41.765965  0
  2.004596  -48.253147   42.080826  0
  1.551439  -47.943279   41.267117  0
 30.536674  -48.848320   41.809433  0
 29.129795  -48.644127   41.161079  0
 16.616314  -49.258316   40.675312  0
 15.028749  -48.787983   40.422264  0
 13.689251  -48.319569   39.179253  0
  1.499070  -48.047020   39.362114  0
 18.754745  -48.601261   38.040138  0
 15.956461  -48.108673   38.375183  0
  7.354465  -48.346233   40.478012  0
 20.619957  -48.654953   36.969460  0
 12.053452  -48.615086   38.572021  0
 11.489400  -48.584011   35.881062  0
 12.541713  -48.289043   36.947258  0
 41.106148  -48.638702   36.159901  0
 39.944756  -47.852585   36.713676  0
 41.980034  -47.200989   35.948971  0
 38.722515  -48.233826   36.272781  0
 37.828575  -48.524094   35.514339  0
 37.142159  -48.989101   35.231476  0
 34.923668  -49.140671   35.101002  0
 32.043037  -48.449524   35.145718  0
 25.982151  -48.890141   35.078335  0
 21.689659  -48.814354   35.691719  0
 10.549245  -48.651810   35.156120  0
  7.727364  -48.466843   35.809837  0
 35.930038  -48.662399   34.386406  0
 29.567019  -48.140141   35.020916  0
 22.952473  -48.923729   35.084019  0
  9.669037  -48.408070   34.788757  0
 10.678899  -48.054996   34.685955  0
  2.616712  -48.300213   34.606003  0
 41.452187  -47.577179   33.822643  0
 34.571262  -48.280949   34.062073  0
  9.192351  -47.500561   34.955723  0
  4.351282  -48.196064   33.289135  0
 38.321606  -48.397015   31.402884  0
 29.304028  -48.935596   30.303211  0
  4.763800  -48.247936   31.151535  0
 37.093006  -48.184669   30.240578  0
 33.236183  -49.193207   30.052729  0
 31.580772  -49.336891   30.494520  0
 31.236166  -48.750847   29.501478  0
 25.639458  -49.244843   29.829489  0
  3.486252  -48.289280   30.150839  0
 34.274967  -48.121887   28.857666  0
 24.688419  -48.747345   28.655079  0
  9.338068  -48.577347   28.706406  0
  7.521549  -48.932301   28.977320  0
  2.811173  -48.298428   29.064131  0
  2.542723  -47.613575   27.800959  0
 23.185024  -48.786556   27.261593  0
 10.903209  -48.619152   27.885645  0
  8.451025  -48.035828   28.043100  0
  6.854999  -47.799393   27.273712  0
  5.963319  -48.381790   27.816380  0
  4.833901  -48.983215   27.931101  0
  3.079090  -47.985409   27.223682  0
 41.248814  -49.353012   26.573893  0
 42.112583  -49.415985   26.402563  0
 42.931782  -49.220638   27.468508  0
 41.134197  -48.788506   27.101984  0
 42.946671  -48.518772   28.111679  0
 23.069035  -48.282513   26.013073  0
 11.561226  -47.639126   26.368998  0
  3.926758  -48.236980   27.279825  0
 43.663525  -49.028404   26.944267  0
 42.538479  -49.090336   26.060843  0
 40.104778  -49.410892   25.359253  0
 39.922245  -49.141098   26.158440  0
 38.884247  -48.825249   25.110586  0
 40.669949  -49.049156   24.824026  0
 39.071594  -48.884090   24.054811  0
 13.207474  -47.394287   24.746832  0
 14.020343  -48.127342   24.071762  0
 24.056253  -47.561722   23.089294  0
 15.354665  -48.000710   22.373428  0
 30.709435  -48.573494   21.916609  0
 24.394091  -48.060341   22.391945  0
 29.172749  -47.992229   21.670635  0
 26.409992  -48.028328   21.275223  0
 16.147232  -48.385101   21.305992  0
  2.532814  -48.723949   21.398682  0
  0.339250  -48.996555   21.177893  0
  0.973750  -49.274452   21.586948  0
  0.503055  -49.050381   21.820086  0
  0.548023  -48.673660   21.930687  0
  1.219787  -48.424679   21.623476  0
 49.105869  -48.562580   21.176783  0
 47.992935  -48.404385   21.324715  0
 46.980892  -48.190723   20.867743  0
 16.818556  -47.619366   20.124613  0
  4.085629  -48.772480   20.735075  0
  3.068901  -48.498940   20.731688  0
  0.499992  -49.204586   20.140490  0
  0.071987  -48.941872   20.196697  0
  0.096627  -48.710606   20.678036  0
 45.195843  -48.016254   19.908190  0
 16.005713  -48.791042   18.900599  0
 16.831982  -47.418671   18.908613  0
  6.507636  -48.487534   18.188923  0
 48.209846  -48.138618   20.690304  0
 47.164814  -48.009808   19.621132  0
  8.934004  -49.209461   18.475845  0
  3.426081  -48.876823   18.067802  0
  1.673408  -48.539646   19.889210  0
  3.154801  -48.557594   19.580864  0
  0.575853  -48.668987   20.028118  0
 26.323799  -48.029160   17.387648  0
 27.332134  -47.690918   18.197407  0
 15.855645  -47.487896   17.853451  0
 11.761864  -48.863251   17.335596  0
  3.171549  -48.588058   16.975477  0
 45.130348  -47.512989   17.041910  0
 25.851942  -48.808487   16.689344  0
 10.017846  -48.577366   16.501389  0
  2.760519  -48.842678   16.210180  0
 40.833412  -48.057564   16.105867  0
  4.692649  -48.176510   14.903750  0
 43.596886  -47.525833   14.236505  0
 42.762821  -47.586628   12.378071  0
 39.164566  -47.723534   13.738329  0
 10.229577  -48.474747   13.417698  0
  8.075772  -48.200390   13.611882  0
  6.323067  -47.957333   14.139282  0
 43.784626  -49.020279   11.697047  0
 24.507425  -48.105129   12.385267  0
 24.815157  -47.309517   12.085163  0
 13.833253  -47.484909   11.853082  0
 12.665126  -46.649727   12.113031  0
 14.682881  -48.452496   11.288939  0
 43.829739  -48.926636    9.974782  0
 42.749687  -47.853931   10.640352  0
 14.730235  -48.207653   10.242093  0
 44.484642  -48.593296    8.400174  0
 43.454803  -47.815857    8.867739  0
 35.199100  -48.408775    9.499733  0
 33.874268  -48.311565    8.872749  0
 14.435888  -48.436943    9.256293  0
 49.818615  -48.475147    6.653068  0
 47.316971  -48.651924    7.007416  0
 28.976210  -48.251122    8.416203  0
 12.644630  -47.875092    7.589299  0
 51.006027  -48.626282    6.255805  0
 45.684753  -48.006611    6.775875  0
 10.637449  -47.350258    6.970115  0
  6.798201  -48.569927    7.897106  0
  3.073276  -48.527905    7.404487  0
 39.640781  -48.804470    4.928680  0
  2.564482  -47.787342    6.752350  0
 44.244591  -48.728046    3.859008  0
 41.664791  -48.730949    4.951606  0
 37.845764  -48.697502    4.151339  0
  8.960485  -49.455456    3.889835  0
  7.645114  -49.666264    4.088190  0
  2.734107  -47.667538    5.132048  0
  3.327807  -48.090282    4.210803  0
 50.088039  -48.195606    3.502881  0
 50.272095  -48.092148    4.564664  0
 47.362076  -49.342121    2.445056  0
  8.932554  -49.662506    2.111911  0
  7.647333  -49.608505    2.012304  0
 50.128468  -48.946831    1.948094  0
 50.422745  -50.029610    0.246776  0
 48.449993  -49.788101    1.060371  0
 35.776287  -48.432140    1.397588  0
  3.179651  -49.131321    1.022547  0
 50.160896  -48.886681    0.564489  0
 35.040371  -48.576279   -0.274109  0
  7.664744  -49.756203   -0.100438  0
  6.228528  -49.703873    0.005909  0
 50.151066  -50.417324   -1.240272  0
 48.880322  -49.929325   -0.533946  0
  3.714953  -49.054890   -0.797722  0
  3.242412  -48.490360   -0.693885  0
 50.759651  -49.396160   -0.522233  0
 51.267075  -49.771027   -1.405090  0
 51.036415  -48.161327   -0.990645  0
 49.436302  -50.100674   -1.780205  0
 35.015388  -48.590111   -1.906469  0
  6.503881  -49.391361   -1.754548  0
  5.012683  -49.176273   -1.348274  0
  3.831546  -48.293728   -1.586782  0
 51.308167  -50.243382   -2.523869  0
 52.353634  -49.449699   -2.237001  0
 50.031101  -50.048714   -2.642853  0
  5.143051  -48.739845   -2.172152  0
 53.683891  -49.405483   -2.904036  0
 52.529015  -49.879166   -3.375702  0
 53.230911  -48.585484   -2.165178  0
 50.774815  -49.841663   -3.286609  0
 48.860481  -48.049187   -3.097419  0
  6.208958  -48.885193   -3.240253  0
 54.027195  -49.160324   -3.385788  0
 53.169376  -49.246559   -3.932495  0
 51.603012  -49.046455   -3.841930  0
 36.174042  -48.886944   -4.636484  0
 35.380692  -48.164131   -4.015714  0
 35.923401  -47.430981   -5.359202  0
  6.079778  -48.402473   -5.464385  0
 37.742439  -48.478844   -6.369499  0
  5.722669  -48.366478   -6.587256  0
 15.903402  -49.671520   -7.682666  0
 14.470565  -49.176804   -8.731861  0
 13.192902  -49.011833   -8.338517  0
 39.595425  -47.953140   -8.116199  0
  5.233815  -48.654686   -7.491306  0
 13.323634  -48.330379  -10.346870  0
 10.806558  -48.526962   -9.107637  0
 45.255398  -48.124397   -9.751955  0
 42.285988  -47.765976   -9.236208  0
 15.599846  -49.172520  -10.877467  0
 14.659729  -48.979984  -10.669147  0
  8.636297  -48.621067   -9.926404  0
 52.307919  -47.957188  -11.483601  0
 50.722164  -47.988136  -10.814587  0
 49.184521  -47.248123  -10.569538  0
  7.199241  -47.917477  -10.891312  0
  4.064631  -47.904781  -10.108328  0
  4.561278  -47.828651  -10.873646  0
 53.316971  -48.395885  -12.896173  0
 18.409195  -48.110226  -11.952523  0
 19.503309  -48.092529  -12.429810  0
 16.647587  -48.606686  -11.714623  0
 14.218456  -48.455437  -11.875172  0
 43.642773  -48.203346  -13.321746  0
 33.805363  -49.049725  -13.878900  0
 34.962971  -48.369991  -13.755985  0
 20.151932  -47.426311  -13.577971  0
 46.993984  -47.879662  -13.491570  0
 18.856234  -48.405548  -16.299072  0
 35.010765  -48.622231  -16.224037  0
 35.035191  -48.044930  -15.433451  0
 18.420471  -48.834843  -17.123159  0
 36.144123  -48.646046  -17.029974  0
 38.157719  -48.289169  -17.846706  0
 22.260504  -48.193851  -18.498243  0
 20.963909  -47.719246  -18.400433  0
 18.952629  -48.406013  -18.028738  0
 19.814526  -48.242004  -18.596954  0
 41.323898  -47.801777  -19.130844  0
  9.117540  -47.747112  -19.092106  0
  8.022724  -48.207214  -18.933496  0
  7.269951  -48.604286  -19.157164  0
  6.838253  -48.470428  -19.578737  0
 48.565708  -49.142326  -20.015144  0
 46.534279  -49.018269  -20.015568  0
 44.979824  -48.029953  -20.114363  0
 43.112564  -47.644016  -19.669567  0
 12.945097  -48.375984  -20.437756  0
  6.671811  -48.147068  -20.222544  0
 51.072247  -49.323761  -20.035440  0
 50.044659  -48.740360  -20.298664  0
 46.765621  -48.017097  -20.385418  0
 18.826735  -48.165195  -22.263178  0
 16.857100  -48.253292  -22.079178  0
 49.045288  -48.871124  -23.917397  0
 48.218513  -48.718502  -24.526901  0
 43.833332  -48.105419  -24.951616  0
 42.911678  -48.434372  -25.866138  0
 23.853533  -48.957615  -24.874117  0
 24.907309  -48.361435  -24.317474  0
 22.740547  -49.336472  -25.849808  0
 51.387398  -50.070515  -26.304766  0
 52.184654  -49.389198  -26.924286  0
 51.909622  -49.516590  -26.030319  0
 52.288589  -48.212563  -26.684853  0
 51.089729  -49.436073  -25.654951  0
 50.573025  -49.569958  -26.450191  0
 42.386143  -48.786579  -27.125166  0
 29.338217  -48.038651  -25.556931  0
 28.511780  -48.036564  -24.807491  0
 29.748487  -48.317318  -26.632662  0
 21.521429  -49.592388  -27.707012  0
 20.643209  -48.984035  -26.461525  0
 20.981192  -48.519154  -25.524467  0
 51.273136  -49.860363  -26.954151  0
 41.799873  -49.154217  -28.404814  0
 29.790018  -47.716415  -27.518457  0
 19.885881  -49.319099  -28.540310  0
 19.245014  -48.946762  -27.197607  0
 18.489555  -48.395851  -26.109085  0
 16.452759  -48.586918  -25.956167  0
 17.353737  -48.500282  -26.096767  0
 18.092775  -49.014309  -26.804878  0
 15.391164  -48.061722  -25.976355  0
 51.777431  -48.581284  -27.652201  0
 41.318718  -48.544449  -27.008718  0
 39.525734  -49.106312  -28.088665  0
 39.663605  -48.557438  -26.942478  0
 40.412079  -49.404533  -29.129770  0
 42.169262  -49.564980  -30.452551  0
 38.849728  -49.151192  -29.156227  0
 29.301113  -47.862083  -28.574854  0
 40.396484  -49.498627  -30.476995  0
 39.095192  -49.061882  -30.752567  0
 37.452988  -48.298866  -29.683691  0
 45.247746  -49.235584  -32.348724  0
 44.022671  -49.177876  -32.783794  0
 42.848648  -49.496078  -31.811127  0
 41.338905  -49.526203  -31.499397  0
 40.415863  -49.169376  -31.934855  0
 42.441944  -49.197926  -32.892521  0
 39.522888  -48.461567  -32.438923  0
 25.737455  -47.946651  -31.660810  0
 40.770172  -48.356491  -33.774094  0
 43.148930  -48.531097  -34.269569  0
 31.556147  -47.647537  -32.405354  0
 32.417820  -47.677452  -32.963623  0
 30.858089  -48.457275  -32.331696  0
 29.351732  -47.884445  -32.825638  0
 22.790743  -48.281044  -33.005165  0
 22.258047  -48.415184  -33.697784  0
 46.626907  -48.810028  -33.943954  0
 45.077477  -48.610188  -34.338505  0
 28.090107  -48.323830  -34.233810  0
 22.592014  -48.460320  -34.385754  0
 33.113991  -48.434647  -34.851170  0
 33.675713  -49.002274  -36.250439  0
 46.909016  -49.006527  -36.381710  0
 39.728157  -49.188881  -36.031448  0
 40.504147  -48.474754  -35.286907  0
 38.860580  -48.935574  -35.032143  0
 37.818802  -49.027851  -35.347309  0
 37.285946  -49.243366  -36.481411  0
 45.582432  -48.654835  -37.765156  0
 36.581627  -48.170151  -36.516056  0
 36.107273  -48.597393  -37.152756  0
 34.274567  -48.883450  -37.171326  0
 42.427757  -48.125164  -36.810844  0
 35.067162  -48.108746  -37.475536  0
 44.277584  -48.524265  -38.047424  0
 23.421619  -47.178875   47.138851  0
 22.155497  -47.358730   47.028946  0
 22.541018  -46.237232   47.832642  0
 21.582069  -46.833271   47.301041  0
 21.384718  -47.309231   45.952728  0
 20.323088  -46.863773   46.554779  0
 18.730518  -46.208866   46.537842  0
 19.252815  -47.029167   45.257019  0
  7.824351  -47.440388   45.211403  0
  8.192596  -46.985611   46.123768  0
  7.821911  -46.700855   46.180672  0
  7.200920  -46.599125   45.845989  0
  6.758111  -45.745331   46.624348  0
  4.366940  -45.158611   45.245850  0
 21.097834  -47.075100   44.429646  0
 18.610567  -47.003521   44.038780  0
  7.799710  -47.693691   44.073891  0
  3.271318  -45.877411   43.935364  0
 30.367495  -47.285908   43.998848  0
 23.099726  -47.311989   44.161659  0
 19.796087  -46.888885   43.784897  0
 18.442923  -46.372421   43.074474  0
 31.547407  -48.037895   43.395462  0
 31.359905  -48.629272   42.844513  0
 32.743649  -48.056255   42.734692  0
 23.812069  -46.911835   42.902390  0
 22.056337  -46.681953   43.504261  0
 20.303957  -46.364822   43.359070  0
  1.959118  -46.556286   42.602798  0
 32.859894  -48.192879   41.963505  0
 34.200031  -47.185577   41.878178  0
 32.672630  -48.022301   40.904045  0
 33.898651  -47.467880   41.185452  0
 22.279673  -45.898876   42.532909  0
 24.896914  -46.219627   41.572868  0
 21.155729  -45.844875   42.796280  0
  8.112481  -47.554554   41.673080  0
 31.483345  -48.256042   40.514545  0
 30.450888  -48.178162   40.133015  0
 27.620770  -47.912064   40.498718  0
 26.041075  -46.622601   40.765179  0
  1.402921  -46.764805   40.928337  0
 28.940262  -47.847145   39.578510  0
 27.031515  -47.097485   39.809292  0
 15.513473  -47.627277   36.863262  0
  1.558970  -48.104126   37.285172  0
  1.778857  -46.597115   37.887363  0
 17.357721  -47.664444   35.763573  0
 14.377708  -47.656578   36.379536  0
  8.414247  -47.182816   36.016514  0
 41.104733  -47.004879   36.683876  0
 37.882523  -47.564529   35.650654  0
 19.478832  -47.851402   34.874733  0
 13.600216  -47.632133   35.211143  0
 42.368114  -46.562496   35.020264  0
 37.039608  -47.407284   34.407291  0
 27.046972  -47.947643   34.247253  0
 25.000004  -48.272732   34.044403  0
 21.360161  -48.187855   34.228245  0
 20.218222  -47.768383   33.770939  0
 11.990931  -47.864021   34.761364  0
  2.630572  -46.731899   34.795696  0
 36.477356  -47.921871   34.020569  0
 34.013321  -47.446140   33.267014  0
 29.273355  -47.665901   34.199509  0
 27.244312  -46.982780   33.163330  0
 22.905779  -47.892159   33.338852  0
 11.780989  -47.256298   34.078423  0
 10.586642  -47.225517   34.294815  0
  3.488072  -46.941700   33.954487  0
 40.375538  -47.228500   32.638500  0
 35.207500  -47.344482   33.287846  0
 25.047520  -47.470520   33.299534  0
 20.702217  -47.482342   32.757179  0
  5.144806  -47.876137   32.635761  0
 38.540623  -46.900982   31.207981  0
  5.462088  -47.807217   31.640549  0
  5.158100  -47.309029   30.624449  0
 36.217587  -47.337830   29.172554  0
 29.384932  -47.910713   28.897499  0
 34.789406  -47.358833   28.335659  0
 31.939358  -48.010082   28.460030  0
 30.479305  -47.566757   28.117151  0
 27.821819  -47.714108   28.454788  0
 25.900547  -48.160080   28.452950  0
  3.967795  -47.195549   29.713406  0
  3.064412  -46.960205   28.740326  0
 45.678162  -48.065563   29.137169  0
 44.460239  -48.241695   28.769651  0
 44.585159  -48.627777   27.779129  0
 45.879707  -47.680756   27.916620  0
 46.644325  -47.749176   29.198660  0
 44.411144  -47.306610   29.273697  0
 42.367947  -47.747150   27.996531  0
 31.996895  -46.977821   27.459963  0
 10.580200  -47.486713   26.807972  0
  9.315722  -47.231350   26.703362  0
  2.555526  -46.350597   28.108158  0
 44.461765  -48.143181   26.954838  0
 39.825245  -48.046768   26.455669  0
 43.330208  -48.351006   26.219616  0
 23.649504  -47.658287   24.501160  0
 41.082378  -48.178864   24.569973  0
 37.770542  -47.923817   24.508184  0
 37.645412  -48.535709   23.751556  0
 39.826279  -47.884148   23.469450  0
 37.969570  -48.696129   23.163708  0
 38.566521  -48.321362   22.792948  0
 36.994827  -47.693405   23.180294  0
 37.614265  -48.173344   22.654747  0
 38.251514  -47.807907   22.245026  0
 29.864813  -47.727558   20.847811  0
 29.377739  -47.248051   20.942385  0
  0.471593  -48.292980   21.621716  0
 25.463833  -47.129902   20.960947  0
 16.241093  -46.728809   21.205883  0
  1.975057  -48.189880   20.697643  0
  0.692533  -48.156311   20.804922  0
 46.378220  -47.834583   20.159147  0
  5.026097  -48.432560   18.799622  0
 45.461319  -47.602726   19.045227  0
 44.535294  -47.472359   18.840725  0
 28.839802  -46.415237   18.688824  0
  4.073050  -48.335812   18.236103  0
 43.658642  -46.917542   18.017689  0
  4.741096  -47.548473   16.366014  0
  3.721330  -47.954357   16.961683  0
 44.632511  -47.057213   17.956749  0
 42.549927  -47.183990   17.662584  0
 25.115255  -47.281364   15.685663  0
 14.386385  -47.282112   16.965668  0
 12.247614  -47.737770   15.803139  0
  8.168015  -48.366787   16.595264  0
  6.740857  -47.297997   15.401640  0
  3.277887  -48.030056   15.947705  0
 44.312408  -46.899593   15.816452  0
 41.114693  -46.601601   16.607077  0
 13.007182  -46.766911   15.420174  0
 10.597360  -47.866428   15.428357  0
  8.868918  -47.876492   15.487758  0
  5.698331  -47.338661   14.905283  0
 39.700768  -46.570354   15.134697  0
 31.942371  -47.715485   16.083830  0
 32.287884  -48.518276   16.098036  0
 32.993946  -47.821045   17.076914  0
 31.120907  -47.665100   14.697354  0
 24.667696  -47.479603   13.678887  0
 11.810155  -46.905708   14.827627  0
 10.173469  -46.230225   14.203032  0
  7.973442  -46.965889   14.916461  0
  4.608346  -47.600777   15.316433  0
 34.747162  -47.451542   16.228142  0
 33.642681  -48.519577   15.107579  0
 34.116158  -47.276932   14.480366  0
 32.305828  -48.785755   15.177055  0
 32.720840  -48.364281   14.195907  0
 33.365150  -47.805695   14.033043  0
 31.417536  -47.865383   13.896587  0
  6.520050  -46.850601   14.322123  0
  7.175652  -46.741016   13.462617  0
  8.728117  -47.156731   12.999948  0
 10.753113  -46.997959   12.616342  0
 41.774643  -46.304405   11.619290  0
 38.689667  -46.805737   13.222695  0
 36.998501  -47.589844   10.752400  0
 14.192228  -46.820507   10.946847  0
 35.740520  -46.942924    9.869564  0
 26.219982  -47.033554    9.896273  0
 27.229624  -47.459312    8.964017  0
 44.454865  -47.652618    7.238983  0
 31.577478  -47.593029    8.520877  0
 28.927134  -46.996643    8.796790  0
 13.250608  -47.037319    7.978340  0
 48.779427  -47.861244    6.119531  0
  8.269328  -46.865982    7.229496  0
  5.600450  -47.002850    7.860929  0
  4.448836  -47.021488    7.964828  0
  3.353441  -47.046913    7.643866  0
 49.430664  -47.650398    5.334074  0
 47.698643  -47.546410    5.790119  0
  2.682865  -46.598446    5.869422  0
 42.683884  -48.503613    4.265548  0
  3.291287  -47.016178    4.851399  0
 40.932247  -48.052914    3.444879  0
  3.834575  -48.195175    3.102518  0
 49.210167  -47.236450    2.902756  0
 45.776890  -48.338470    1.271043  0
 42.768379  -48.068161    2.493544  0
 38.936493  -47.370922    2.159343  0
 37.582623  -47.521828    1.970373  0
 36.743141  -48.107990    2.168985  0
 49.050358  -47.163376    1.734010  0
 43.918571  -47.555359    0.361249  0
 40.987106  -47.356293    1.719324  0
  3.572302  -48.503632    1.606767  0
  4.962699  -47.305614    2.270168  0
 49.709618  -47.637596    0.387191  0
 47.034740  -48.544384   -0.113269  0
 46.106750  -47.799778   -0.913417  0
  3.577923  -47.842339    0.314446  0
  3.288253  -47.533588   -1.044779  0
 49.436768  -46.188324    0.161624  0
 48.450298  -48.913277   -2.027880  0
 47.415909  -47.919735   -2.162829  0
 35.126724  -47.110466   -1.877209  0
 52.008396  -46.975731   -1.230225  0
 50.640442  -46.355442   -0.607508  0
  4.243099  -47.426704   -2.805156  0
  3.804406  -46.745640   -2.051742  0
 54.338028  -48.760674   -2.792929  0
 35.429535  -46.417839   -4.750177  0
 54.742207  -47.872536   -3.037470  0
 54.123409  -47.906044   -3.678847  0
 52.837646  -48.190510   -3.931596  0
 51.719055  -47.510235   -3.729669  0
 50.360657  -47.319508   -3.606652  0
 48.960381  -46.759487   -3.510885  0
  5.382013  -47.661804   -4.360140  0
  4.783324  -46.963531   -3.937844  0
  4.725245  -46.742352   -5.300372  0
 36.976517  -46.636509   -6.593968  0
  4.026624  -46.966034   -6.955658  0
 38.310802  -46.814411   -7.488945  0
  3.645138  -46.799053   -8.072519  0
 11.590821  -47.878555   -9.984431  0
  3.776909  -47.232410   -9.150845  0
 46.729176  -46.747299  -10.276116  0
 11.720255  -47.243103  -10.879743  0
  9.810200  -47.701885  -10.076093  0
  8.480893  -47.357880  -10.503836  0
 53.268158  -45.893608  -11.577064  0
 51.641758  -46.526215  -11.071721  0
 53.456596  -46.819145  -11.975537  0
 12.537848  -47.403309  -11.558274  0
 53.648857  -47.150215  -12.735822  0
  5.431255  -47.004818  -11.225079  0
 53.169464  -46.963295  -13.347905  0
 41.416153  -47.378590  -13.805415  0
 39.356697  -48.103012  -13.272470  0
 37.711296  -47.676105  -13.754690  0
 36.391296  -47.648365  -14.113525  0
 18.381796  -46.578354  -13.154161  0
 16.608559  -46.816055  -13.029714  0
 14.601213  -47.451405  -12.960077  0
 13.165292  -47.371872  -12.664909  0
 51.238434  -46.266689  -13.821629  0
 35.167950  -47.882713  -14.577948  0
 20.309143  -47.138348  -14.889354  0
 19.766794  -47.085159  -16.084103  0
 36.238972  -47.561302  -16.350569  0
 18.906860  -47.825890  -17.103983  0
 37.367741  -47.358639  -17.126646  0
 39.203022  -46.953320  -18.110264  0
 22.628859  -47.611691  -19.004457  0
 21.961891  -46.866035  -18.212423  0
 19.222528  -47.281395  -18.307133  0
 40.173061  -47.446308  -18.773176  0
 54.988827  -47.748646  -20.204264  0
 55.553230  -47.311901  -20.175728  0
 55.447842  -47.167965  -19.961166  0
 53.182121  -47.684486  -19.905298  0
 54.682293  -45.122379  -19.956686  0
 52.482632  -46.371323  -19.848789  0
 53.200336  -48.058811  -20.245075  0
 52.048607  -47.593426  -20.203560  0
