#!ascii file
19676  19949  19400  0
19677  19400  19949  0
19678  19403  19684  0
19949  19950  19677  0
19951  19677  19950  0
19677  19951  19680  0
19951  19682  19680  0
19952  19683  19682  0
19682  19951  19952  0
19953  19952  19951  0
19683  19952  19688  0
19954  19952  19953  0
19686  19687  19689  0
19955  19689  19687  0
19687  19688  19955  0
19956  19955  19688  0
19688  19952  19956  0
19954  19956  19952  0
19690  19685  18847  0
19689  19955  19957  0
19958  19956  19954  0
19959  19960  19961  0
19962  19961  19960  0
19959  19963  19960  0
19960  19964  19962  0
19960  19965  19964  0
19966  19964  19967  0
19964  19965  19967  0
19689  19957  19691  0
19961  19962  19968  0
19969  19968  19962  0
19962  19964  19969  0
19970  19969  19964  0
19964  19966  19970  0
19971  19970  19966  0
19972  19971  19966  0
19966  19967  19973  0
19974  19690  19143  0
19975  19976  19968  0
19977  19975  19968  0
19968  19969  19977  0
19978  19977  19969  0
19969  19970  19978  0
19979  19978  19970  0
19970  19971  19979  0
19143  18849  19974  0
19692  19980  19711  0
19692  19711  19693  0
19692  19691  19980  0
19981  19695  19982  0
19976  19975  19698  0
19976  19698  19697  0
19975  19977  19698  0
19977  19978  19703  0
19977  19703  19698  0
19978  19979  19704  0
19978  19704  19703  0
19979  19971  19707  0
19979  19707  19704  0
19971  19972  19709  0
19971  19709  19707  0
19972  19983  19709  0
19695  19694  19982  0
19982  19694  19984  0
19709  19983  19985  0
19711  19980  19986  0
19711  19986  19710  0
19694  19987  19984  0
19709  19985  19988  0
19709  19988  19715  0
18537  19421  18849  0
19712  19989  19694  0
19694  19989  19990  0
19694  19990  19987  0
19715  19988  19719  0
19710  19986  19991  0
19710  19991  19720  0
19712  19721  19989  0
19718  19719  19992  0
19718  19992  19724  0
19719  19988  19993  0
19719  19993  19992  0
19726  19720  19991  0
19726  19991  19994  0
19726  19994  19995  0
19726  19995  19427  0
19724  19992  19729  0
19992  19993  19996  0
19427  19995  19426  0
19727  19997  19721  0
19734  19736  19998  0
19734  19998  19999  0
19998  19736  20000  0
19998  20000  20001  0
19998  20001  20002  0
20001  20003  20002  0
19729  19992  19737  0
19729  19737  19430  0
19992  19996  20004  0
19992  20004  19737  0
19149  19152  19730  0
19149  19730  19725  0
19426  20005  19731  0
19426  19995  20005  0
19428  20006  19997  0
19428  19997  19727  0
19428  20007  20006  0
20008  19740  19732  0
20008  19732  19999  0
20008  19999  20009  0
20008  20009  20010  0
20008  20010  19740  0
19732  19734  19999  0
19736  19735  20000  0
20000  19735  20011  0
20000  20011  20001  0
20001  20011  20012  0
20001  20012  20013  0
20001  20013  20014  0
20001  20014  20003  0
19737  20004  20015  0
19737  20015  19431  0
19431  20015  19738  0
19738  20015  19751  0
19155  19739  19730  0
19429  20007  19428  0
20016  20017  19741  0
20016  19741  19740  0
20016  19740  20010  0
20016  20010  20018  0
19735  19742  20019  0
19735  20019  20011  0
20011  20019  20012  0
20012  20019  20020  0
20012  20020  20013  0
19156  19434  20021  0
19156  20021  19739  0
19743  20022  19429  0
20017  19748  19741  0
20017  20016  20023  0
20017  20023  19748  0
19741  19748  19744  0
19742  19746  20024  0
19742  20024  20019  0
19751  19441  19738  0
19434  19752  20025  0
19434  20025  20021  0
19731  20026  19435  0
19437  19747  20027  0
19437  20027  20028  0
19437  20028  19743  0
19748  20023  19754  0
19746  19749  19756  0
19746  19756  19755  0
19746  19755  20024  0
20020  20019  20024  0
19439  19440  20029  0
19439  20029  19750  0
20025  19752  19457  0
20025  19457  20030  0
20025  20030  20031  0
19442  19435  20026  0
19438  20032  19747  0
19443  19444  19753  0
19444  19754  20033  0
19755  19750  20029  0
19755  20029  20024  0
20034  19438  19157  0
19753  19444  20033  0
19456  20030  19457  0
20035  20030  19456  0
19167  19452  19757  0
19452  19453  20036  0
20037  20036  19453  0
20037  19453  18892  0
19455  20037  18892  0
20034  19157  19450  0
19760  19451  19753  0
20038  19760  19753  0
19456  19458  20035  0
20039  20035  19458  0
19758  20037  19455  0
19759  19758  19168  0
20040  19450  19442  0
19450  20040  20034  0
19759  19169  20041  0
19169  19761  20041  0
19459  20039  19458  0
19763  20042  19761  0
19761  20042  20043  0
20044  20045  19460  0
19460  19454  20044  0
20042  19763  20043  0
20046  20043  19763  0
19763  19764  20046  0
20047  20046  19764  0
19767  20048  19459  0
19460  20045  19469  0
19764  18903  20049  0
19475  20049  18903  0
19762  19768  19461  0
19772  19465  19473  0
19772  20050  19465  0
20051  19465  20050  0
19465  20051  19466  0
19466  20051  19765  0
20052  19766  19765  0
19766  20052  19467  0
20053  19467  20052  0
19467  20053  19181  0
19478  19469  20045  0
19461  19768  19462  0
19464  20054  19769  0
19769  20055  19770  0
20056  19770  20055  0
19770  20056  19771  0
20057  19771  20056  0
20058  19771  20057  0
19771  20058  19772  0
19181  20053  20059  0
19181  20059  19476  0
19477  19767  19468  0
19464  20060  20054  0
19769  20054  20061  0
19769  20061  20055  0
20062  19773  19474  0
20063  20064  19480  0
19480  19482  20063  0
20065  20063  19482  0
19482  19774  20065  0
19483  20065  19774  0
19188  19476  20059  0
20066  19474  19775  0
19474  20066  20062  0
20067  19776  19479  0
19479  19487  20067  0
19783  20067  19487  0
19777  19778  20068  0
19778  19480  20064  0
19776  20067  20069  0
19488  19777  20070  0
19488  20070  19785  0
19788  20071  19786  0
19786  20071  20072  0
19786  20072  19787  0
19787  20072  20073  0
19787  20073  19791  0
19775  19792  20074  0
19775  20074  20066  0
19781  19782  19793  0
19782  19776  20069  0
19783  19491  20075  0
20070  19777  20068  0
20076  19788  19794  0
19791  20077  19797  0
19791  19797  19795  0
19791  20073  20078  0
19791  20078  20077  0
19503  19799  20079  0
19503  20079  19504  0
19504  20079  20080  0
19504  20080  20081  0
19504  20081  19494  0
19494  20081  20082  0
19494  20082  19780  0
19780  20082  19792  0
19793  19782  20083  0
20075  19491  19800  0
19784  20084  19511  0
19794  19801  20085  0
19794  20085  20086  0
19794  20086  20076  0
20077  20078  20087  0
20077  20087  19797  0
19797  20088  19796  0
19797  20087  20089  0
19797  20089  20088  0
19796  20088  20090  0
19796  20090  19802  0
19802  20090  19803  0
19803  20091  19804  0
20079  20092  20080  0
20079  19799  20093  0
20081  20080  20094  0
20081  20094  20095  0
20082  20081  20095  0
19793  20083  20096  0
19793  20096  19805  0
19800  20097  20075  0
19801  19806  20098  0
19801  20098  20085  0
20088  20089  20099  0
20088  20099  20100  0
20088  20100  20090  0
20090  20100  20101  0
20090  20101  19803  0
19803  20101  20102  0
19803  20102  20091  0
20091  20102  20103  0
20091  20103  19804  0
19804  20103  20093  0
19804  20093  19799  0
19805  20096  20104  0
19806  19807  20105  0
19806  20105  20098  0
19808  19809  19816  0
19810  19811  20106  0
19805  20104  20107  0
19522  19818  20097  0
19522  20097  19800  0
19807  19814  20108  0
19816  19809  20109  0
19816  20109  19815  0
19809  19810  20109  0
19811  19817  20110  0
19811  20110  20106  0
20110  19817  20111  0
19805  20107  19521  0
19814  19819  20108  0
19819  19813  20112  0
19819  20112  20113  0
19813  19820  20114  0
19813  20114  20112  0
19820  19815  20115  0
19820  20115  20116  0
19820  20116  20117  0
19820  20117  20114  0
19817  19821  20111  0
20107  19533  19521  0
20107  20118  19533  0
20119  19533  20118  0
19818  19526  20120  0
19530  20121  19822  0
19826  19822  20121  0
20112  20114  20117  0
20112  20117  20113  0
19821  19823  20111  0
19533  20119  19226  0
19526  19529  20122  0
19526  20122  20120  0
19226  20119  19824  0
20123  19824  20119  0
19529  19825  20124  0
19529  20124  20122  0
20125  20126  19828  0
19832  19828  20126  0
20125  19828  19827  0
20125  19827  19826  0
20125  19826  20127  0
19532  20128  20129  0
19532  20129  19823  0
19532  19536  20130  0
19532  20130  20128  0
19536  19824  20131  0
19536  20131  20130  0
19824  20123  20131  0
20132  20131  20123  0
19825  19538  20124  0
20128  20130  20133  0
20130  20131  20132  0
20130  20132  20133  0
20134  20133  20132  0
19538  19829  20124  0
20135  20124  19829  0
20136  19830  19832  0
20129  20128  20137  0
20138  20137  20128  0
20129  20137  20139  0
20128  20133  20138  0
20134  20138  20133  0
19829  19833  20135  0
20140  20135  19833  0
19830  20136  19831  0
20141  20142  20137  0
20139  20137  20143  0
20137  20142  20143  0
20137  20138  20141  0
20144  20141  20138  0
20138  20134  20144  0
20145  20144  20134  0
20134  20146  20145  0
19833  19835  20140  0
20147  20140  19835  0
20148  19834  19831  0
20142  20141  20149  0
20150  20149  20141  0
20141  20144  20150  0
20151  20150  20144  0
20144  20145  20151  0
19835  19553  20147  0
20152  20147  19553  0
19551  19834  20153  0
19834  20148  20153  0
20142  20149  20154  0
20155  20154  20149  0
20149  20150  20155  0
20151  20155  20150  0
19553  19552  20152  0
20156  20152  19552  0
19552  19836  20156  0
20153  19836  19551  0
20157  19836  20153  0
20158  20159  20160  0
20161  20159  20158  0
20159  20161  20162  0
20163  20160  20159  0
20159  20162  20163  0
20162  20164  20165  0
19251  19840  19838  0
20166  19838  19840  0
19838  20166  19558  0
20167  19558  20166  0
19558  20167  19560  0
19837  19560  20167  0
20160  20163  20168  0
20163  20162  20169  0
20162  20165  20169  0
20170  20165  20164  0
20171  19565  19841  0
20172  19843  19567  0
19844  19846  19570  0
20173  20174  20163  0
20174  20175  20163  0
20168  20163  20175  0
20163  20169  20173  0
20176  20173  20169  0
20169  20165  20176  0
20177  20176  20165  0
19565  20171  19571  0
19567  19845  20172  0
20178  20172  19845  0
19846  20179  19569  0
20174  20173  20180  0
20181  20180  20173  0
20182  20181  20173  0
20173  20176  20182  0
20183  20182  20176  0
20176  20177  20183  0
20184  20183  20177  0
19842  19847  20185  0
19850  19571  20171  0
19851  20178  19845  0
19577  19573  19569  0
19569  20186  19577  0
20187  19577  20186  0
20188  20187  20186  0
20181  20189  20180  0
20174  20180  20189  0
20183  20184  20190  0
20191  20190  20184  0
20192  19851  19852  0
20193  19577  20187  0
20189  20187  20188  0
20187  20189  20193  0
20194  20193  20189  0
20189  20181  20194  0
20181  20182  20194  0
20195  20194  20182  0
20182  20183  20195  0
20190  20195  20183  0
20190  20191  20196  0
20197  20196  20191  0
20198  19849  19011  0
19852  19586  20199  0
19852  20199  20192  0
19577  20193  19001  0
20200  20193  20194  0
20195  20200  20194  0
20195  20190  20201  0
20202  20201  20190  0
20190  20196  20202  0
19858  20199  19586  0
20199  19858  20203  0
19001  20193  19272  0
19855  19272  20193  0
20193  20200  19855  0
20201  20200  20195  0
20201  20202  20204  0
20205  20204  20202  0
19011  19854  20198  0
19579  19856  19582  0
19579  19853  19856  0
19590  19281  19855  0
19855  20200  19590  0
19594  19590  20200  0
20200  20201  19594  0
19862  19594  20201  0
20201  20204  19862  0
20206  19862  20204  0
20204  20205  20206  0
20207  20206  20205  0
20208  20198  19854  0
19862  20206  19864  0
20206  20207  19864  0
19593  19865  19859  0
19859  20208  19854  0
19859  20209  20208  0
19858  19861  20210  0
19864  20207  20211  0
19864  20211  19867  0
19595  19868  20212  0
19595  20212  19865  0
19865  20213  20209  0
19865  20209  19859  0
19865  20212  20213  0
19861  19871  20210  0
19868  19596  19600  0
19868  19600  20212  0
20212  19600  20214  0
19860  20215  19866  0
19867  20216  19602  0
19600  19601  20217  0
19600  20217  20214  0
19601  20218  20217  0
19601  19869  20218  0
19872  19603  20219  0
19872  20219  19869  0
19597  20220  19870  0
19602  20216  20221  0
19603  19873  20222  0
19603  20222  20219  0
19602  20221  20223  0
19602  20223  19604  0
20224  19875  20225  0
20224  20226  19874  0
20224  19874  19875  0
20226  20227  19874  0
19873  19877  20222  0
19604  20223  19878  0
19874  20227  19876  0
19876  20228  19612  0
19877  19609  20229  0
19879  20230  20231  0
19879  19611  20232  0
19879  20232  20230  0
20231  19880  19324  0
20231  19324  19879  0
19880  19875  19325  0
19609  20233  20229  0
19881  19882  19327  0
19881  20234  19882  0
19882  20234  20232  0
19882  20232  19611  0
19612  20235  19613  0
19614  19322  20236  0
20237  20238  20239  0
20238  20237  20240  0
20238  20240  20241  0
19613  20235  19884  0
19610  19886  19609  0
19607  18771  19045  0
19326  20242  19322  0
20243  20244  20237  0
18771  19607  19887  0
19887  19051  18771  0
19885  19330  19887  0
20242  19326  19331  0
20245  20246  20247  0
20245  20243  20246  0
20243  20245  20244  0
20237  20248  20240  0
20249  20250  20245  0
20249  20245  20247  0
20245  20250  20244  0
20248  20237  20244  0
19883  19884  19889  0
19617  19893  19886  0
20249  20251  20250  0
20250  20252  20244  0
19888  19890  19892  0
20253  19892  19890  0
19890  19889  20254  0
19890  20254  20253  0
20255  20253  20254  0
20251  20256  20250  0
20257  20250  20256  0
20258  19895  19892  0
19892  20253  20258  0
20259  20258  20253  0
20260  19896  20261  0
19896  19624  20261  0
20262  20261  19624  0
19896  20260  19897  0
20263  19625  19897  0
19625  20263  19893  0
20264  19894  19895  0
19895  20258  20264  0
19624  19899  20262  0
20265  20262  19899  0
20266  19626  19900  0
19900  19894  20267  0
20264  20267  19894  0
19901  19626  20266  0
19899  19631  20265  0
20268  20265  19631  0
20269  19902  19632  0
19632  19901  20269  0
19903  20268  19631  0
20270  20268  19903  0
19084  19902  19634  0
19904  19903  19636  0
19903  19904  20270  0
19904  19637  20270  0
19638  20270  19637  0
20270  19638  20271  0
19906  20272  19907  0
19907  19908  19641  0
20273  19908  19907  0
19909  19908  20273  0
20273  20274  19909  0
20275  19909  20274  0
19638  19364  20271  0
19910  20271  19364  0
20272  19906  19905  0
19634  19911  19365  0
19634  20276  19911  0
20277  19643  19911  0
19643  20277  19905  0
20278  19905  20277  0
19910  19912  20279  0
19911  20280  20277  0
20277  20280  20278  0
20281  20278  20280  0
20278  20281  20282  0
20283  20282  20281  0
20278  20282  20284  0
20285  20284  20282  0
20282  20283  20286  0
20287  20286  20283  0
20282  20286  20285  0
19649  20288  20289  0
19649  20289  19914  0
19649  19368  20288  0
19369  19914  20290  0
19914  20289  20290  0
20290  19912  19369  0
20290  20291  19912  0
19912  20291  20279  0
20287  20283  20292  0
19648  19915  19916  0
20281  20293  20283  0
20281  20280  20293  0
20294  20283  20293  0
20283  20294  20292  0
19916  19915  20295  0
19916  20295  20296  0
19916  20296  19650  0
19650  20297  19371  0
19650  20296  20298  0
19650  20298  20297  0
20293  20299  20294  0
20294  20299  20300  0
19371  20297  20301  0
19371  20301  19917  0
19919  19652  20302  0
19652  19374  20303  0
19917  20301  20304  0
19917  20304  19923  0
19652  20303  20302  0
19374  19655  20305  0
19377  20306  19922  0
19377  19920  20306  0
19920  19923  20307  0
19923  20304  20308  0
19923  20308  20307  0
19925  19919  20309  0
19655  19926  20310  0
19926  19659  19929  0
19921  19922  19932  0
19922  20311  19932  0
19927  19932  19931  0
19932  20311  20312  0
19922  20306  20313  0
19922  20313  20311  0
19933  19925  20314  0
19930  19935  20315  0
19930  20315  20316  0
19930  20316  19929  0
19931  19932  20317  0
19931  20317  19936  0
19932  20318  20317  0
19932  20312  20318  0
20312  20311  20313  0
19124  19670  19928  0
19941  19933  20314  0
19935  19668  20319  0
19935  20319  20315  0
19936  20317  19938  0
20317  20318  20320  0
20318  20312  20321  0
19668  19672  19944  0
19668  19944  20319  0
20319  19944  20322  0
20319  20322  20315  0
19938  20323  19946  0
19938  20317  20324  0
19938  20324  20323  0
20320  20325  20317  0
20321  20326  20327  0
20321  20327  20328  0
20326  20321  20329  0
19941  20330  19940  0
19944  19945  20331  0
19944  20331  20322  0
19945  19946  20332  0
19945  20332  20331  0
19946  20323  20332  0
20324  20317  20325  0
20327  20326  20333  0
20326  20329  20334  0
20326  20334  20333  0
20329  20335  20334  0
20332  20323  20336  0
20327  20333  20337  0
20327  20337  20338  0
20333  20334  20339  0
20333  20339  20337  0
20334  20335  20340  0
20334  20340  20339  0
20330  20341  19940  0
19940  20342  19947  0
19940  20341  20342  0
19947  20342  20343  0
19947  20343  19943  0
19943  20343  20344  0
19943  20344  19948  0
19948  20344  19950  0
19948  19950  19949  0
19684  20345  19678  0
19679  19678  20346  0
20347  20342  20348  0
20342  20347  20343  0
20344  20343  20349  0
20344  20349  19950  0
19950  20349  20350  0
19950  20350  19951  0
19684  19685  20345  0
20347  20351  20343  0
20349  20343  20351  0
19953  19951  20350  0
20347  20352  20351  0
20353  20349  20351  0
20354  20349  20353  0
20349  20354  20350  0
20355  19953  20350  0
19953  20355  19954  0
20356  19954  20355  0
19954  20356  19958  0
20357  20356  20355  0
19685  19690  20358  0
19955  19956  20359  0
20360  20359  19956  0
19956  19958  20360  0
20361  19958  20356  0
20356  20357  20361  0
19963  20362  19960  0
19960  20362  19965  0
20363  19965  20362  0
19965  20364  19967  0
19973  19967  20364  0
19965  20363  20364  0
19955  20359  19957  0
20365  20359  20360  0
20360  19958  20365  0
20366  20365  19958  0
19958  20361  20367  0
19958  20367  20366  0
20368  20369  19963  0
19963  20369  20362  0
19957  20359  19691  0
19980  19691  20359  0
20359  20365  19980  0
20370  20365  20366  0
20371  19980  20365  0
20365  20370  20371  0
20372  20371  20370  0
20373  20374  19984  0
20374  20373  20368  0
19985  19983  20375  0
19421  19974  18849  0
19980  20371  19986  0
20376  19986  20371  0
20371  20372  20376  0
19984  19987  20373  0
20377  20373  19987  0
20375  20378  19985  0
20379  19985  20378  0
19985  20379  19988  0
20380  19986  20376  0
19987  19990  20377  0
20378  20375  20381  0
20378  20382  20379  0
20383  20379  20382  0
20379  20383  19988  0
19986  20380  19991  0
20384  19990  19989  0
20002  20381  20385  0
20381  20002  20378  0
20382  20378  20002  0
20382  20386  20383  0
19993  19988  20383  0
20387  19994  19991  0
19991  20380  20387  0
20388  20387  20380  0
19989  19721  20384  0
19998  20385  19999  0
20385  19998  20002  0
20003  20382  20002  0
20382  20003  20386  0
20389  20383  20386  0
20383  20389  19993  0
19996  19993  20389  0
19995  19994  20390  0
19997  20384  19721  0
20014  20386  20003  0
20386  20014  20389  0
20391  20389  20014  0
20389  20391  20004  0
20389  20004  19996  0
20004  20392  20015  0
19995  20390  20393  0
19995  20393  20005  0
20385  20009  19999  0
20014  20013  20391  0
20394  20391  20013  0
19731  20005  20393  0
20007  19429  20022  0
20013  20020  20395  0
20013  20395  20394  0
20015  20396  19751  0
20015  20392  20396  0
19739  20397  19730  0
19739  20021  20397  0
20022  19743  20398  0
20399  20023  20016  0
20399  20016  20018  0
20395  20029  20396  0
20395  20396  20394  0
20396  20029  19440  0
20396  19440  19751  0
20021  20025  20031  0
20021  20031  20400  0
20021  20400  20397  0
20028  20401  20398  0
20028  20398  19743  0
20028  20402  20401  0
20023  20033  19754  0
20023  20399  20403  0
20023  20403  20033  0
20020  20024  20029  0
20020  20029  20395  0
20031  20030  20404  0
19747  20032  20027  0
20027  20402  20028  0
20036  20405  19452  0
20036  20037  20406  0
20036  20406  20405  0
19438  20034  20032  0
19753  20033  20407  0
20030  20035  20404  0
19757  20408  20409  0
19757  19452  20408  0
20033  20410  20407  0
19757  20409  19454  0
20037  19758  20411  0
19758  20412  20411  0
19758  19759  20412  0
19759  20041  20412  0
19442  20413  20414  0
19442  20414  20040  0
20034  20040  20414  0
20038  19753  20407  0
20044  19454  20409  0
20041  20415  20412  0
20039  19459  20048  0
20041  20416  20415  0
20041  19761  20417  0
20041  20417  20416  0
19761  20043  20417  0
20046  20047  20418  0
20046  20418  20043  0
20419  20051  20050  0
20420  20051  20419  0
20051  20421  19765  0
20051  20420  20421  0
20421  20052  19765  0
20053  20052  20421  0
20048  19767  20422  0
20047  19764  20423  0
19772  20058  20050  0
20424  20050  20058  0
20419  20050  20424  0
20425  20422  19767  0
19767  19477  20425  0
19477  20426  20425  0
20426  19478  20045  0
19764  20049  20423  0
20427  20423  20049  0
20049  19475  20427  0
19773  20427  19475  0
19768  20060  19464  0
20428  20056  20055  0
20056  20428  20057  0
20057  20429  20058  0
20057  20428  20429  0
20430  20429  20428  0
20431  20058  20429  0
20058  20431  20424  0
20053  20432  20059  0
20433  20059  20432  0
19478  20426  19477  0
20434  20427  19773  0
20435  20434  19773  0
20436  20060  20437  0
20060  20436  20054  0
20054  20436  20061  0
20055  20061  20428  0
20438  20428  20061  0
20430  20428  20438  0
20439  20063  20065  0
20440  20439  20065  0
20441  20063  20439  0
19483  20440  20065  0
20440  19483  20442  0
19188  20442  19483  0
20442  19188  20059  0
20442  20059  20433  0
19773  20062  20435  0
20443  20436  20437  0
20436  20443  20061  0
20444  20061  20443  0
20061  20444  20445  0
20446  20445  20444  0
20061  20445  20438  0
20447  20438  20445  0
20064  20063  20448  0
20441  20448  20063  0
20449  20064  20448  0
20062  20066  20435  0
20450  20435  20066  0
20446  20444  20443  0
20449  19778  20064  0
20451  20068  19778  0
19778  20452  20451  0
20072  20071  19788  0
20450  20066  20453  0
20066  20074  20453  0
20454  20453  20074  0
20455  19782  20069  0
20455  20083  19782  0
20069  20067  20455  0
20456  20455  20067  0
20067  19783  20456  0
19783  20075  20456  0
20457  20070  20068  0
20068  20451  20457  0
19788  20458  20072  0
19788  20076  20458  0
20459  20458  20076  0
20072  20458  20073  0
20460  20078  20073  0
19784  19785  20084  0
20461  20084  19785  0
19785  20070  20461  0
20462  20461  20070  0
20070  20457  20462  0
20076  20086  20459  0
20078  20460  20087  0
20089  20087  20460  0
20079  20093  20092  0
20094  20080  20092  0
20082  20463  19792  0
20464  19792  20463  0
20082  20095  20463  0
20465  20463  20095  0
19792  20464  20074  0
20466  20084  20461  0
20467  20086  20085  0
20093  20468  20092  0
20094  20092  20465  0
20094  20465  20095  0
20469  19511  20084  0
20085  20098  20467  0
20470  20467  20098  0
20098  20105  20470  0
20100  20099  20471  0
20100  20471  20101  0
20101  20471  20102  0
20102  20471  20472  0
20093  20103  20468  0
20107  20104  20118  0
19511  20469  19812  0
20105  19807  20108  0
20105  20108  20473  0
20105  20473  20470  0
20109  20474  19815  0
20109  19810  20474  0
19810  20106  20474  0
20106  20110  20475  0
20110  20111  20476  0
20110  20476  20475  0
20097  19818  20477  0
20108  19819  20113  0
20108  20113  20478  0
20108  20478  20473  0
20115  19815  20474  0
20115  20474  20479  0
20111  20480  20476  0
19818  20120  20477  0
19530  19812  20121  0
20121  20481  19826  0
20113  20117  20482  0
20113  20482  20478  0
20117  20116  20482  0
20116  20115  20479  0
20111  19823  20483  0
20111  20483  20480  0
20127  19826  20481  0
20127  20481  20484  0
20127  20484  20125  0
20119  20485  20123  0
20122  20124  20486  0
20122  20486  20120  0
20126  20487  20488  0
20126  20488  19832  0
20126  20125  20487  0
19823  20129  20489  0
19823  20489  20483  0
20124  20490  20491  0
20124  20491  20486  0
19832  20488  20492  0
20489  20129  20139  0
20489  20139  20493  0
20489  20493  20494  0
20132  20123  20495  0
20132  20495  20496  0
20132  20496  20134  0
20490  20124  20135  0
20490  20135  20497  0
20492  20136  19832  0
20493  20139  20143  0
20493  20143  20498  0
20493  20498  20494  0
20134  20496  20146  0
20497  20135  20140  0
20497  20140  20499  0
20497  20499  20500  0
20497  20500  20490  0
20136  20501  19831  0
20136  20492  20502  0
20136  20502  20501  0
20143  20503  20498  0
20143  20142  20503  0
20146  20504  20505  0
20146  20505  20145  0
20140  20147  20506  0
20140  20506  20499  0
20501  20148  19831  0
20507  20142  20154  0
20507  20508  20503  0
20507  20503  20142  0
20507  20509  20508  0
20510  20151  20145  0
20510  20145  20505  0
20510  20511  20151  0
20147  20152  20512  0
20147  20512  20506  0
20148  20157  20153  0
20148  20501  20513  0
20148  20513  20157  0
20507  20154  20514  0
20507  20514  20515  0
20507  20515  20509  0
20154  20155  20516  0
20155  20151  20511  0
20152  20156  20517  0
20152  20517  20512  0
20156  19836  20157  0
20156  20157  20513  0
20156  20513  20517  0
20154  20516  20514  0
20518  20158  20160  0
20518  20519  20158  0
20160  20520  20518  0
20158  20519  20161  0
20161  20521  20164  0
20161  20164  20162  0
20161  20519  20521  0
20160  20168  20520  0
20164  20521  20522  0
20164  20522  20170  0
20166  20523  20524  0
20166  20524  20167  0
20166  19840  20525  0
20166  20525  20523  0
19837  20167  20526  0
20527  20528  19846  0
20527  19846  19844  0
20527  19844  20529  0
20528  20530  20179  0
20528  20179  19846  0
20528  20527  20531  0
20528  20531  20530  0
20530  20168  20532  0
20530  20532  20179  0
20530  20531  20533  0
20530  20533  20168  0
20168  20175  20532  0
20168  20533  20520  0
20165  20170  20177  0
20170  20522  20534  0
19840  19842  20525  0
19837  20526  19839  0
19841  20535  20171  0
19843  20529  19844  0
20179  20532  20186  0
20532  20175  20174  0
20177  20170  20184  0
20536  20170  20534  0
19842  20185  20525  0
20537  20171  20535  0
20172  20178  20538  0
20179  20186  19569  0
20186  20532  20188  0
20532  20189  20188  0
20532  20174  20189  0
20184  20170  20536  0
20184  20536  20539  0
20184  20539  20191  0
20540  20191  20539  0
20541  20185  19847  0
20171  20537  19850  0
20542  19850  20537  0
20178  19851  20538  0
20192  20538  19851  0
20543  20538  20192  0
20191  20540  20197  0
19847  19848  20541  0
20544  20541  19848  0
19848  19849  20544  0
20545  20544  19849  0
20546  19850  20542  0
20192  20199  20543  0
19849  20198  20545  0
19850  20546  19853  0
20199  20203  20543  0
20543  20203  20547  0
20540  20548  20197  0
20197  20548  20196  0
19856  19853  20546  0
20549  19856  20546  0
20202  20196  20548  0
20550  20202  20548  0
20551  20552  20198  0
19858  20210  20203  0
20203  20210  20553  0
20202  20550  20205  0
20198  20208  20551  0
19856  20549  19857  0
20207  20205  20550  0
20211  20207  20550  0
20554  20208  20209  0
20554  20209  20213  0
20555  20213  20212  0
19857  20215  19860  0
20556  19867  20211  0
20212  20214  20555  0
20557  19866  20215  0
19867  20556  20216  0
20218  20214  20217  0
20558  20218  19869  0
19866  20557  19597  0
20559  20560  20561  0
20560  20559  20562  0
20563  20558  19869  0
20219  20563  19869  0
20220  19597  20557  0
20564  20565  20560  0
20560  20565  20566  0
20560  20562  20564  0
20219  20222  20567  0
20568  20224  20569  0
20224  20225  20569  0
20224  20568  20226  0
20227  20226  20568  0
20222  19877  20570  0
20229  20570  19877  0
20565  20564  20571  0
20572  20571  20564  0
20565  20571  20573  0
20564  20562  20572  0
20574  20572  20562  0
20562  20575  20574  0
20576  20574  20575  0
20577  20576  20575  0
20231  20230  20578  0
20579  20578  20230  0
20578  19880  20231  0
20578  20580  19880  0
20225  19880  20580  0
19875  19880  20225  0
20227  20228  19876  0
20581  20573  20571  0
20582  20234  19881  0
20582  20583  20579  0
20582  20579  20234  0
20232  20234  20230  0
20234  20579  20230  0
19612  20228  20584  0
20571  20572  20581  0
20585  20581  20572  0
20572  20574  20585  0
20586  20585  20574  0
20574  20576  20586  0
20587  20586  20576  0
19614  20236  20588  0
19881  19614  20582  0
20589  20590  20239  0
20589  20239  20238  0
20589  20238  20591  0
20591  20238  20241  0
20591  20241  20592  0
20584  20592  20241  0
20241  20235  20584  0
20584  20235  19612  0
19878  20223  19607  0
20585  20593  20581  0
19885  20586  20587  0
20236  19322  20242  0
20594  20246  20243  0
20594  20239  20595  0
20594  20243  20237  0
20594  20237  20239  0
20241  20240  20596  0
20241  20596  20235  0
20235  20596  19884  0
19609  20597  20233  0
19607  20223  20598  0
19607  20598  20593  0
20593  20585  19887  0
20593  19887  19607  0
20585  20586  19887  0
20586  19885  19887  0
19885  20587  20599  0
19885  20599  19331  0
19331  20599  20242  0
20246  20594  20600  0
20597  19609  19886  0
20597  19886  20601  0
20247  20602  20603  0
20247  20603  20604  0
20247  20246  20602  0
20240  19884  20596  0
20604  20605  20249  0
20604  20249  20247  0
20240  20606  19884  0
19884  20606  20607  0
19884  20607  19889  0
20608  20609  20610  0
20608  20610  20611  0
20608  20612  20613  0
20608  20613  20609  0
20608  20611  20612  0
20609  20614  20610  0
20609  20613  20615  0
20609  20601  20614  0
20609  20615  20616  0
20609  20616  20601  0
20601  20617  20614  0
20601  19886  20617  0
20601  20616  20597  0
20618  20249  20605  0
20250  20257  20252  0
20244  20252  20248  0
19889  20607  20255  0
19889  20255  20254  0
20611  20610  20260  0
20611  20260  20261  0
20611  20261  20619  0
20610  20614  19897  0
20610  19897  20260  0
20614  20263  19897  0
20614  20617  20263  0
20617  19886  19893  0
20617  19893  20263  0
20618  20251  20249  0
20255  20259  20253  0
20261  20262  20619  0
20618  20620  20251  0
20251  20621  20256  0
20256  20621  20622  0
20256  20622  20257  0
20258  20259  20623  0
20258  20623  20624  0
20258  20624  20264  0
20625  20626  20618  0
20620  20618  20626  0
20620  20621  20251  0
19900  20267  20266  0
20267  20264  20627  0
19901  20266  20628  0
20266  20267  20628  0
20268  20629  20265  0
20268  20630  20629  0
20269  19901  20628  0
20268  20270  20630  0
19902  20631  19634  0
19902  20269  20631  0
20632  20631  20269  0
20633  20630  20270  0
20631  20276  19634  0
20270  20271  20633  0
20634  19907  20272  0
19907  20634  20273  0
19905  20278  20272  0
20635  20272  20278  0
20636  20272  20635  0
20278  20284  20635  0
20285  20635  20284  0
20635  20285  20637  0
20279  20638  19910  0
20288  19368  20639  0
20280  19911  20640  0
20641  20280  20640  0
20642  20280  20641  0
20280  20642  20293  0
20643  20292  20294  0
20292  20643  20644  0
20645  20644  20643  0
20644  20645  20646  0
20647  20646  20645  0
20646  20647  20648  0
20647  20649  20648  0
20650  20648  20649  0
20651  20650  20649  0
20298  20652  20297  0
20299  20653  20300  0
20654  20647  20645  0
20655  20647  20654  0
20647  20655  20649  0
20649  20655  20651  0
20297  20652  20301  0
20656  20309  19919  0
19919  20302  20656  0
20303  19374  20305  0
20300  20653  20294  0
20657  20294  20653  0
20294  20657  20643  0
20658  20643  20657  0
20643  20658  20645  0
20645  20658  20654  0
20654  20659  20655  0
20304  20301  20308  0
20660  20308  20301  0
19925  20309  20661  0
20662  20302  20303  0
20303  20305  20662  0
20305  19655  20663  0
19655  20310  20663  0
20654  20658  20659  0
20659  20664  20655  0
19925  20661  20665  0
19926  19929  20316  0
19926  20316  20666  0
19926  20666  20310  0
19925  20665  20314  0
20316  20315  20667  0
20316  20667  20668  0
20316  20668  20666  0
20312  20313  20669  0
20312  20669  20321  0
20315  20322  20667  0
20667  20322  20670  0
20670  20671  20667  0
20318  20321  20320  0
20669  20329  20321  0
20322  20331  20670  0
20670  20331  20672  0
20670  20672  20671  0
20320  20321  20328  0
20320  20328  20325  0
19941  20314  20330  0
20331  20332  20673  0
20331  20673  20672  0
20323  20324  20674  0
20323  20674  20336  0
20324  20325  20675  0
20324  20675  20674  0
20325  20328  20675  0
20328  20327  20338  0
20328  20338  20675  0
19394  19396  20676  0
19394  20676  20677  0
20330  20314  20678  0
20330  20678  20341  0
20332  20336  20673  0
20674  20675  20679  0
20675  20680  20679  0
20675  20338  20680  0
20338  20337  20681  0
20337  20339  20682  0
20337  20682  20681  0
20339  20340  20683  0
20339  20683  20682  0
20335  20684  20685  0
20335  20685  20340  0
19679  20346  20676  0
19679  20676  19396  0
20341  20348  20342  0
20345  19685  20686  0
20348  20352  20347  0
19685  20358  20686  0
20352  20687  20351  0
20351  20687  20688  0
20351  20688  20353  0
20353  20688  20354  0
20354  20689  20350  0
20350  20689  20690  0
20350  20690  20355  0
20687  20691  20692  0
20687  20692  20688  0
20687  20352  20691  0
20688  20692  20693  0
20688  20693  20354  0
20354  20693  20689  0
20689  20694  20690  0
20690  20694  20357  0
20690  20357  20355  0
20692  20691  20693  0
20693  20691  20695  0
20689  20693  20696  0
20689  20696  20694  0
20694  20696  20357  0
20357  20697  20698  0
20357  20698  20361  0
20357  20696  20699  0
20357  20699  20697  0
20697  20699  20698  0
20698  20699  20700  0
20698  20700  20361  0
19690  19974  20358  0
20366  20367  20701  0
20366  20701  20370  0
20361  20700  20702  0
20361  20702  20367  0
20370  20701  20703  0
20701  20367  20702  0
20701  20702  20704  0
20701  20704  20703  0
20705  20372  20370  0
20370  20703  20705  0
20706  20703  20704  0
20368  20373  20707  0
20372  20705  20376  0
20708  20376  20705  0
20706  20705  20703  0
20709  20708  20705  0
20373  20377  20707  0
20376  20708  20380  0
20710  20708  20709  0
20380  20708  20711  0
20710  20711  20708  0
20380  20711  20388  0
19990  20384  20377  0
20387  20388  20712  0
20711  20712  20388  0
20713  19421  19725  0
19994  20387  20714  0
20712  20714  20387  0
19994  20714  20390  0
20715  20390  20714  0
19997  20006  20384  0
20716  20384  20006  0
20392  20004  20391  0
19725  19730  20713  0
20390  20715  20393  0
20022  20717  20007  0
20007  20717  20006  0
20009  20385  20718  0
20719  20718  20385  0
20720  19731  20393  0
20010  20009  20721  0
20718  20721  20009  0
20010  20721  20018  0
20391  20394  20392  0
20396  20392  20394  0
20399  20018  20722  0
20721  20722  20018  0
19731  20720  20026  0
20723  20026  20720  0
20401  20402  20398  0
20724  20398  20402  0
20399  20722  20403  0
20725  20403  20722  0
20031  20404  20400  0
20726  20402  20027  0
20402  20727  20724  0
20728  20724  20727  0
20402  20726  20727  0
20729  20727  20726  0
20033  20403  20410  0
20026  20723  19442  0
20726  20027  20032  0
20037  20411  20406  0
20406  20411  20730  0
20034  20731  20032  0
20732  20731  20034  0
20035  20039  20733  0
20411  20412  20730  0
20034  20414  20732  0
19760  20038  20734  0
20039  20048  20733  0
20044  20409  20735  0
20415  20416  20736  0
19762  19760  19768  0
19760  20734  19768  0
20048  20422  20733  0
20045  20044  20735  0
20043  20418  20417  0
20419  20737  20420  0
20420  20737  20738  0
20420  20738  20739  0
20420  20739  20421  0
20421  20739  20432  0
20421  20432  20053  0
20422  20425  20740  0
20426  20045  20735  0
20426  20735  20425  0
20418  20047  20423  0
20734  20060  19768  0
20734  20741  20060  0
20424  20431  20737  0
20424  20737  20419  0
20418  20423  20742  0
20423  20427  20743  0
20423  20743  20742  0
20060  20741  20437  0
20429  20430  20431  0
20427  20434  20435  0
20427  20435  20743  0
20438  20447  20430  0
20430  20744  20745  0
20430  20745  20431  0
20430  20447  20744  0
20439  20440  20746  0
20439  20746  20747  0
20439  20747  20441  0
20440  20442  20746  0
20442  20433  20746  0
20445  20446  20748  0
20445  20748  20447  0
20448  20441  20749  0
20448  20749  20449  0
20443  20750  20751  0
20443  20437  20750  0
20443  20751  20446  0
20748  20446  20752  0
20748  20752  20447  0
20447  20753  20744  0
19778  20449  20452  0
20752  20753  20447  0
20452  20449  20754  0
20453  20454  20450  0
20751  20750  20755  0
20751  20755  20756  0
20751  20756  20446  0
20446  20756  20752  0
20451  20452  20754  0
20451  20754  20757  0
20458  20460  20073  0
20454  20758  20450  0
20457  20451  20759  0
20451  20757  20759  0
20459  20760  20458  0
20761  20459  20086  0
20458  20760  20762  0
20458  20762  20460  0
20460  20763  20089  0
20460  20762  20764  0
20460  20764  20763  0
20463  20465  20765  0
20766  20765  20465  0
20074  20464  20454  0
20083  20455  20096  0
20097  20456  20075  0
20461  20462  20466  0
20767  20466  20462  0
20462  20457  20767  0
20457  20759  20768  0
20457  20768  20767  0
20086  20467  20761  0
20769  20761  20467  0
20089  20763  20770  0
20103  20102  20472  0
20468  20771  20092  0
20465  20092  20771  0
20456  20097  20772  0
20084  20466  20469  0
20467  20470  20769  0
20773  20769  20470  0
20089  20770  20099  0
20774  20099  20770  0
20099  20774  20471  0
20775  20471  20774  0
20472  20471  20775  0
20776  20468  20103  0
20771  20468  20776  0
20469  20466  20777  0
20469  20777  19812  0
20121  19812  20777  0
20778  20470  20473  0
20474  20106  20779  0
20780  20779  20106  0
20474  20779  20781  0
20106  20475  20780  0
20097  20477  20772  0
20782  20479  20474  0
20783  20782  20474  0
20474  20781  20783  0
20118  20784  20119  0
20121  20785  20481  0
20484  20481  20785  0
20473  20478  20786  0
20787  20786  20478  0
20482  20787  20478  0
20482  20116  20788  0
20789  20788  20116  0
20116  20479  20789  0
20790  20789  20479  0
20479  20782  20790  0
20791  20480  20483  0
20119  20784  20485  0
20792  20485  20784  0
20477  20120  20793  0
20486  20793  20120  0
20794  20795  20487  0
20487  20125  20484  0
20487  20484  20794  0
20792  20796  20485  0
20797  20488  20487  0
20483  20489  20791  0
20798  20791  20489  0
20485  20495  20123  0
20485  20796  20495  0
20496  20495  20796  0
20798  20489  20494  0
20799  20491  20490  0
20488  20800  20492  0
20146  20496  20504  0
20504  20496  20801  0
20802  20504  20801  0
20490  20500  20799  0
20803  20799  20500  0
20502  20492  20800  0
20804  20503  20508  0
20805  20503  20804  0
20806  20804  20508  0
20503  20805  20498  0
20494  20498  20805  0
20504  20802  20505  0
20807  20505  20802  0
20500  20499  20803  0
20808  20803  20499  0
20800  20809  20502  0
20810  20501  20502  0
20509  20811  20508  0
20806  20508  20812  0
20508  20811  20812  0
20813  20812  20811  0
20510  20505  20814  0
20807  20814  20505  0
20510  20814  20511  0
20815  20511  20814  0
20499  20506  20808  0
20816  20808  20506  0
20506  20512  20816  0
20817  20816  20512  0
20501  20810  20513  0
20818  20513  20810  0
20811  20509  20813  0
20819  20813  20509  0
20155  20511  20820  0
20815  20820  20511  0
20155  20820  20516  0
20821  20516  20820  0
20512  20517  20817  0
20822  20817  20517  0
20517  20513  20822  0
20823  20513  20818  0
20509  20515  20819  0
20824  20819  20515  0
20515  20514  20824  0
20821  20824  20514  0
20514  20516  20821  0
20823  20822  20513  0
20825  20518  20826  0
20518  20825  20519  0
20518  20520  20826  0
20827  20519  20825  0
20519  20827  20521  0
20520  20828  20826  0
20521  20829  20522  0
20534  20522  20829  0
20523  20830  20524  0
20523  20525  20831  0
20523  20831  20830  0
20526  20167  20524  0
20527  20529  20832  0
20527  20832  20531  0
20531  20832  20833  0
20531  20833  20533  0
20533  20833  20520  0
20520  20833  20828  0
20525  20834  20831  0
19841  20835  20535  0
19843  20172  20529  0
20529  20172  20836  0
20529  20836  20832  0
20832  20837  20833  0
20832  20838  20837  0
20833  20837  20828  0
20525  20185  20834  0
20535  20835  20839  0
20535  20839  20537  0
20172  20538  20840  0
20172  20840  20836  0
20836  20840  20838  0
20836  20838  20832  0
20539  20536  20841  0
20539  20841  20842  0
20539  20842  20540  0
20185  20541  20834  0
20537  20839  20542  0
20538  20543  20840  0
20840  20843  20838  0
20541  20544  20844  0
20543  20547  20840  0
20840  20547  20843  0
20838  20843  20845  0
20546  20542  20846  0
20843  20547  20847  0
20843  20847  20845  0
20198  20552  20545  0
20546  20846  20549  0
20203  20553  20547  0
20547  20553  20847  0
20548  20848  20550  0
20849  20850  20851  0
20849  20851  20852  0
20849  20852  20853  0
20552  20551  20854  0
20852  20851  20855  0
20852  20855  20856  0
20850  20857  20851  0
20549  20858  19857  0
20553  20210  20859  0
20553  20859  20860  0
20550  20848  20861  0
20550  20861  20211  0
20855  20862  20863  0
20855  20851  20864  0
20855  20864  20862  0
20851  20865  20864  0
20851  20857  20866  0
20851  20866  20865  0
19857  20858  20215  0
20210  19871  20859  0
20863  20862  20867  0
20863  20867  20868  0
20865  20866  20869  0
20865  20869  20864  0
20213  20555  20554  0
20208  20554  20551  0
20211  20870  20556  0
20867  20862  20871  0
20867  20872  20868  0
20862  20864  20873  0
20862  20873  20871  0
20864  20869  20874  0
20864  20874  20873  0
20555  20875  20554  0
20555  20214  20875  0
20859  19871  19870  0
20876  20867  20559  0
20876  20559  20561  0
20876  20561  20872  0
20876  20872  20867  0
20867  20871  20559  0
20871  20873  20877  0
20873  20874  20878  0
20873  20878  20877  0
20214  20218  20879  0
20214  20879  20875  0
20218  20558  20880  0
20218  20880  20879  0
20216  20556  20881  0
20216  20881  20221  0
20561  20560  20566  0
20559  20871  20882  0
20559  20882  20562  0
20871  20877  20882  0
20877  20878  20883  0
20558  20563  20884  0
20219  20567  20885  0
20219  20885  20563  0
20562  20882  20575  0
20882  20877  20886  0
20877  20883  20887  0
20877  20887  20886  0
20888  20889  20569  0
20888  20569  20890  0
20891  20888  20890  0
20889  20568  20569  0
20892  20223  20221  0
20565  20573  20566  0
20893  20566  20573  0
20894  20575  20882  0
20882  20886  20894  0
20886  20887  20894  0
20599  20894  20887  0
20895  20580  20578  0
20890  20580  20895  0
20896  20895  20578  0
20225  20580  20890  0
20890  20569  20225  0
20568  20897  20227  0
20898  20227  20897  0
20899  20570  20229  0
20575  20894  20577  0
20900  20583  20582  0
20900  20901  20583  0
20902  20583  20901  0
20583  20902  20579  0
20579  20902  20578  0
20896  20578  20902  0
20227  20903  20228  0
20227  20898  20903  0
20577  20894  20587  0
20599  20587  20894  0
20904  20236  20905  0
20236  20904  20900  0
20588  20236  20900  0
20900  20582  20588  0
19614  20588  20582  0
20591  20906  20589  0
20906  20591  20592  0
20584  20903  20592  0
20903  20584  20228  0
20223  20573  20598  0
20593  20598  20573  0
20573  20581  20593  0
20576  20577  20587  0
20599  20905  20242  0
20242  20905  20236  0
20239  20590  20595  0
20590  20589  20906  0
20594  20595  20600  0
20600  20595  20907  0
20908  20600  20907  0
20603  20602  20909  0
20908  20909  20602  0
20246  20600  20602  0
20602  20600  20908  0
20604  20603  20909  0
20240  20910  20606  0
20911  20606  20910  0
20606  20911  20607  0
20612  20912  20613  0
20913  20613  20912  0
20613  20913  20615  0
20914  20615  20913  0
20615  20914  20616  0
20915  20616  20914  0
20616  20915  20597  0
20625  20605  20916  0
20618  20605  20625  0
20252  20917  20248  0
20918  20248  20917  0
20252  20919  20917  0
20248  20918  20240  0
20910  20240  20918  0
20607  20920  20255  0
20612  20611  20921  0
20619  20921  20611  0
20612  20921  20922  0
20923  20922  20921  0
20626  20625  20916  0
20257  20924  20919  0
20257  20919  20252  0
20623  20259  20255  0
20255  20920  20925  0
20255  20925  20623  0
20921  20619  20926  0
20262  20926  20619  0
20921  20926  20923  0
20626  20927  20928  0
20622  20924  20257  0
20624  20929  20264  0
20926  20262  20930  0
20926  20930  20931  0
20926  20931  20923  0
20626  20928  20620  0
20621  20932  20622  0
20627  20264  20929  0
20930  20262  20265  0
20930  20265  20629  0
20930  20629  20931  0
20620  20928  20932  0
20620  20932  20621  0
20628  20267  20627  0
20628  20627  20632  0
20629  20630  20933  0
20629  20933  20931  0
20269  20628  20632  0
20630  20934  20933  0
20630  20633  20934  0
20935  20274  20273  0
20935  20273  20936  0
20271  19910  20633  0
20272  20636  20634  0
20634  20936  20273  0
20635  20637  20636  0
19911  20276  20937  0
20637  20285  20938  0
20637  20938  20939  0
20637  20939  20636  0
20938  20940  20941  0
20938  20941  20939  0
20289  20942  20291  0
20289  20291  20290  0
20289  20288  20943  0
20289  20943  20942  0
20944  20279  20291  0
20944  20945  20279  0
20291  20942  20944  0
20296  20946  20298  0
20947  19368  19918  0
20947  20639  19368  0
20648  20650  20948  0
20298  20946  20650  0
20298  20650  20652  0
20642  20299  20293  0
20650  20651  20652  0
20299  20642  20949  0
20299  20949  20653  0
20652  20651  20301  0
20309  20656  20950  0
20653  20951  20657  0
20655  20664  20651  0
20651  20660  20301  0
18817  20952  19918  0
20309  20953  20661  0
20309  20950  20953  0
20950  20656  20954  0
20656  20302  20954  0
20302  20955  20954  0
20302  20662  20955  0
20956  20662  20305  0
20305  20663  20956  0
20663  20957  20956  0
20657  20951  20958  0
20657  20958  20658  0
20658  20958  20659  0
20959  20659  20958  0
20659  20959  20664  0
20960  20664  20959  0
20664  20960  20651  0
20660  20651  20960  0
19928  20952  18817  0
20961  20955  20662  0
20662  20956  20961  0
20962  20963  20310  0
20310  20666  20962  0
20958  20964  20959  0
20965  20314  20665  0
20966  20666  20668  0
20668  20667  20966  0
20671  20966  20667  0
20967  19928  19670  0
20672  20673  20968  0
20677  20967  19670  0
19670  19131  20677  0
19131  19394  20677  0
20673  20336  20969  0
20679  20969  20336  0
20970  20682  20971  0
20677  20676  20972  0
20336  20674  20679  0
20680  20338  20973  0
20974  20973  20338  0
20338  20681  20974  0
20975  20974  20681  0
20681  20682  20975  0
20970  20975  20682  0
20346  19678  20686  0
19678  20345  20686  0
20352  20976  20691  0
20977  20691  20976  0
20978  20693  20695  0
20693  20978  20696  0
20691  20979  20695  0
20980  20695  20979  0
20695  20980  20978  0
20981  20696  20978  0
20696  20981  20699  0
20982  20699  20981  0
20700  20699  20982  0
20358  19974  20983  0
20978  20984  20981  0
20981  20984  20982  0
20985  20982  20984  0
20986  20702  20700  0
20987  20704  20702  0
20702  20986  20987  0
20988  20987  20986  0
20704  20987  20706  0
20988  20706  20987  0
19974  19421  20989  0
20705  20706  20709  0
20706  20988  20709  0
20990  20710  20709  0
20712  20711  20991  0
20712  20991  20992  0
20993  20994  20716  0
20714  20712  20992  0
20995  20717  20022  0
20995  20006  20717  0
20995  20996  20006  0
20713  19730  20997  0
20719  20998  20718  0
20393  20715  20999  0
20393  20999  20720  0
19730  20397  20997  0
20400  21000  20397  0
20722  20721  21001  0
20722  21001  20725  0
20403  20725  21002  0
20403  21002  20410  0
20404  21003  20400  0
19452  20405  21004  0
19452  21004  20408  0
20405  20406  21005  0
20406  20730  21006  0
20723  20413  19442  0
20032  20731  21007  0
20032  21007  20726  0
20404  20035  21003  0
20035  20733  21003  0
20409  20408  21008  0
20730  21009  21006  0
20731  20732  21007  0
20407  20410  21002  0
20407  21002  20038  0
20733  21010  21003  0
20409  21008  21011  0
21011  20735  20409  0
20412  20415  21012  0
20412  21012  21013  0
20413  21014  21015  0
20414  21015  20732  0
20415  20736  21016  0
20415  21016  21012  0
20413  21015  20414  0
20733  20422  20740  0
20736  20416  21016  0
21017  21016  20416  0
20416  20417  21017  0
21018  21017  20417  0
21019  21018  20417  0
21020  20737  20431  0
20737  21020  20738  0
21021  20738  21020  0
20738  21021  20739  0
21022  20739  21021  0
20739  21022  20432  0
21023  20417  20418  0
21024  21019  20417  0
20418  20742  21023  0
20743  21023  20742  0
20741  21025  20437  0
21020  20431  20745  0
21020  20747  21021  0
20746  21021  20747  0
21021  20746  21022  0
20433  21022  20746  0
21022  20433  20432  0
