#!ascii file
19026  19952  19036  0
19033  19642  19953  0
19033  19953  19311  0
19948  19954  19635  0
19635  19954  19636  0
19636  19955  19637  0
19637  19955  19639  0
19633  19644  19956  0
19642  19645  19957  0
19636  19954  19958  0
19636  19958  19955  0
19645  19959  19957  0
19641  19320  19652  0
19952  19648  19036  0
19645  19960  19959  0
19645  19321  19960  0
19316  18746  19649  0
19647  19651  19318  0
19647  19646  19961  0
19321  19653  19962  0
19321  19962  19960  0
19651  19647  19963  0
19652  19037  19658  0
19652  19658  19964  0
19653  19654  19965  0
19653  19965  19962  0
19651  19963  19657  0
19041  19648  19966  0
19654  19659  19967  0
19654  19968  19965  0
19654  19967  19968  0
19657  19969  19662  0
19041  19966  19328  0
19659  19970  19967  0
19660  19655  19971  0
19325  19972  19661  0
19326  19327  19658  0
19659  19663  19970  0
19970  19663  19973  0
19660  19971  19664  0
19974  19664  19971  0
19325  19339  19972  0
19675  19663  19668  0
19663  19675  19973  0
19974  19665  19664  0
19339  19678  19972  0
19975  19972  19678  0
19976  19063  19062  0
19977  19063  19976  0
19063  19977  19670  0
19978  19670  19977  0
19670  19978  19671  0
19979  19671  19978  0
19671  19979  19666  0
19980  19666  19979  0
19666  19980  19667  0
19981  19667  19980  0
19667  19981  19672  0
19674  19673  19672  0
19680  19675  19348  0
19675  19680  19982  0
19983  19982  19680  0
19677  19984  19682  0
19985  19986  19984  0
19984  19986  19682  0
19983  19682  19986  0
19984  19677  19985  0
19669  19985  19677  0
19987  19062  19662  0
19062  19987  19976  0
19977  19988  19978  0
19980  19979  19978  0
19980  19989  19981  0
19990  19981  19989  0
19981  19990  19672  0
19991  19672  19990  0
19672  19991  19674  0
19992  19674  19991  0
19674  19992  19679  0
19993  19679  19992  0
19680  19681  19983  0
19681  19682  19983  0
19994  19975  19678  0
19995  19662  19996  0
19662  19995  19987  0
19679  19993  19684  0
19685  19994  19678  0
19997  19994  19685  0
19998  19999  19075  0
19686  19683  19353  0
20000  19687  19684  0
19685  19688  19997  0
20001  19997  19688  0
19075  19999  19689  0
20002  19683  19686  0
19686  19690  20002  0
19690  19691  20002  0
20003  19691  19687  0
19687  20000  20003  0
19688  19692  20001  0
20004  20001  19692  0
20005  19360  19689  0
20002  19691  20006  0
20003  20006  19691  0
19692  19693  20004  0
20007  20004  19693  0
19360  20005  19694  0
20008  19694  20005  0
19693  19695  20007  0
19369  19694  19697  0
20008  19697  19694  0
19699  19695  19696  0
19695  19699  20009  0
20010  20009  19699  0
19372  19697  19698  0
20011  19698  19697  0
19697  20012  20011  0
19699  19698  20013  0
20014  20013  19698  0
19699  20013  20010  0
20015  20010  20013  0
19698  20011  20014  0
20016  20014  20011  0
20013  20014  20015  0
20017  20015  20014  0
20014  20016  20017  0
20018  19375  20019  0
19375  19700  20019  0
20020  20019  19700  0
19375  20018  19092  0
19376  19092  20018  0
20021  19382  19705  0
19382  20021  19701  0
19701  20021  19702  0
20022  19702  20021  0
19702  20022  19373  0
20023  19373  20022  0
19373  20023  19377  0
19703  19377  20023  0
19700  19379  20020  0
20018  19707  19376  0
19705  19704  20024  0
19703  20023  20022  0
19703  19706  19383  0
19379  19384  20020  0
20025  20020  19384  0
20026  19707  20018  0
19704  19381  19712  0
20027  19704  19712  0
19718  19713  19706  0
19116  19706  19713  0
19707  20026  19708  0
19710  20028  19711  0
20029  19711  20028  0
19711  20029  19712  0
20027  19712  20029  0
19384  19714  20025  0
19708  20026  19715  0
20030  19715  20026  0
19719  19718  20031  0
19718  20032  20031  0
20033  20031  20032  0
19715  20034  19389  0
19393  19389  20034  0
19715  20030  20035  0
19715  20035  20034  0
19396  20036  19717  0
19714  19398  20037  0
20034  20038  19393  0
20034  20035  20039  0
20034  20039  20038  0
20036  19396  19721  0
20031  20040  19719  0
20031  20033  20041  0
20031  20041  20040  0
19398  19720  20037  0
20038  19405  19393  0
19393  19405  19399  0
19721  20042  20036  0
20040  19722  19719  0
20039  20043  20038  0
20039  20044  20043  0
20038  19408  19405  0
19723  20045  20046  0
19723  20046  19720  0
20043  20046  19734  0
20043  19734  19728  0
20043  19728  20038  0
20038  19728  19408  0
19721  20047  20042  0
20040  20048  20049  0
20040  20049  19738  0
19723  19727  20045  0
20045  19735  20046  0
20046  19735  19734  0
19729  19730  20050  0
19731  19737  20047  0
19731  20047  19721  0
20040  19738  19722  0
19727  19740  20045  0
20045  19740  19742  0
20045  19742  19735  0
19730  20051  20050  0
19136  20052  19736  0
19732  20053  19737  0
19738  20049  20054  0
19730  19427  20051  0
19736  20055  19148  0
19148  20055  19749  0
19746  20053  19732  0
20054  19422  19738  0
19749  19752  18527  0
19752  19749  20056  0
19752  20056  19428  0
19750  20053  19746  0
19753  20057  19754  0
19754  19755  19159  0
19434  20053  19750  0
20058  20059  20060  0
20058  20060  20061  0
20058  20061  19761  0
20058  19761  20054  0
20054  19761  19422  0
19156  19764  20062  0
19754  20063  19755  0
19755  20063  20064  0
19755  20064  19759  0
20065  19757  19766  0
20065  19766  19767  0
20065  20066  20067  0
20065  20067  19757  0
19757  20067  20068  0
19757  20068  19756  0
19756  20068  20069  0
19756  20069  20070  0
19756  20070  19434  0
20071  20061  20060  0
18855  19453  19764  0
19759  20064  19765  0
19767  20072  20065  0
20073  19453  19459  0
19168  19774  20074  0
19168  20074  19773  0
20075  19774  19765  0
20076  20072  19767  0
19767  19768  20077  0
19767  20077  20076  0
19768  19769  20077  0
19778  20077  19769  0
20078  20061  20071  0
20061  20078  19761  0
19761  20078  19762  0
19784  19762  20078  0
19448  19775  19763  0
20079  19460  19166  0
19166  19461  20079  0
19773  20079  19461  0
19773  20074  20080  0
20075  20074  19774  0
19466  19782  19471  0
19782  19460  20081  0
20082  20081  19460  0
20077  19778  20083  0
19779  20083  19778  0
20084  19777  19170  0
20085  20086  19779  0
19779  19463  20085  0
19463  19783  20085  0
20087  19784  20078  0
19787  19784  20088  0
19784  19787  19458  0
20089  19786  19781  0
20084  19170  19171  0
20090  19179  19471  0
19174  19788  19472  0
20091  19472  19788  0
19790  19472  20091  0
19791  20085  19783  0
20084  19171  19792  0
19798  19179  20090  0
20092  19798  20090  0
20093  19788  19793  0
19788  20094  20091  0
20095  19790  20091  0
19790  20095  19789  0
19795  19789  20095  0
19797  20096  20085  0
20085  19791  19797  0
19793  19478  20093  0
20095  20097  19795  0
20098  19795  20097  0
19801  19794  19795  0
19803  19797  19796  0
19798  20092  19804  0
20099  19804  20092  0
19478  19799  20100  0
19795  20098  19801  0
19807  19804  20099  0
19801  20101  19800  0
19801  20098  20101  0
20102  20101  20098  0
19805  19800  20101  0
19803  19802  20103  0
19809  20103  19802  0
20099  20104  19807  0
20105  19807  20104  0
19807  20105  19811  0
20106  19811  20105  0
19811  20106  19813  0
20107  19813  20106  0
19813  20107  19816  0
20108  19816  20107  0
20101  20102  20109  0
20101  20109  19818  0
20101  19818  19805  0
20103  20110  20111  0
20103  19809  20110  0
20112  20106  20105  0
20113  20106  20112  0
20106  20113  20107  0
20108  20107  20113  0
20108  20114  19816  0
19816  20114  19822  0
20102  20115  20109  0
19818  20109  19827  0
19809  19823  20110  0
20108  20116  20114  0
20114  20117  19822  0
19822  20117  19826  0
19817  19831  20118  0
20109  20119  19827  0
19827  20119  19829  0
19817  19489  19831  0
19829  20119  20120  0
19828  20121  19830  0
19829  20122  19493  0
19829  20120  20122  0
19830  20121  20123  0
19830  20123  19832  0
19831  19503  20124  0
19493  20122  19834  0
19832  20123  19833  0
20124  19503  19205  0
19203  19835  19505  0
19505  20125  19504  0
20124  19205  19515  0
19835  20125  19505  0
19833  20126  19508  0
19837  20127  20128  0
19837  19838  20127  0
19837  20128  20129  0
19837  20129  19839  0
19839  20130  19512  0
19839  20129  20131  0
19839  20131  20130  0
20130  20132  19513  0
20130  19513  19512  0
20132  19841  19513  0
19841  20132  20133  0
19841  20133  19842  0
19842  20133  20124  0
19842  20124  19515  0
19207  19510  19844  0
19207  19844  19509  0
19838  20134  20127  0
19838  19840  20134  0
19845  19508  20126  0
20134  19840  19846  0
19843  19851  19215  0
19846  19847  20135  0
19847  20136  20137  0
19847  20137  20135  0
20136  19847  19853  0
20136  19853  19854  0
19519  19848  20138  0
19848  19520  20139  0
19520  19849  20139  0
19850  20140  19849  0
19851  20141  19521  0
19521  20141  20142  0
19521  20142  19852  0
19857  20138  20143  0
19857  19519  20138  0
19852  20144  19530  0
19530  20144  20145  0
19530  20145  20146  0
19530  20146  19531  0
19531  20146  19860  0
20147  20148  20149  0
19870  20149  20148  0
20150  20147  20149  0
19867  20149  19870  0
20149  19867  19866  0
20149  19866  20150  0
19859  20150  19866  0
19850  19868  20151  0
19862  19863  20152  0
19876  20152  19863  0
19863  19865  19876  0
20153  20154  20155  0
20155  19882  20148  0
19872  20148  19882  0
20155  20148  20153  0
20147  20153  20148  0
20148  19872  19870  0
20156  20151  19868  0
19861  20157  19244  0
19875  20158  19876  0
20158  20159  19876  0
19883  20155  20160  0
20155  20161  20160  0
20155  19883  19882  0
19877  19872  19882  0
19878  19868  19528  0
19244  20157  18942  0
19879  20158  19875  0
20160  19884  19883  0
19868  19878  20162  0
19868  20162  20156  0
20158  19879  20163  0
20164  20163  19879  0
20165  20164  19879  0
19879  19884  20165  0
20166  20165  19884  0
20160  20166  19884  0
19885  20162  19878  0
20167  20156  20162  0
20164  20165  20168  0
19885  19886  20162  0
20162  19886  20167  0
19250  20169  19550  0
19250  20170  20169  0
19887  19888  19886  0
20167  19886  20171  0
19886  19888  20171  0
19889  19892  19888  0
19892  20172  19888  0
20171  19888  20172  0
20173  19252  18948  0
18948  19550  20173  0
19890  20174  19891  0
20175  19891  20174  0
19891  20176  19892  0
20172  19892  20176  0
20174  19890  20175  0
20177  20175  19890  0
19890  19895  20177  0
20178  20177  19895  0
19898  19565  19896  0
19559  20179  19893  0
20180  19893  20179  0
19893  20180  19901  0
20181  19901  20180  0
19895  19894  20178  0
20182  20178  19894  0
19894  19575  20182  0
20183  20182  19575  0
19896  20184  19898  0
20185  19898  20184  0
19896  19567  20184  0
19898  20185  19897  0
19902  19897  20185  0
19902  20186  19903  0
19904  19573  19903  0
19905  20183  19575  0
20186  20187  19903  0
20188  19903  20187  0
19903  20188  19904  0
20189  19904  20188  0
19904  20189  19906  0
20190  19905  19908  0
20191  19271  19571  0
19572  19576  20192  0
19911  20192  19576  0
20188  20193  20189  0
19906  20189  19574  0
19579  19574  20189  0
19908  19912  20190  0
19584  19271  20191  0
19910  19909  20194  0
19909  19913  20194  0
19907  19579  20195  0
19912  19914  20190  0
19913  19915  20196  0
19913  20196  20194  0
20196  20197  20194  0
20196  19915  20197  0
19915  19583  19917  0
19915  19917  20198  0
19915  20198  20197  0
19917  20199  20198  0
19917  19589  20199  0
19589  19918  20199  0
19586  20200  19587  0
19919  20201  19918  0
19919  19920  20201  0
19920  20202  20201  0
19921  19587  20203  0
19588  19922  20204  0
19588  20204  19916  0
19920  19923  20202  0
19921  20205  19595  0
19596  19279  20206  0
19596  20206  20207  0
19923  19594  19924  0
20205  19925  19595  0
19924  19926  20208  0
19927  19602  19284  0
19926  19597  19928  0
19603  20209  19604  0
19604  20209  19607  0
19603  19606  20210  0
19603  20210  20209  0
19607  20209  20211  0
19607  20211  19930  0
19930  20211  20212  0
19930  20212  19934  0
19928  19293  20213  0
19932  20214  19605  0
19009  19601  20215  0
19009  20215  19936  0
19606  19933  20210  0
19934  20216  19931  0
19934  20212  20217  0
19934  20217  20216  0
19931  20216  19935  0
19931  19935  19610  0
20214  20218  19605  0
19605  20218  20219  0
19605  20219  19929  0
19933  20220  20210  0
19933  19937  20220  0
20216  19940  20221  0
20216  20217  20222  0
20216  20222  19940  0
20216  20221  19935  0
19293  19306  20223  0
19929  20219  20224  0
19937  19939  20222  0
19937  20222  20220  0
19939  19940  20222  0
20221  20225  19935  0
19935  20225  19941  0
20226  20223  19306  0
19620  19943  20227  0
19620  20227  20228  0
19621  19950  19943  0
19936  19951  18726  0
19940  19944  20221  0
19947  20221  19944  0
20221  19947  20225  0
20229  20225  19947  0
20225  20229  19941  0
19306  19638  20226  0
20230  19626  19627  0
19627  19945  20230  0
19945  19946  20231  0
19946  19630  20231  0
20232  20231  19630  0
19630  19631  20232  0
20233  20232  19631  0
19631  19949  20233  0
19620  20228  20234  0
19620  20234  19644  0
19947  20235  20229  0
19947  19634  20235  0
20236  20235  19634  0
19941  20229  19942  0
19948  19942  20237  0
19638  19639  20226  0
20238  19640  19626  0
20230  19945  20239  0
20231  20239  19945  0
19949  19633  20240  0
20241  19952  19951  0
19953  19634  19311  0
19954  19948  20237  0
20226  19639  20242  0
19639  19955  20242  0
20243  19643  19640  0
19640  20238  20244  0
20240  19633  19956  0
19644  20234  20245  0
20246  19952  20241  0
20247  19634  19953  0
19957  19953  19642  0
20237  20248  19954  0
20249  19955  19958  0
20242  19955  20249  0
19643  20243  19646  0
19956  19644  20245  0
20250  19641  19652  0
19957  20247  19953  0
19958  19954  20251  0
20252  20250  19652  0
19648  19952  20246  0
19962  19959  19960  0
20246  20253  19648  0
19322  19649  20254  0
20255  20254  19649  0
19649  18746  20255  0
20256  18746  19650  0
20257  19647  19961  0
20252  19652  19964  0
19962  19965  20258  0
19968  20258  19965  0
19322  20254  20259  0
19322  20259  19655  0
19647  20257  19963  0
20260  19963  20257  0
19963  20260  19657  0
20261  19968  19967  0
19650  19656  20256  0
19661  20256  19656  0
19657  20260  19969  0
20262  19969  20260  0
19327  20263  19658  0
20263  19327  19328  0
19966  20263  19328  0
19967  19970  20264  0
19967  20264  20261  0
20261  20264  20265  0
19655  20259  19971  0
19970  19973  20266  0
19970  20266  20264  0
20264  20266  20267  0
20264  20267  20265  0
19973  19675  19982  0
19973  19982  20266  0
20266  19982  20268  0
20266  20268  20267  0
19665  19974  20269  0
19665  20269  19669  0
19662  19969  19996  0
19969  20270  19996  0
19982  19983  20271  0
19982  20271  20272  0
19982  20272  20268  0
20271  19983  19986  0
20271  19986  20273  0
20271  20273  20272  0
19986  19985  20274  0
19986  20274  20273  0
19975  20275  19972  0
19976  19987  19977  0
19977  19987  19988  0
19988  20276  19978  0
19978  20276  20277  0
19978  20277  19980  0
19980  20277  20278  0
19980  20278  19989  0
19989  20278  20279  0
19989  20279  19990  0
19990  20279  19991  0
19991  20280  19992  0
19991  20279  20281  0
19992  20280  19993  0
19975  19994  20275  0
19995  19996  20282  0
19995  20282  19987  0
19987  20282  20283  0
19987  20283  19988  0
19988  20283  20276  0
20278  20284  20279  0
20279  20284  20281  0
19993  20285  19684  0
19999  20286  20287  0
19999  19998  20286  0
19075  19683  19998  0
19683  20288  19998  0
19684  20285  20000  0
20289  19689  19999  0
20289  19999  20287  0
20289  20287  20290  0
19683  20291  20288  0
19683  20002  20291  0
20002  20006  20292  0
20002  20292  20291  0
20000  20285  20293  0
20000  20294  20003  0
19689  20289  20295  0
19689  20295  20005  0
20006  20296  20292  0
20006  20003  20296  0
20003  20294  20296  0
20007  19695  20009  0
20007  20009  20297  0
20007  20297  20298  0
20007  20298  20004  0
20297  20009  20299  0
20297  20299  20298  0
19697  20008  20012  0
20009  20010  20300  0
20009  20300  20299  0
20008  20301  20012  0
20010  20015  20302  0
20010  20302  20300  0
20011  20012  20303  0
20011  20303  20016  0
20012  20301  20304  0
20012  20304  20303  0
20015  20017  20305  0
20015  20305  20302  0
20017  20016  20303  0
20017  20303  20306  0
20017  20306  20307  0
20017  20307  20305  0
20303  20304  20308  0
20303  20308  20306  0
19705  20024  20021  0
20021  20024  20022  0
20020  20309  20019  0
20019  20309  20018  0
20024  19704  20310  0
20024  20310  20022  0
20022  20310  20311  0
20022  20311  19703  0
19703  20311  19706  0
20020  20025  20312  0
20020  20312  20309  0
20309  20312  20026  0
20309  20026  20018  0
19704  20027  20310  0
20311  20313  19718  0
20311  20310  20314  0
20311  20314  20313  0
20311  19718  19706  0
20025  20315  20312  0
20027  20029  20310  0
20313  20032  19718  0
20025  19714  20315  0
20312  20030  20026  0
19716  20028  19710  0
19716  19717  20028  0
20033  20032  20316  0
20032  20313  20316  0
19714  20037  20315  0
20315  20037  20312  0
20317  20312  20037  0
20312  20317  20030  0
20035  20030  20317  0
20033  20316  20318  0
20317  20037  19720  0
20039  20035  20317  0
19717  20036  20319  0
20320  20319  20036  0
20318  20321  20033  0
20041  20033  20321  0
20044  20317  19720  0
20317  20044  20039  0
20036  20042  20320  0
20321  20048  20041  0
20040  20041  20048  0
20321  20322  20048  0
19720  20046  20044  0
20043  20044  20046  0
20042  20047  20320  0
20323  20320  20047  0
20049  20322  20324  0
20322  20049  20048  0
20325  20047  19737  0
20047  20325  20323  0
20326  20323  20325  0
20327  20324  20328  0
20324  20327  20049  0
20052  20329  19736  0
19737  20053  20325  0
20330  20325  20053  0
20325  20330  20326  0
20331  20326  20330  0
20326  20331  20332  0
20333  20332  20331  0
20332  20333  20328  0
20054  20049  20327  0
20051  19427  20334  0
20055  20335  19749  0
20336  20056  20337  0
20338  20337  20056  0
20337  20338  20336  0
20339  20336  20338  0
20333  20059  20328  0
20328  20059  20327  0
20062  20334  19427  0
19753  19428  20056  0
20056  20336  19753  0
20057  19753  20336  0
20336  20339  20057  0
20340  20057  20339  0
20053  20341  20330  0
20331  20330  20341  0
20331  20342  20333  0
20059  20333  20342  0
20059  20058  20327  0
20054  20327  20058  0
19156  20062  19427  0
20057  20340  19754  0
19434  20070  20053  0
20341  20053  20070  0
20341  20343  20331  0
20342  20331  20343  0
20342  20060  20059  0
20062  19764  20344  0
20345  20344  19764  0
19754  20340  20063  0
20346  20063  20340  0
20347  20066  20348  0
20349  20348  20066  0
20066  20347  20067  0
20068  20067  20347  0
20350  20070  20069  0
20070  20350  20341  0
20343  20341  20350  0
20343  20351  20342  0
20342  20351  20060  0
20071  20060  20351  0
19764  19453  20345  0
20073  20345  19453  0
20063  20346  20064  0
20075  20064  20346  0
20064  20075  19765  0
20066  20065  20349  0
20352  20349  20065  0
20069  20353  20350  0
20350  20354  20343  0
20351  20343  20354  0
20351  20355  20071  0
20065  20072  20352  0
20072  20076  20356  0
20355  20351  20354  0
19770  20357  19771  0
19771  20357  19772  0
19459  19777  20358  0
19459  20358  20073  0
19460  20079  20359  0
19460  20359  20082  0
20079  19773  20360  0
20079  20360  20359  0
19773  20080  20360  0
20080  20074  20361  0
20074  20075  20362  0
20074  20362  20361  0
20076  20077  20083  0
20076  20083  20363  0
20355  20364  20071  0
19775  19780  20365  0
19775  20365  19763  0
19763  20366  19758  0
19763  20365  20366  0
20357  20367  19781  0
20357  19781  19772  0
20357  20368  20367  0
20081  20082  20369  0
20082  20359  20369  0
20359  20360  20370  0
20360  20080  20371  0
20360  20371  20370  0
20080  20361  20372  0
20080  20372  20371  0
20083  19779  20086  0
20083  20086  20373  0
20083  20373  20363  0
20071  20374  20078  0
19780  19785  20365  0
20365  19785  20375  0
19471  19782  20376  0
19471  20376  20090  0
19782  20081  20377  0
19782  20377  20376  0
20086  20085  20378  0
20087  20078  20374  0
20087  20088  19784  0
20367  20379  19781  0
20089  19781  20379  0
20090  20376  20380  0
20378  20085  20096  0
20089  20381  19786  0
20084  19792  20381  0
20090  20380  20092  0
19788  20093  20094  0
20094  20382  20091  0
20091  20382  20095  0
20096  19797  20383  0
19786  20381  19792  0
20093  20384  20385  0
20093  20385  20094  0
20094  20385  20386  0
20094  20386  20382  0
20095  20386  20097  0
20095  20382  20386  0
20383  19797  20387  0
20383  20387  20388  0
19797  19803  20387  0
20092  20389  20099  0
20097  20390  20098  0
20097  20386  20390  0
20099  20389  20104  0
20390  20102  20098  0
20387  20391  20392  0
20387  19803  20103  0
20387  20103  20391  0
20391  20103  20111  0
20105  20104  20112  0
20112  20393  20113  0
20113  20393  20116  0
20113  20116  20108  0
20112  20394  20393  0
20116  20393  20395  0
20116  20396  20114  0
20117  20114  20396  0
20116  20395  20397  0
20116  20397  20396  0
20109  20398  20119  0
20111  20110  20399  0
20110  19823  20399  0
20117  20400  19826  0
19828  19826  20400  0
20117  20396  20400  0
20120  20119  20401  0
20402  20399  19823  0
19823  19504  20402  0
20121  19828  20400  0
20118  19831  20133  0
20125  20402  19504  0
20400  20403  20121  0
20124  20133  19831  0
20120  20404  20122  0
20121  20403  20405  0
20121  20405  20123  0
20123  20405  20406  0
20122  20404  20407  0
20122  20407  19834  0
20123  20406  20408  0
20123  20408  19833  0
20130  20131  20409  0
20131  20410  20411  0
20131  20411  20409  0
20409  20412  20130  0
20132  20130  20412  0
20133  20132  20412  0
19834  20407  19835  0
20413  20128  20127  0
20128  20413  20129  0
20129  20413  20410  0
20129  20410  20131  0
19845  20126  19833  0
19845  19833  20414  0
20415  20127  20134  0
20127  20415  20413  0
20134  19846  20416  0
20417  20416  19846  0
20418  20417  19846  0
19843  20419  19851  0
20141  19851  20419  0
19846  20135  20418  0
20420  20418  20135  0
20135  20137  20420  0
20421  20420  20137  0
20137  20136  20421  0
20136  19854  20421  0
20422  20421  19854  0
20423  20424  20138  0
20138  19848  20423  0
20139  20423  19848  0
20139  19849  20140  0
20144  19852  20142  0
20146  20425  19860  0
19854  19855  20422  0
19855  19856  20422  0
20426  19859  20143  0
19857  20143  19859  0
20143  20138  20424  0
20151  20140  19850  0
20427  20146  20145  0
19860  20428  19861  0
20157  19861  20428  0
20422  19856  20429  0
20430  20429  19856  0
19856  19862  20430  0
20152  20430  19862  0
20153  20431  20154  0
20431  20153  20147  0
20431  20147  20432  0
20150  20432  20147  0
20150  19859  20426  0
20433  20434  20151  0
20430  20152  20435  0
20159  20435  20152  0
20152  19876  20159  0
20155  20154  20161  0
20431  20436  20154  0
20154  20436  20161  0
20151  20156  20437  0
20151  20437  20433  0
20435  20159  20438  0
20158  20438  20159  0
20435  20438  20439  0
20161  20440  20160  0
20161  20441  20440  0
18942  20157  20170  0
20438  20158  20163  0
20438  20163  20442  0
20438  20442  20439  0
20440  20166  20160  0
20163  20164  20443  0
20163  20443  20442  0
20444  20168  20165  0
20444  20165  20166  0
20156  20445  20437  0
20156  20167  20445  0
18942  20170  19250  0
20443  20164  20446  0
20164  20168  20446  0
20445  20167  20447  0
20171  20448  20167  0
20447  20167  20448  0
20176  19891  20449  0
20176  20449  20450  0
20176  20450  20172  0
20448  20172  20450  0
20172  20448  20171  0
19550  20169  20173  0
20451  19891  20175  0
20451  20452  19891  0
20449  19891  20452  0
19252  20453  19254  0
20451  20175  20454  0
20175  20177  20455  0
20175  20455  20456  0
20175  20456  20454  0
20177  20178  20455  0
19254  20453  19556  0
20457  19556  20453  0
20458  20181  20180  0
20455  20459  20456  0
20455  20178  20460  0
20455  20460  20459  0
20178  20182  20460  0
20461  19571  19556  0
20462  20185  20184  0
20184  19567  20463  0
20185  20464  19902  0
19902  20464  20187  0
19902  20187  20186  0
19567  19572  20463  0
20185  20462  20464  0
20464  20465  20187  0
20187  20193  20188  0
20187  20465  20193  0
19905  20190  20466  0
19905  20466  20183  0
19571  20461  20191  0
19572  20192  20467  0
19572  20467  20463  0
20193  20465  20468  0
20193  20469  20189  0
20193  20468  20469  0
20192  19911  20467  0
19911  19910  20470  0
19911  20470  20467  0
20189  20469  20471  0
20189  20471  19579  0
19579  20471  20195  0
20190  19914  20472  0
19910  20194  20473  0
19910  20473  20474  0
19910  20474  20470  0
19914  20475  20472  0
20194  20197  20473  0
20197  20198  20476  0
19914  19916  20475  0
19584  20477  19279  0
20476  20198  20478  0
20198  20199  20478  0
20199  20479  20478  0
20199  19918  20479  0
20200  20480  19587  0
20201  20479  19918  0
20201  20202  20481  0
19587  20480  20203  0
19916  20204  20475  0
20202  19923  20482  0
20203  20205  19921  0
20483  20204  19922  0
19925  20205  20484  0
20205  20203  20484  0
20485  20482  19923  0
19923  19924  20485  0
20208  20485  19924  0
19927  19925  20484  0
19922  19600  20483  0
20486  20483  19600  0
20207  19598  19596  0
19600  19599  20486  0
20208  19926  20487  0
20488  20486  19599  0
19926  19928  20489  0
19602  19927  19932  0
19599  19929  20488  0
20490  20488  19929  0
20212  20209  20210  0
20209  20212  20211  0
19928  20213  20491  0
20210  20220  20212  0
20217  20212  20220  0
20223  20213  19293  0
19929  20224  20490  0
20222  20217  20220  0
20492  20218  20214  0
20223  20226  20493  0
20218  20494  20219  0
20219  20495  20224  0
20496  20227  19943  0
19943  19950  20496  0
20497  19951  19936  0
20498  20499  20231  0
20231  20232  20498  0
20500  20498  20232  0
20232  20233  20500  0
20233  19949  20501  0
20240  20501  19949  0
20234  20501  20240  0
20501  20234  20228  0
20501  20228  20227  0
19641  20502  19950  0
20237  19942  20229  0
19626  20230  20238  0
20499  20239  20231  0
20235  20236  20503  0
19640  20244  20243  0
20504  20244  20238  0
20238  20230  20505  0
20238  20505  20504  0
20230  20239  20505  0
20506  20505  20239  0
20239  20499  20507  0
20239  20507  20506  0
20240  19956  20245  0
20240  20245  20234  0
20241  20508  20246  0
20236  19634  20247  0
20236  20247  20509  0
20242  20510  20226  0
20511  19646  20243  0
20247  19957  19959  0
20247  19959  20512  0
20248  20513  19954  0
19954  20514  20251  0
20249  20510  20242  0
19646  20511  19961  0
20250  20252  20515  0
20250  20515  20516  0
19959  20517  20512  0
19959  19962  20518  0
19959  20518  20517  0
19958  20251  20514  0
19962  20258  20518  0
19961  20519  20257  0
20252  19964  20520  0
20252  20520  20515  0
19964  19658  20521  0
19964  20521  20520  0
19966  19648  20253  0
20258  19968  20522  0
20258  20522  20523  0
20254  20255  20524  0
20254  20524  20259  0
20521  19658  20263  0
19966  20525  20263  0
19968  20261  20526  0
19968  20526  20522  0
20259  20524  20527  0
20256  19661  20528  0
20260  20529  20262  0
20261  20265  20530  0
19661  20531  20528  0
19971  20259  19974  0
19661  19972  20531  0
19969  20262  20270  0
20267  20268  20272  0
20267  20272  20265  0
20269  20532  19669  0
19972  20275  20531  0
20272  20273  20533  0
20272  20533  20265  0
19985  19669  20532  0
19985  20532  20274  0
19991  20281  20280  0
20270  20534  20535  0
20270  20535  19996  0
19996  20535  20536  0
19996  20536  20282  0
20283  20282  20537  0
20283  20537  20276  0
20276  20537  20538  0
20276  20538  20277  0
20277  20538  20539  0
20277  20539  20278  0
20278  20539  20540  0
20278  20540  20284  0
20284  20540  20541  0
20284  20541  20281  0
20281  20541  20542  0
20281  20542  20280  0
20280  20542  20543  0
20280  20543  19993  0
19993  20543  20544  0
19993  20544  20285  0
20545  20275  19994  0
20286  20546  20287  0
20286  19998  20547  0
20286  20547  20546  0
20288  20547  19998  0
20285  20544  20548  0
20285  20548  20293  0
19997  20545  19994  0
20547  20288  20549  0
20550  20549  20288  0
20288  20291  20550  0
20551  20550  20291  0
20000  20293  20294  0
20552  20294  20293  0
20293  20548  20552  0
19997  20001  20545  0
20553  20545  20001  0
20291  20292  20551  0
20554  20551  20292  0
20292  20296  20555  0
20556  20555  20296  0
20292  20555  20554  0
20557  20554  20555  0
20558  20556  20296  0
20296  20294  20558  0
20294  20552  20559  0
20294  20559  20560  0
20294  20560  20558  0
20001  20004  20553  0
20298  20553  20004  0
20299  20553  20298  0
20295  20289  20561  0
20295  20561  20005  0
20555  20556  20557  0
20005  20561  20562  0
20005  20562  20008  0
20299  20300  20563  0
20564  20563  20300  0
20008  20562  20301  0
20300  20302  20564  0
20301  20565  20304  0
20302  20305  20564  0
20566  20564  20305  0
20305  20307  20566  0
20567  20566  20307  0
20568  20308  20304  0
20304  20565  20569  0
20304  20569  20568  0
20570  20567  20307  0
20571  20306  20308  0
20308  20568  20572  0
20308  20572  20571  0
20307  20306  20570  0
20571  20570  20306  0
20028  20573  20029  0
20574  20029  20573  0
20029  20574  20310  0
20314  20310  20574  0
20573  20575  20574  0
20314  20574  20575  0
20314  20316  20313  0
19717  20319  20028  0
20028  20319  20573  0
20576  20573  20319  0
20575  20576  20314  0
20577  20314  20576  0
20314  20577  20316  0
20318  20316  20577  0
20319  20320  20576  0
20576  20578  20577  0
20321  20318  20577  0
20320  20579  20576  0
20578  20576  20579  0
20578  20322  20577  0
20577  20322  20321  0
20320  20323  20579  0
20580  20578  20579  0
20578  20580  20322  0
20323  20326  20579  0
20580  20579  20326  0
20580  20324  20322  0
20581  20329  20582  0
20326  20332  20580  0
20328  20580  20332  0
20580  20328  20324  0
20583  20584  20051  0
20055  19736  20329  0
20329  20585  20055  0
20329  20581  20585  0
20586  20585  20581  0
20587  20581  20588  0
20581  20587  20586  0
20589  20587  20590  0
20051  20334  20583  0
20055  20585  20335  0
20585  20586  20335  0
20586  20587  20056  0
20338  20056  20587  0
20587  20589  20338  0
20591  20338  20589  0
20335  20586  19749  0
20056  19749  20586  0
20338  20591  20339  0
20592  20339  20591  0
20344  20334  20062  0
20339  20592  20340  0
20593  20340  20592  0
20594  20347  20348  0
20594  20348  20595  0
20594  20596  20347  0
20597  20347  20596  0
20345  20598  20344  0
20340  20593  20346  0
20599  20348  20349  0
20595  20348  20599  0
20347  20597  20068  0
20068  20597  20069  0
20600  20069  20597  0
20069  20600  20353  0
20345  20073  20598  0
20349  20352  20601  0
20349  20601  20602  0
20349  20602  20599  0
20350  20603  20354  0
20346  20604  20075  0
20362  20075  20604  0
20605  20602  20601  0
20601  20352  20606  0
20601  20606  20605  0
20352  20072  20356  0
20352  20356  20606  0
20607  20355  20354  0
20073  20358  20598  0
20361  20362  20608  0
20361  20608  20372  0
20362  20609  20608  0
20606  20356  20610  0
20356  20076  20363  0
20356  20363  20610  0
20355  20607  20364  0
20611  19758  20366  0
19758  20611  19770  0
20612  19770  20611  0
19770  20612  20357  0
20368  20357  20612  0
20379  20367  20368  0
20358  19777  20613  0
20081  20369  20614  0
20081  20614  20377  0
20369  20359  20615  0
20369  20615  20614  0
20359  20370  20616  0
20359  20616  20615  0
20371  20616  20370  0
20610  20363  20617  0
20363  20373  20617  0
20071  20364  20374  0
20365  20375  20366  0
20377  20614  20618  0
20619  20376  20377  0
20371  20372  20620  0
20371  20620  20616  0
20617  20373  20621  0
20373  20086  20378  0
20373  20378  20621  0
20379  20622  20089  0
19777  20084  20381  0
19777  20381  20613  0
20380  20376  20619  0
20621  20378  20623  0
20378  20096  20383  0
20378  20383  20623  0
19787  20088  19785  0
20089  20622  20381  0
20380  20624  20092  0
20623  20383  20625  0
20625  20383  20388  0
20092  20624  20389  0
20625  20388  20392  0
20625  20392  20626  0
20388  20387  20392  0
20389  20627  20104  0
20626  20392  20391  0
20112  20104  20628  0
20104  20627  20628  0
20626  20391  20629  0
20391  20111  20630  0
20399  20630  20111  0
20112  20628  20631  0
20112  20631  20394  0
20394  20632  20393  0
20393  20632  20395  0
20396  20397  20633  0
20396  20633  20400  0
20119  20634  20401  0
20400  20633  20635  0
20636  20118  20637  0
20638  20637  20118  0
20411  20636  20637  0
20400  20635  20403  0
20133  20638  20118  0
20120  20639  20404  0
20120  20640  20639  0
20641  20402  20125  0
20403  20642  20405  0
20405  20642  20406  0
20409  20411  20637  0
20643  20644  20411  0
20637  20638  20409  0
20412  20409  20638  0
20638  20133  20412  0
20639  20640  20645  0
20407  20404  20639  0
20410  20643  20411  0
20639  20645  20646  0
20639  20647  20407  0
19835  20407  20648  0
19835  20649  20125  0
20408  20414  19833  0
20408  20406  20650  0
20408  20650  20414  0
20639  20646  20647  0
20407  20647  20648  0
19835  20648  20649  0
19509  20651  19843  0
20652  20651  19509  0
19509  19844  20652  0
20653  20652  19844  0
19844  19845  20653  0
19845  20414  20653  0
20650  20653  20414  0
20134  20416  20415  0
20654  20413  20415  0
20419  19843  20651  0
20655  20417  20418  0
20141  20656  20142  0
20418  20420  20655  0
20657  20655  20420  0
20420  20421  20657  0
20658  20423  20139  0
20139  20140  20658  0
20659  20142  20656  0
20142  20659  20144  0
20660  20144  20659  0
20146  20661  20425  0
20146  20427  20661  0
20428  19860  20425  0
20421  20422  20662  0
20429  20662  20422  0
20434  20663  20140  0
20140  20151  20434  0
20144  20660  20145  0
20145  20660  20427  0
20429  20430  20664  0
20431  20432  20436  0
20432  20150  20665  0
20150  20426  20665  0
20157  20666  20170  0
20664  20430  20435  0
20664  20435  20667  0
20436  20441  20161  0
20436  20668  20441  0
20433  20669  20434  0
20667  20435  20439  0
20667  20439  20670  0
20667  20670  20671  0
20667  20671  20664  0
20441  20672  20440  0
20441  20668  20673  0
20441  20673  20672  0
20670  20439  20442  0
20670  20442  20674  0
20670  20674  20671  0
20672  20675  20444  0
20672  20444  20166  0
20672  20166  20440  0
20433  20437  20676  0
20433  20676  20669  0
20669  20676  20677  0
20442  20678  20674  0
20442  20443  20678  0
20446  20168  20444  0
20446  20444  20675  0
20446  20675  20679  0
20443  20446  20679  0
20447  20680  20445  0
20445  20680  20437  0
20437  20680  20681  0
20437  20681  20676  0
20448  20682  20447  0
20680  20447  20682  0
20450  20449  20683  0
20450  20683  20684  0
20450  20684  20448  0
20685  20448  20684  0
20682  20448  20685  0
20686  19252  20173  0
20687  20452  20451  0
20687  20451  20688  0
20687  20689  20452  0
20449  20452  20689  0
19252  20686  20453  0
20688  20690  20687  0
20451  20454  20456  0
20451  20456  20688  0
20456  20459  20691  0
20456  20691  20692  0
20456  20692  20688  0
20459  20460  20693  0
20459  20693  20691  0
20460  20182  20693  0
19556  20457  20461  0
20184  20463  20462  0
20691  20694  20692  0
20693  20182  20183  0
20693  20183  20466  0
20693  20466  20695  0
20693  20695  20691  0
20463  20696  20697  0
20463  20697  20462  0
20464  20698  20465  0
20464  20462  20699  0
20464  20699  20698  0
20700  20466  20701  0
20700  20702  20695  0
20700  20695  20466  0
20701  20466  20190  0
20701  20190  20472  0
20701  20472  20703  0
20191  20704  19584  0
20468  20705  20469  0
20472  20706  20707  0
20472  20707  20703  0
19584  20704  20477  0
20467  20470  20708  0
20472  20475  20706  0
20709  20474  20473  0
20473  20197  20709  0
20710  20711  20712  0
20197  20476  20709  0
20713  20709  20476  0
20476  20478  20713  0
20714  20713  20478  0
20715  20714  20478  0
20478  20479  20715  0
20716  20715  20479  0
20712  20717  20710  0
20718  20710  20717  0
20710  20718  20200  0
20480  20200  20718  0
19279  20477  20206  0
20479  20201  20716  0
20719  20716  20201  0
20481  20719  20201  0
20717  20720  20718  0
20718  20720  20721  0
20718  20721  20480  0
20722  20481  20202  0
20202  20482  20722  0
20480  20721  20723  0
20203  20480  20723  0
20204  20483  20724  0
20723  20725  20203  0
20484  20203  20725  0
20487  20485  20208  0
20484  20725  20726  0
20487  19926  20727  0
20489  20727  19926  0
20484  20726  19927  0
20728  19927  20726  0
19598  20729  19601  0
20730  20489  19928  0
20728  20731  19927  0
19932  19927  20731  0
20732  20731  20728  0
20488  20490  20733  0
20734  20733  20490  0
19928  20491  20730  0
20729  20215  19601  0
20731  20732  19932  0
20735  19932  20732  0
19932  20735  20214  0
20736  20490  20224  0
20215  20737  19936  0
20493  20491  20213  0
20213  20223  20493  0
20214  20735  20492  0
20494  20218  20492  0
20224  20495  20736  0
20738  20739  20740  0
20738  20741  20739  0
20502  20496  19950  0
20219  20742  20495  0
20500  20233  20740  0
20501  20740  20233  0
20500  20740  20743  0
20739  20743  20740  0
20740  20501  20738  0
20227  20738  20501  0
20738  20227  20741  0
20744  20741  20227  0
20744  20227  20496  0
20742  20219  20494  0
20499  20498  20745  0
20746  20745  20498  0
20499  20745  20507  0
20498  20500  20746  0
20747  20746  20500  0
19951  20497  20748  0
19951  20748  20241  0
20235  20503  20749  0
20235  20749  20229  0
20493  20226  20750  0
20751  20507  20745  0
20752  20241  20748  0
20753  20754  20503  0
20755  20503  20754  0
20753  20756  20754  0
20503  20236  20753  0
20757  20503  20755  0
20503  20757  20749  0
20229  20749  20758  0
20229  20758  20237  0
20237  20758  20248  0
20226  20759  20750  0
20507  20751  20506  0
19641  20250  20760  0
19641  20760  20502  0
20753  20236  20509  0
20753  20509  20761  0
20753  20761  20762  0
20757  20763  20749  0
20758  20749  20763  0
20226  20510  20759  0
20243  20244  20511  0
20246  20508  20253  0
20761  20764  20765  0
20761  20765  20762  0
20509  20247  20512  0
20509  20512  20761  0
20513  20514  19954  0
20510  20249  20766  0
20244  20504  20767  0
20244  20767  20511  0
20516  20515  20768  0
20761  20512  20764  0
20512  20517  20769  0
20514  20770  19958  0
20249  19958  20766  0
19961  20511  20519  0
20515  20771  20772  0
20515  20772  20768  0
20773  19966  20253  0
20517  20518  20769  0
20518  20258  20774  0
19958  20770  20766  0
20255  18746  20256  0
20519  20775  20257  0
20515  20520  20771  0
20525  19966  20773  0
20258  20523  20774  0
20523  20522  20776  0
20255  20777  20524  0
20256  20778  20255  0
20257  20779  20260  0
20521  20263  20525  0
20256  20528  20778  0
20779  20529  20260  0
20261  20530  20780  0
20261  20780  20526  0
20528  20531  20781  0
20259  20527  19974  0
20262  20529  20270  0
20269  19974  20782  0
20269  20782  20532  0
20531  20275  20783  0
20270  20529  20534  0
20265  20533  20530  0
20273  20274  20784  0
20273  20784  20533  0
20274  20532  20784  0
20534  20785  20535  0
20535  20786  20536  0
20282  20536  20537  0
20537  20536  20787  0
20537  20787  20538  0
20538  20788  20539  0
20539  20788  20540  0
20789  20540  20788  0
20540  20789  20541  0
20790  20542  20541  0
20542  20790  20543  0
20544  20543  20790  0
20275  20545  20783  0
20791  20783  20545  0
20788  20792  20789  0
20789  20792  20793  0
20789  20793  20541  0
20541  20793  20794  0
20541  20794  20790  0
20790  20794  20795  0
20790  20795  20544  0
20544  20795  20796  0
20544  20796  20548  0
20287  20546  20290  0
20546  20797  20290  0
20546  20547  20797  0
20547  20549  20797  0
20798  20797  20549  0
20549  20550  20798  0
20799  20550  20551  0
20548  20796  20800  0
20548  20800  20552  0
20545  20553  20791  0
20801  20791  20553  0
20290  20802  20289  0
20803  20799  20551  0
20551  20554  20803  0
20804  20803  20554  0
20800  20559  20552  0
20559  20805  20560  0
20806  20807  20808  0
20809  20808  20807  0
20553  20299  20801  0
20289  20802  20561  0
20554  20557  20804  0
20810  20557  20556  0
20811  20804  20557  0
20556  20558  20810  0
20558  20560  20812  0
20558  20812  20810  0
20299  20563  20801  0
20561  20802  20813  0
20561  20813  20562  0
20557  20810  20811  0
20563  20564  20814  0
20815  20563  20814  0
20562  20813  20816  0
20562  20816  20301  0
20566  20814  20564  0
20814  20566  20815  0
20817  20815  20566  0
20301  20816  20565  0
20818  20565  20816  0
20566  20567  20817  0
20819  20817  20567  0
20565  20818  20569  0
20820  20569  20818  0
20567  20570  20819  0
20568  20569  20572  0
20821  20571  20572  0
20572  20569  20821  0
20822  20821  20569  0
20569  20820  20822  0
20821  20822  20823  0
20573  20576  20575  0
20588  20582  20824  0
20582  20825  20824  0
20826  20824  20825  0
20824  20826  20588  0
20827  20588  20826  0
20828  20588  20827  0
20582  20588  20581  0
20588  20590  20587  0
20588  20828  20590  0
20584  20583  20829  0
20590  20830  20589  0
20591  20589  20830  0
20592  20591  20831  0
20832  20831  20833  0
20831  20832  20592  0
20834  20334  20344  0
20593  20592  20832  0
20594  20835  20596  0
20594  20595  20835  0
20596  20835  20597  0
20836  20597  20835  0
20600  20597  20836  0
20344  20598  20834  0
20837  20834  20598  0
20833  20838  20832  0
20832  20838  20593  0
20599  20839  20595  0
20840  20839  20599  0
20350  20353  20600  0
20593  20604  20346  0
20841  20593  20838  0
20840  20599  20602  0
20593  20841  20604  0
20604  20609  20362  0
20602  20605  20842  0
20602  20842  20840  0
20843  20607  20354  0
20598  20358  20844  0
20598  20844  20837  0
20604  20845  20609  0
20846  20609  20845  0
20609  20846  20608  0
20605  20606  20847  0
20605  20847  20848  0
20605  20848  20849  0
20605  20849  20842  0
20364  20607  20850  0
20374  20364  20850  0
20368  20851  20379  0
20358  20613  20844  0
20614  20615  20852  0
20614  20852  20618  0
20372  20608  20853  0
20372  20853  20620  0
20608  20846  20853  0
20847  20606  20854  0
20606  20610  20854  0
20377  20618  20619  0
20618  20852  20855  0
20852  20615  20855  0
20615  20616  20856  0
20615  20856  20855  0
20616  20620  20856  0
20620  20853  20856  0
20848  20847  20857  0
20847  20854  20857  0
20854  20610  20858  0
20610  20617  20858  0
20087  20374  20859  0
20613  20381  20860  0
20380  20619  20624  0
20619  20618  20861  0
20619  20861  20624  0
20618  20855  20862  0
20618  20862  20861  0
20855  20863  20862  0
20855  20856  20864  0
20855  20864  20863  0
20858  20617  20865  0
20858  20865  20866  0
20617  20623  20865  0
20617  20621  20623  0
20088  20087  20867  0
20088  20868  19785  0
19785  20868  20375  0
20622  20869  20381  0
20865  20623  20870  0
20865  20870  20871  0
20865  20871  20866  0
20623  20625  20870  0
20624  20872  20389  0
20870  20629  20871  0
20625  20626  20870  0
20389  20872  20873  0
20870  20626  20629  0
20389  20873  20627  0
20627  20874  20628  0
20629  20391  20630  0
20628  20874  20631  0
20630  20399  20875  0
20630  20875  20876  0
20394  20631  20877  0
20394  20877  20632  0
20878  20395  20632  0
20395  20878  20397  0
20397  20878  20879  0
20398  20634  20119  0
20398  20880  20634  0
20399  20402  20881  0
20632  20877  20878  0
20397  20879  20633  0
20882  20636  20644  0
20411  20644  20636  0
20882  20644  20883  0
20884  20883  20644  0
20401  20885  20120  0
20886  20403  20635  0
20643  20884  20644  0
20120  20885  20640  0
20887  20640  20885  0
20403  20886  20642  0
20645  20640  20888  0
20640  20887  20888  0
20889  20406  20642  0
20890  20891  20892  0
20891  20893  20892  0
20891  20890  20888  0
20894  20888  20890  0
20888  20894  20645  0
20646  20645  20894  0
20641  20125  20649  0
20406  20889  20650  0
20895  20650  20889  0
20896  20897  20892  0
20890  20898  20894  0
20646  20894  20898  0
20646  20899  20647  0
20651  20652  20900  0
20653  20650  20901  0
20895  20901  20650  0
20416  20902  20415  0
20903  20415  20902  0
20415  20903  20654  0
20897  20904  20892  0
20892  20904  20890  0
20899  20646  20898  0
20647  20905  20648  0
20416  20417  20902  0
20906  20902  20417  0
20897  20907  20904  0
20904  20908  20890  0
20890  20908  20898  0
20419  20909  20141  0
20417  20655  20906  0
20910  20906  20655  0
20897  20911  20907  0
20141  20909  20656  0
20912  20656  20909  0
20659  20656  20912  0
20913  20655  20657  0
20914  20910  20655  0
20657  20421  20913  0
20662  20913  20421  0
20915  20424  20423  0
20423  20658  20915  0
20663  20658  20140  0
20427  20660  20661  0
20916  20661  20660  0
20655  20913  20914  0
20917  20913  20662  0
20918  20919  20662  0
20662  20429  20918  0
20920  20426  20143  0
20143  20424  20920  0
20921  20920  20424  0
20424  20915  20921  0
20922  20915  20658  0
20663  20922  20658  0
20662  20919  20917  0
20919  20918  20923  0
20919  20923  20924  0
20925  20668  20436  0
20925  20436  20432  0
20926  20668  20925  0
20432  20665  20925  0
20665  20426  20927  0
20665  20927  20928  0
20426  20920  20927  0
20666  20929  20170  0
20923  20918  20930  0
20923  20930  20931  0
20923  20931  20932  0
20918  20429  20664  0
20918  20664  20930  0
20668  20926  20673  0
20434  20669  20933  0
20931  20930  20934  0
20931  20934  20935  0
20931  20935  20936  0
20931  20936  20932  0
20930  20664  20671  0
20930  20671  20934  0
20937  20675  20672  0
20937  20672  20673  0
20935  20934  20938  0
20935  20938  20939  0
20935  20939  20936  0
20934  20671  20674  0
20934  20674  20938  0
20675  20940  20679  0
20938  20941  20939  0
20938  20674  20942  0
20938  20942  20941  0
20674  20678  20943  0
20674  20943  20942  0
20678  20443  20679  0
20678  20679  20943  0
20676  20944  20677  0
20676  20681  20944  0
20682  20945  20680  0
20680  20945  20946  0
20680  20946  20681  0
20684  20947  20685  0
20685  20947  20948  0
20685  20948  20682  0
20682  20948  20945  0
20681  20946  20944  0
20689  20687  20949  0
20683  20950  20684  0
20683  20449  20950  0
20684  20950  20947  0
20945  20951  20946  0
20949  20687  20690  0
20949  20690  20952  0
20950  20953  20947  0
20947  20953  20954  0
20947  20954  20948  0
20948  20954  20951  0
20948  20951  20945  0
20952  20690  20955  0
20952  20955  20956  0
20690  20688  20957  0
20690  20957  20955  0
20688  20692  20957  0
20958  20959  20960  0
20955  20957  20961  0
20957  20692  20702  0
20957  20702  20961  0
20692  20694  20702  0
20694  20691  20695  0
20694  20695  20702  0
20462  20697  20962  0
20462  20962  20699  0
20961  20702  20963  0
20961  20963  20964  0
20702  20700  20963  0
20461  20965  20191  0
20191  20965  20704  0
20696  20966  20697  0
20698  20699  20967  0
20968  20969  20195  0
20964  20963  20970  0
20964  20970  20971  0
20964  20971  20972  0
20700  20701  20703  0
20700  20703  20963  0
20463  20467  20696  0
20696  20467  20966  0
20465  20698  20973  0
20465  20973  20468  0
20468  20973  20705  0
20705  20974  20469  0
20469  20974  20471  0
20471  20974  20975  0
20471  20975  20195  0
20195  20975  20968  0
20971  20970  20972  0
20976  20972  20970  0
20970  20963  20977  0
20970  20977  20976  0
20978  20976  20977  0
20963  20703  20977  0
20707  20977  20703  0
20467  20708  20966  0
20979  20980  20981  0
20982  20978  20977  0
20977  20707  20982  0
20470  20474  20708  0
20983  20708  20474  0
20474  20709  20983  0
20984  20706  20475  0
20985  20983  20709  0
20709  20713  20985  0
20714  20985  20713  0
20714  20715  20986  0
20717  20712  20987  0
20206  20477  20988  0
20716  20719  20989  0
20990  20719  20481  0
20987  20991  20717  0
20987  20992  20991  0
20993  20991  20992  0
20717  20991  20720  0
20721  20720  20991  0
20475  20204  20724  0
20475  20724  20984  0
20994  20984  20724  0
20988  20995  20206  0
20722  20990  20481  0
20991  20993  20721  0
20996  20721  20993  0
20997  20722  20482  0
20721  20996  20723  0
20998  20723  20996  0
20725  20723  20998  0
20724  20483  20994  0
20999  20994  20483  0
20206  20995  20207  0
20482  20485  20997  0
21000  20997  20485  0
20998  21001  20725  0
21002  21001  20998  0
20483  20486  20999  0
