#!ascii file
 27.052635  -37.040493   42.481762  0
 21.191895  -36.475716   42.997757  0
  1.645044  -36.180309   43.708542  0
 36.175838  -36.414356   42.642498  0
 31.648573  -37.114582   41.758877  0
 31.997387  -36.619530   41.821590  0
 28.318527  -37.443657   42.586220  0
 18.878000  -37.655987   41.428207  0
 20.320795  -37.163055   41.572582  0
 17.247540  -37.719017   41.770649  0
 16.440222  -37.211777   42.101418  0
 16.547810  -36.387753   44.478020  0
 16.020346  -36.677883   41.793484  0
  7.982508  -36.920918   42.502632  0
  2.533189  -36.398724   42.549099  0
 39.956940  -36.410652   42.638268  0
 32.517536  -37.475563   39.865658  0
  3.290558  -36.873112   41.554852  0
 40.533600  -36.891621   41.109386  0
 33.328697  -37.100323   39.766346  0
 31.234756  -37.661087   39.790836  0
 29.130161  -37.427597   40.489182  0
 28.205132  -36.965569   39.787029  0
 20.233967  -36.866432   39.927338  0
 15.930223  -36.473686   39.532730  0
  9.102371  -37.005714   40.700253  0
  4.094294  -36.181492   39.903568  0
 43.232456  -36.931633   39.563423  0
 42.361721  -36.358437   39.980667  0
 40.886250  -36.230122   40.517426  0
 33.747791  -36.651085   39.239407  0
 18.781206  -37.263920   38.944904  0
 17.569517  -37.415638   39.446568  0
 16.560900  -37.217037   39.943157  0
  4.166046  -36.982353   39.612019  0
 44.225487  -36.575729   39.198895  0
 32.229122  -37.575474   38.495754  0
 30.393208  -37.207035   37.255493  0
 28.852291  -36.920704   37.954945  0
 27.819897  -36.380527   38.241993  0
 16.319338  -36.988194   38.160191  0
 15.737204  -36.623947   37.866966  0
 10.862152  -36.427551   38.550098  0
  4.344303  -36.265285   37.765842  0
 33.402630  -37.215782   38.154903  0
 17.040154  -37.198711   37.322052  0
 15.445520  -37.079754   37.009853  0
 15.579696  -35.766418   38.119476  0
 15.023218  -36.044895   37.449593  0
 44.478539  -36.193481   38.067780  0
 33.990070  -36.399399   36.984241  0
 32.014717  -37.309059   36.990780  0
 18.320021  -37.012192   37.289024  0
 17.129877  -37.225010   35.880207  0
 13.567885  -36.775055   37.134277  0
 14.572147  -37.452377   36.640553  0
  4.021430  -36.076542   36.803738  0
 43.322018  -36.825214   36.099476  0
 37.882553  -36.102242   36.404800  0
 36.995369  -36.370880   35.377945  0
 33.033367  -36.774014   35.914669  0
 30.787510  -36.530563   34.746426  0
 15.252931  -37.734375   35.887653  0
 42.277477  -36.775665   34.916462  0
 41.296444  -36.778057   33.363922  0
 36.148026  -36.409081   34.756332  0
  2.587139  -35.910793   34.978951  0
 40.643837  -36.959103   32.663586  0
 35.215137  -36.617847   34.328568  0
 33.505219  -36.831181   33.529324  0
 39.347191  -36.361469   31.612095  0
 36.419689  -36.776451   30.445572  0
 31.317389  -36.874363   32.267754  0
 16.234158  -36.818775   31.202206  0
  1.782739  -36.681217   31.606207  0
 38.011414  -36.177689   30.565434  0
 29.202089  -36.862785   31.190456  0
  2.203935  -36.931385   30.566776  0
 34.717602  -36.947208   29.584084  0
 26.380447  -36.682415   30.064873  0
 17.969593  -36.432175   29.923077  0
  5.748262  -36.896610   29.707117  0
  7.172218  -36.739807   29.508503  0
 23.876822  -36.609909   29.451519  0
 20.201941  -35.994720   28.876076  0
  8.504147  -36.505470   28.992447  0
 22.778572  -36.307793   28.978380  0
 32.135429  -36.768208   25.745823  0
 12.581153  -36.079552   26.388577  0
 54.681004  -37.185116   26.694857  0
 54.662422  -36.897701   27.818361  0
 53.585369  -37.355122   28.854673  0
 52.667690  -36.940697   28.128647  0
 52.143383  -37.432583   26.770590  0
 52.531231  -35.764240   27.365875  0
 56.565258  -36.332241   25.919334  0
 51.971424  -36.707188   25.582159  0
 30.894085  -36.461796   24.071342  0
 57.366756  -35.812271   23.470133  0
 55.936783  -36.267578   23.377483  0
 52.076168  -35.310104   23.905607  0
 29.657419  -36.632023   22.924101  0
 54.222031  -36.407337   21.638021  0
 29.221849  -36.090984   22.067825  0
 29.190218  -35.799232   21.173176  0
 16.252378  -35.855865   20.789228  0
 52.984615  -36.954418   18.622616  0
 54.317894  -35.871956   19.013916  0
  7.352651  -36.757507   20.486280  0
  5.899271  -36.396156   19.342476  0
 38.064266  -36.084877   19.291130  0
 36.002819  -35.828484   18.051941  0
 15.442350  -36.387512   18.867252  0
  8.951631  -36.873569   19.984543  0
 44.943699  -36.228394   18.200420  0
 44.009892  -36.511768   18.665518  0
 43.016853  -36.451496   19.018814  0
 41.810848  -36.329185   19.130215  0
 29.768000  -36.381275   18.673805  0
 14.644333  -36.332817   18.399441  0
 13.699948  -36.216511   18.296425  0
 10.172978  -36.696522   19.206081  0
 11.623797  -36.620407   18.460955  0
 12.648962  -37.318363   17.415560  0
  6.582829  -36.101719   16.459696  0
 51.184471  -37.096588   17.283295  0
 34.926243  -34.592419   17.874340  0
 32.600227  -37.018005   17.296715  0
 49.507236  -36.856922   15.699653  0
  6.445202  -36.272079   15.089735  0
 48.439114  -36.355759   14.112727  0
  6.063350  -36.584202   13.617414  0
  6.073078  -36.276752   14.170150  0
 46.886887  -36.906956   13.769129  0
 58.916203  -37.405136   10.873833  0
 59.799240  -36.622795   11.809665  0
 58.682697  -36.598503   12.740349  0
 46.548477  -37.037254   12.233353  0
 47.726345  -36.788200   11.918983  0
  5.084533  -35.915180   11.259103  0
 59.940868  -36.345261   11.038638  0
 59.799866  -36.685116    9.945225  0
 57.397045  -37.145309   11.779463  0
 57.072018  -37.671761   10.374853  0
 55.317616  -37.450298   11.315715  0
 56.140285  -37.980175    9.468094  0
 53.968094  -37.336311   11.368865  0
 52.429260  -37.441994   10.929345  0
 52.118732  -36.123302   12.558541  0
 49.890438  -36.823708   11.437509  0
  5.749174  -36.206539   10.674721  0
 60.029564  -36.893757    8.686037  0
 55.061710  -38.073521    9.012838  0
 40.993996  -36.666531   10.065403  0
 39.212498  -37.062584   10.054229  0
 37.438644  -36.626316    9.267075  0
 12.305321  -36.225327   11.111550  0
 12.005987  -36.847363    9.988706  0
  6.557789  -36.314610   10.349850  0
 59.969795  -36.857761    7.716838  0
 56.466908  -37.929466    8.284027  0
 54.222046  -37.673889    8.506760  0
 46.841763  -36.813572    9.152582  0
 42.539585  -36.493607    9.789979  0
 56.927204  -37.442379    7.641983  0
 55.963650  -37.211155    7.816910  0
 54.471832  -36.766117    8.133228  0
 52.205814  -36.972187    8.519974  0
 31.246119  -36.029339    7.972971  0
 11.103232  -36.024696    8.964304  0
 58.909191  -37.032146    7.300533  0
 28.438591  -35.868134    5.122550  0
 28.880787  -35.997364    6.069561  0
  2.535756  -36.828480    5.385540  0
  4.829070  -36.271149    5.814680  0
 28.961727  -36.641869    2.098255  0
 32.583565  -36.825043    2.012423  0
 31.347132  -37.168930    2.013072  0
 30.012785  -36.998859    1.828596  0
 36.238640  -36.454109    1.172605  0
 34.634613  -35.825089    1.957607  0
 31.750740  -36.483158    1.145987  0
 -0.532896  -34.068958    3.630407  0
 59.799576  -36.103504    0.325810  0
 58.000801  -36.217197    0.299011  0
 56.023354  -37.200981   -0.012751  0
 55.329979  -36.617493    0.451470  0
 52.394924  -36.816456    0.595010  0
 51.822914  -36.031723    0.580899  0
 44.823513  -35.973793   -1.119044  0
 36.735016  -36.859203   -0.396617  0
 36.954556  -36.281601    0.277609  0
 62.095322  -35.994087   -1.493716  0
 42.179909  -36.283669   -2.384391  0
 43.376011  -35.991837   -2.037352  0
 37.607143  -36.225220   -1.484919  0
 61.298691  -37.214817   -2.861461  0
 61.792656  -35.926434   -2.072353  0
 60.350246  -36.318981   -2.552164  0
 54.737942  -36.299294   -2.525214  0
 51.729179  -37.119659   -2.946910  0
 50.499359  -36.386238   -2.711341  0
 48.222683  -36.473305   -3.283866  0
 40.904964  -35.804916   -2.963342  0
 39.820480  -35.873943   -2.895051  0
 38.817463  -36.062698   -2.572408  0
 45.682636  -36.582413   -4.195265  0
  7.742807  -36.425625   -5.325424  0
  7.858443  -37.549641   -6.447502  0
  6.778400  -35.525700   -4.015930  0
  6.128643  -36.590141   -5.034057  0
 43.947311  -36.498325   -4.699522  0
 41.936256  -36.058113   -5.459373  0
  1.663469  -36.946304   -5.396784  0
  5.253979  -37.806614   -7.665416  0
  6.721856  -37.579815   -6.763248  0
  4.658119  -36.365349   -5.201473  0
 38.525303  -36.663086   -7.089003  0
  3.496860  -37.294010   -7.395169  0
 38.079308  -36.392773  -10.565999  0
 38.653980  -36.409470  -12.039657  0
 39.403526  -35.817760  -13.617783  0
  9.416998  -36.520985  -12.681317  0
  9.649845  -36.789211  -11.156435  0
 40.338280  -36.456024  -14.094017  0
 62.133953  -36.042942  -14.552422  0
 59.360580  -36.256229  -13.800875  0
 57.320160  -36.987728  -13.649313  0
 58.621773  -36.052490  -12.691044  0
 56.277325  -36.624744  -12.706955  0
 54.181187  -36.269466  -12.061172  0
 51.054127  -36.395966  -12.780106  0
 48.482456  -36.789841  -13.172577  0
 47.108795  -36.593491  -13.510780  0
 44.456165  -37.084286  -14.124342  0
 46.330593  -35.849709  -14.283717  0
 41.888374  -35.678165  -15.604124  0
  9.147084  -35.433006  -13.630960  0
 43.952026  -36.230312  -15.209242  0
 42.656132  -36.356956  -15.263582  0
 29.955202  -36.833687  -15.281339  0
 29.204346  -36.198029  -15.344982  0
 19.926537  -37.008701  -15.114719  0
 14.715876  -35.204185  -16.074566  0
 11.059895  -35.775936  -14.657118  0
 62.727577  -35.561108  -16.275223  0
 31.855679  -36.547676  -16.513630  0
 23.678026  -35.983105  -15.900417  0
 19.510424  -35.444710  -16.180834  0
 62.009823  -35.773006  -16.992287  0
 61.030956  -36.023533  -17.285654  0
 59.132195  -35.825905  -18.288885  0
 34.168259  -35.610481  -18.182070  0
 59.823147  -35.686562  -19.380405  0
 33.749855  -36.303082  -18.743853  0
 32.390545  -36.394691  -19.907850  0
 29.615583  -36.570263  -20.127092  0
 60.246059  -36.083630  -20.086996  0
 50.712559  -36.649010  -20.279531  0
 27.382961  -37.054432  -20.090799  0
 25.172815  -36.768028  -20.479309  0
 60.380558  -36.142494  -21.040344  0
 55.343964  -36.381794  -20.475977  0
 57.655907  -35.831638  -20.942974  0
 53.303638  -36.545929  -20.190567  0
 51.863274  -36.270336  -20.154713  0
 49.752136  -36.149048  -20.524843  0
 48.170223  -35.401840  -21.735981  0
 41.025959  -35.231712  -22.441902  0
 23.160511  -35.798923  -20.809725  0
 21.932735  -35.193024  -20.935345  0
 20.102413  -36.086353  -20.768633  0
 59.932652  -35.846069  -21.382771  0
 58.911777  -35.823666  -21.349617  0
 47.547195  -36.350624  -23.088270  0
 41.769676  -35.406372  -23.784668  0
 32.034126  -36.085773  -24.139833  0
 31.626928  -36.259090  -23.308390  0
 23.871120  -36.909794  -23.619818  0
 47.852295  -35.340153  -24.103222  0
 35.989292  -36.435246  -23.883209  0
 32.241806  -36.279522  -24.781914  0
 25.921860  -35.996792  -23.846937  0
 21.977127  -36.951954  -23.991226  0
 19.208834  -37.149521  -25.268805  0
 17.854284  -36.618717  -23.988655  0
 18.306870  -36.456879  -25.252001  0
 42.833237  -36.174389  -26.137520  0
 32.241451  -35.622086  -26.119814  0
 22.739786  -36.104183  -24.706726  0
 49.825806  -36.537674  -25.855219  0
 54.294628  -35.689106  -27.069008  0
 52.857628  -35.018581  -26.673138  0
 43.801991  -36.197712  -27.426645  0
 35.111427  -36.952785  -28.179049  0
 30.280130  -36.394390  -28.176109  0
 34.265884  -37.173119  -29.118458  0
 56.188610  -36.021889  -28.715530  0
 55.165047  -35.935734  -29.071098  0
 53.373085  -36.692467  -29.020735  0
 44.428730  -35.596199  -29.424801  0
 33.961636  -36.988823  -30.430347  0
 28.313515  -37.141800  -30.346575  0
 29.420666  -36.340977  -29.642862  0
 49.781460  -36.643513  -29.580172  0
 44.202301  -36.137371  -30.313334  0
 48.656235  -36.482201  -31.000895  0
 33.399448  -37.101360  -31.737696  0
 29.336227  -36.556828  -30.987970  0
 48.899025  -36.223881  -32.023491  0
 32.099171  -36.968513  -32.959824  0
 42.945309  -36.227264  -32.946720  0
 46.892467  -36.175617  -33.499607  0
 42.570663  -36.501080  -33.819077  0
 21.051023  -34.036377   49.890923  0
 20.466433  -34.986179   49.920326  0
 21.967716  -34.959366   49.930515  0
 19.705006  -34.393837   49.958538  0
 19.089497  -34.661957   49.422070  0
 29.086948  -34.891239   48.905785  0
 27.314243  -34.460102   49.406223  0
 23.879190  -35.093067   49.532646  0
  9.578418  -35.284695   49.401909  0
  8.262580  -34.472843   50.358166  0
 29.551003  -34.975842   47.950535  0
 17.798365  -35.491390   48.197830  0
 18.058235  -34.431213   48.932896  0
 10.066824  -35.539932   48.524994  0
  5.616294  -34.565666   49.951958  0
  4.484610  -35.343842   49.141964  0
 30.030159  -35.820007   45.908924  0
  9.192123  -35.686218   47.614014  0
  3.296368  -34.828232   47.841846  0
 17.262123  -35.052181   47.754051  0
 16.769337  -35.603981   45.863041  0
  1.770036  -34.975109   46.467396  0
 38.229649  -35.312565   45.320393  0
 39.037811  -35.790909   44.745739  0
 36.960007  -35.253223   45.650726  0
 36.036579  -35.059612   45.284325  0
 22.537233  -36.248505   45.616821  0
  8.097131  -35.651672   46.072929  0
 35.829628  -35.307842   44.369621  0
 25.004848  -35.969486   43.747059  0
 22.011013  -35.995003   43.825249  0
 22.838482  -35.651474   43.469093  0
 23.733364  -35.671276   43.912880  0
  7.758044  -35.671452   44.635574  0
  1.209402  -34.940250   44.387836  0
 39.394005  -35.374504   43.788158  0
 31.272127  -35.752117   43.068867  0
 16.114136  -35.975876   42.057850  0
  7.814960  -35.965462   43.151287  0
  1.582513  -35.225880   43.464355  0
 36.206100  -34.620823   42.721416  0
 21.817392  -35.842751   41.373566  0
  8.297035  -36.032295   41.656307  0
  2.193776  -35.263645   42.286186  0
 25.483860  -35.780315   41.833160  0
  3.088959  -35.845535   41.491852  0
 39.887802  -35.565765   41.638885  0
 37.330856  -35.198151   40.681973  0
 25.632030  -35.503189   40.448372  0
 15.966936  -35.624664   39.496677  0
  9.524142  -36.011742   39.721760  0
  3.218386  -34.914539   39.917767  0
 44.020878  -35.422127   39.988338  0
 44.479721  -35.851929   39.121296  0
 42.868481  -35.159359   40.542519  0
 41.574596  -35.610332   40.423649  0
 38.067966  -35.394730   38.705887  0
 32.351139  -35.929565   41.313435  0
 33.567871  -35.966309   39.315201  0
 26.924248  -35.912376   38.902294  0
 22.016808  -35.195431   39.388542  0
  3.977990  -35.530586   39.797058  0
 19.699505  -36.624363   37.851131  0
  3.958132  -35.501907   38.508083  0
 33.899101  -35.451252   37.323170  0
 26.901791  -35.759876   36.746346  0
 21.231894  -35.399475   38.143093  0
 20.177189  -36.087242   37.037514  0
 43.546272  -35.146595   37.806133  0
 38.002125  -34.947647   37.541512  0
 27.820581  -35.961998   35.358036  0
 19.017065  -36.511101   36.122772  0
 14.382345  -36.338905   37.128349  0
 11.875317  -35.416771   37.729809  0
 42.156277  -35.726360   35.959797  0
 37.275967  -35.141655   36.087456  0
 34.453926  -35.360260   36.213612  0
 34.436329  -35.998074   35.898998  0
 33.769035  -36.458542   35.624599  0
 35.060589  -35.413502   35.511349  0
  3.168755  -35.520023   36.137787  0
 41.155918  -35.839844   34.453876  0
 36.043056  -35.465179   35.289413  0
 34.474014  -36.263714   34.817200  0
 32.906975  -36.497753   34.462803  0
 29.615919  -36.091236   33.530293  0
 17.026600  -36.958481   34.100044  0
 31.720715  -36.467968   33.391880  0
 18.856573  -36.032494   34.236023  0
 17.930870  -35.994179   32.043804  0
  2.028778  -35.266323   34.514877  0
 30.469887  -36.334927   32.447060  0
 28.757236  -35.743805   32.150742  0
  1.952325  -35.968254   32.812340  0
 39.931671  -35.933762   32.202797  0
 29.101763  -36.181404   31.578211  0
  1.854180  -35.295460   31.462683  0
 38.946056  -35.309464   31.134634  0
 37.845596  -34.864571   29.002037  0
 26.903185  -35.883171   30.504499  0
 18.019287  -35.928493   30.833397  0
  1.516477  -35.815208   30.219837  0
 34.880375  -36.005566   29.038557  0
 35.915165  -35.712440   29.161640  0
 25.437859  -35.921154   29.803293  0
  2.677087  -36.343323   29.116253  0
  1.910401  -36.051159   29.223286  0
 33.665627  -36.204002   28.312656  0
 23.555538  -35.787842   29.188745  0
 20.753946  -35.002670   29.345005  0
  8.512987  -35.287861   27.967831  0
  6.984584  -35.362370   27.981211  0
  5.224262  -35.467472   27.670439  0
  3.794756  -36.070057   28.427139  0
 22.197609  -35.683552   28.830341  0
 10.199515  -35.260277   27.620625  0
 11.308673  -35.432232   27.179310  0
  2.031489  -35.573006   28.478659  0
 52.783440  -36.351402   28.871244  0
 32.790497  -35.393867   26.506741  0
 56.238380  -35.732647   27.097792  0
 55.637852  -35.941555   28.958387  0
 54.673843  -36.918232   29.188671  0
 31.790842  -35.761986   25.146658  0
 57.255825  -35.515102   25.957911  0
 58.131542  -34.720665   25.498512  0
 52.525948  -34.417637   24.937698  0
 30.752514  -35.361107   23.572395  0
 15.142633  -35.488888   23.592474  0
 55.550343  -35.113251   23.209982  0
 54.862305  -34.910538   22.551781  0
 51.287762  -35.053391   21.921692  0
 15.970098  -35.054558   21.990894  0
 54.855740  -34.186413   21.686188  0
 54.483856  -35.494919   20.211531  0
 50.422890  -34.520077   19.874735  0
 15.755965  -34.723694   20.080898  0
 49.686932  -34.518738   18.886343  0
 30.013048  -34.989876   20.352518  0
 15.333686  -35.164837   19.484669  0
  6.475141  -36.056087   19.720188  0
 53.880535  -36.191471   17.825008  0
 48.440353  -35.541969   18.154728  0
 43.140667  -35.755486   19.984324  0
 42.217636  -35.551765   20.195440  0
 43.923523  -35.855728   19.269669  0
 40.281574  -35.406780   19.617559  0
 41.280113  -35.270283   20.027658  0
 39.323486  -35.672359   19.419247  0
 37.265987  -35.561081   18.872122  0
 30.234491  -35.299496   19.324198  0
  8.584032  -36.055523   19.511202  0
  5.913501  -35.434544   18.791180  0
 52.007023  -36.580780   17.033188  0
 46.941666  -35.578426   17.713678  0
 44.473675  -35.585239   18.529093  0
 37.015484  -34.547558   18.472036  0
 31.437809  -35.174244   18.443583  0
 32.572998  -35.668781   17.746946  0
 14.199884  -35.238277   18.765038  0
 12.448044  -35.442127   18.473377  0
 10.370135  -35.674252   18.810844  0
  6.254904  -35.197281   17.537663  0
 53.207932  -36.244434   16.659737  0
 45.685993  -34.758411   17.618876  0
  6.975446  -34.909931   15.713237  0
 50.118965  -36.155334   14.941612  0
  6.795103  -35.186840   14.782125  0
 56.247688  -36.095951   15.071454  0
 54.319294  -36.169361   14.494637  0
 55.978237  -36.754154   12.871634  0
 55.028881  -35.963203   16.313581  0
 53.968159  -36.099087   15.537380  0
 51.644001  -35.941666   14.999356  0
  6.235415  -35.506603   14.234740  0
 59.950600  -35.610691   13.835851  0
 58.572975  -35.581146   15.160081  0
 58.507229  -36.133270   13.993108  0
 54.446381  -36.644844   12.653525  0
 53.198467  -36.041183   13.207607  0
 48.014565  -36.252537   13.020501  0
  5.441294  -35.449642   13.385479  0
 60.245762  -36.046764   12.844017  0
 60.359947  -36.020164   11.880005  0
 60.635078  -35.032246   13.478286  0
 60.469505  -35.582996   12.503162  0
  4.451410  -35.504078   12.240979  0
 49.826172  -36.029068   12.647610  0
 11.381260  -34.547520   11.419462  0
 10.398588  -34.669964   11.555440  0
  9.131677  -34.055729   11.435513  0
  6.842336  -34.744682   10.516788  0
 59.330513  -36.043861    8.988416  0
 58.732239  -35.913811   10.231124  0
 58.068432  -35.298916    9.401320  0
 40.034050  -36.222485    9.718778  0
 12.205040  -35.537327   10.860766  0
 11.879642  -35.227936   10.252092  0
  5.294701  -35.456207   10.373509  0
 59.580811  -35.700535    7.957368  0
 50.814789  -36.069412    8.762704  0
 48.615444  -36.249168    9.085189  0
 45.778126  -35.732033    9.120345  0
 43.466099  -35.754684    9.390564  0
 41.890720  -35.631836    9.354624  0
 38.826500  -35.386559    8.769468  0
 36.953911  -35.527908    8.742445  0
 55.760788  -36.129650    7.638501  0
 53.434361  -35.310478    8.306078  0
 34.644344  -34.975307    8.626744  0
  9.006538  -34.963207    7.968846  0
 59.277843  -35.841595    7.299777  0
 57.837646  -35.918381    7.139849  0
 29.876976  -35.897392    7.110195  0
  7.170740  -35.055767    6.886064  0
  5.932597  -35.094048    6.409110  0
  4.364695  -34.835712    6.276029  0
 -0.125962  -35.634228    5.117930  0
 28.080664  -35.788837    3.786194  0
 28.231161  -36.105766    2.619943  0
 28.561451  -35.910332    1.299356  0
 36.510208  -35.157681    1.228624  0
 34.050022  -35.372498    1.563601  0
 32.738899  -35.886921    1.111937  0
 30.492592  -36.106995    0.112094  0
 29.450764  -36.111317    0.602705  0
 60.933861  -35.652637    0.240378  0
 61.714870  -34.614632   -0.338150  0
 55.147205  -35.214039    0.506364  0
 52.096733  -34.988613    0.349262  0
 47.721230  -35.725426   -0.074522  0
 37.160881  -35.638149    0.821343  0
 31.876427  -35.522926   -0.693829  0
 28.495911  -34.966724    0.379072  0
 47.619774  -34.845467   -0.592127  0
 61.053848  -34.921459   -2.099159  0
 59.640400  -34.740589   -2.150204  0
 57.553726  -35.606503   -2.150541  0
 54.606987  -35.352180   -2.299953  0
 51.845955  -35.458492   -2.546736  0
 49.425331  -35.479557   -2.989139  0
 38.443871  -35.464615   -2.011556  0
  7.701588  -35.344746   -4.625853  0
 45.867466  -35.471592   -4.273520  0
  5.043794  -34.321663   -2.735039  0
  3.990129  -35.452442   -3.994144  0
  0.761791  -36.160080   -4.382561  0
 43.494080  -35.657536   -4.971953  0
 40.808857  -35.374611   -6.074629  0
  3.638756  -36.337624   -5.410409  0
  2.424062  -36.110188   -4.941176  0
 39.270962  -35.557766   -6.844885  0
 38.485466  -35.495907   -7.862846  0
 38.115974  -35.594566   -9.112700  0
  8.875065  -35.809490  -10.285278  0
  8.877392  -36.011162  -11.677122  0
 38.804436  -34.582710  -12.547233  0
 38.794827  -35.238869  -13.034530  0
 59.318523  -35.241142  -11.510877  0
 58.324692  -35.467396  -11.143465  0
 59.722416  -35.136810  -12.304872  0
 56.336231  -36.052441  -11.635003  0
 57.285431  -35.397530  -10.821643  0
 55.592712  -35.576679  -11.218783  0
 54.385193  -35.017300  -11.372823  0
 52.559128  -35.755051  -12.222437  0
 51.281086  -35.105309  -12.823289  0
 62.344326  -34.963287  -14.377172  0
 61.365189  -35.342300  -14.005312  0
 60.318287  -35.307590  -13.468351  0
 49.016754  -35.724380  -13.310898  0
 62.944565  -35.202591  -15.442904  0
 40.849789  -35.206421  -15.299170  0
 30.646702  -35.800053  -16.105539  0
 28.410421  -35.347847  -15.923574  0
 12.812194  -35.285015  -15.599723  0
 44.765739  -34.701427  -16.279810  0
 45.955414  -34.632389  -15.560727  0
 11.800476  -34.519146  -15.623721  0
 56.530663  -35.940441  -16.867985  0
 57.916763  -35.717346  -18.308340  0
 55.777172  -36.229103  -17.779196  0
 58.584682  -35.277889  -16.843830  0
 59.637501  -35.420033  -17.536810  0
 55.550793  -35.914433  -16.393639  0
 54.193886  -36.292641  -17.926437  0
 54.193714  -35.914272  -16.680275  0
 52.805676  -35.811935  -17.915468  0
 53.185337  -35.492298  -16.826796  0
 22.984507  -34.564308  -16.747005  0
 61.584465  -34.998993  -17.040894  0
 54.592026  -36.303722  -19.418877  0
 32.453419  -35.264683  -17.278414  0
 59.508923  -35.152962  -19.619188  0
 59.074558  -35.219200  -20.206688  0
 56.320873  -35.965816  -19.879377  0
 53.101494  -36.199379  -19.265383  0
 33.880802  -35.399883  -19.206602  0
 60.124847  -35.366562  -20.047731  0
 52.034279  -35.691216  -19.416281  0
 28.133408  -36.199024  -20.975309  0
 26.903994  -36.646202  -20.796494  0
 50.642204  -35.523060  -20.289240  0
 39.257923  -35.452808  -21.014729  0
 37.455627  -35.289700  -21.246895  0
 36.804672  -34.951656  -22.012308  0
 32.179890  -34.694401  -21.461571  0
 30.221325  -34.751350  -21.684658  0
 28.740908  -35.262367  -21.556307  0
 26.456686  -36.250423  -21.574644  0
 25.323591  -36.096863  -21.518053  0
 21.094446  -34.949547  -21.231188  0
 19.851267  -34.560913  -22.597342  0
 18.334282  -35.901814  -22.177839  0
 47.696964  -34.229233  -23.101219  0
 36.499352  -34.631390  -23.076118  0
 27.120358  -35.537174  -22.085068  0
 17.982792  -35.865356  -23.488714  0
 18.635382  -35.102688  -23.212612  0
 36.349514  -35.212646  -24.191183  0
 29.636364  -35.839581  -23.239676  0
 27.935287  -35.188789  -24.127337  0
 18.008041  -35.568459  -24.884197  0
 36.119209  -36.320667  -25.840410  0
 36.517578  -34.793385  -25.858442  0
 20.145004  -36.673782  -25.697609  0
 19.068087  -36.439152  -26.188677  0
 18.036581  -35.889126  -26.229950  0
 17.686588  -35.227833  -26.105026  0
 49.619305  -34.698154  -25.845982  0
 50.727924  -35.201809  -26.342621  0
 36.414322  -34.821850  -27.391632  0
 21.468052  -35.631599  -26.275503  0
 18.084194  -35.103256  -26.955667  0
 35.794876  -35.943039  -28.239592  0
 36.390278  -34.392296  -28.939274  0
 31.074215  -35.316860  -29.114927  0
 19.446453  -34.764790  -27.451662  0
 56.147129  -34.489552  -28.055504  0
 55.540035  -35.086552  -27.454046  0
 43.968918  -34.853432  -27.477795  0
 30.344799  -35.820286  -29.319107  0
 53.757893  -35.377274  -28.912678  0
 51.836014  -35.806499  -28.711487  0
 50.136578  -35.103439  -28.650356  0
 48.836742  -35.029022  -29.203671  0
 35.389339  -35.944801  -30.112005  0
 47.936714  -34.902283  -30.712177  0
 34.630211  -36.523590  -31.677410  0
 30.249100  -35.710926  -30.253275  0
 43.533173  -35.110725  -31.552872  0
 34.067402  -36.823380  -32.852638  0
 30.388233  -36.011406  -31.495966  0
 35.372410  -35.783661  -32.591454  0
 33.347752  -36.546619  -33.760864  0
 34.484512  -36.449516  -33.891926  0
 31.246778  -36.054756  -32.660553  0
 32.339512  -35.751587  -33.730625  0
 33.605469  -36.230633  -34.687851  0
 35.160683  -35.257168  -34.841400  0
 33.176392  -35.397568  -34.960968  0
 47.079933  -34.805775  -33.111050  0
 33.830872  -35.692467  -35.170998  0
 34.317226  -34.955418  -35.318161  0
 45.419102  -35.210770  -33.746395  0
 43.048862  -35.428421  -34.099129  0
 19.981606  -33.649418   50.278637  0
 18.981016  -33.382050   50.472713  0
 18.262691  -33.458920   49.787651  0
 29.733641  -33.405960   48.328442  0
 29.458342  -33.704075   48.981564  0
 29.035431  -33.437550   49.266300  0
 25.524967  -34.218506   49.438511  0
 23.354153  -33.748623   49.323719  0
 10.166020  -34.420807   49.688530  0
  7.333672  -32.963528   50.855461  0
 29.521017  -34.194988   47.020493  0
 11.265303  -35.023075   48.564461  0
 11.312452  -34.029152   48.988659  0
 12.129031  -34.488758   47.525803  0
 10.791519  -35.363556   47.516136  0
 11.978813  -34.849705   46.568481  0
 17.080711  -34.801842   46.888268  0
 10.958341  -35.147408   46.162243  0
 30.226217  -35.206413   45.202415  0
 17.106955  -34.966751   44.818142  0
 17.608116  -34.058815   46.299870  0
  9.652925  -34.963013   45.110031  0
  1.180851  -34.244717   45.276936  0
 35.517044  -33.184067   44.529968  0
  8.695490  -35.077927   44.518635  0
 35.698895  -33.823982   43.569626  0
  8.521394  -35.208679   43.346794  0
  1.038503  -34.086823   42.926594  0
 39.367310  -35.166977   42.665012  0
 38.866077  -33.971508   42.951328  0
 24.124357  -35.320568   41.687599  0
 16.612585  -35.176147   41.533600  0
 17.666187  -34.593437   43.390175  0
  9.268202  -35.134663   41.350224  0
 39.535072  -34.193874   41.760208  0
 37.127613  -34.311649   41.165955  0
 31.540789  -34.966259   41.561745  0
 22.685524  -35.331455   41.072227  0
 17.443752  -34.538013   40.958923  0
  1.928922  -34.580627   41.375931  0
 43.800621  -34.577160   40.989803  0
 44.626160  -33.673046   41.568718  0
 43.575661  -33.735146   41.733532  0
 44.609550  -34.269188   40.122349  0
 42.366535  -34.386856   41.034275  0
 40.793903  -34.547340   40.963482  0
 37.624481  -34.352909   39.699841  0
 23.983023  -34.855843   39.722042  0
 23.118147  -34.911274   39.980236  0
  9.799361  -35.130905   39.992599  0
  1.689255  -34.120338   40.225731  0
 32.878750  -35.208023   39.246567  0
 24.937977  -34.893242   38.032230  0
 16.471409  -34.959179   39.560455  0
 10.617587  -35.300243   38.649918  0
 44.229740  -33.928013   39.358768  0
 23.547895  -34.528618   37.412048  0
 16.206215  -34.617641   38.343258  0
  3.151976  -34.937973   37.561039  0
  1.544472  -33.985004   38.418674  0
 32.391342  -34.826614   38.286732  0
 24.959000  -34.856869   36.273293  0
 20.617203  -35.468819   36.662567  0
 15.289891  -34.670704   37.641434  0
 41.793262  -34.505348   36.929108  0
 32.845169  -34.765163   36.875793  0
 13.892537  -35.007118   37.331024  0
 40.572853  -34.587711   35.539398  0
 37.333103  -34.016373   37.212078  0
 33.400150  -34.391068   36.028461  0
 34.488106  -34.415230   35.732193  0
 25.612146  -35.036949   34.979160  0
  1.941164  -34.776009   35.904053  0
 36.434357  -34.038960   36.147663  0
 35.384415  -34.317341   35.681519  0
 20.516413  -34.772083   34.813866  0
 39.907284  -34.764790   33.526691  0
 26.867188  -35.103634   32.709595  0
 19.918716  -34.818882   32.692997  0
  1.926492  -34.698574   33.694313  0
  2.028630  -34.854115   32.632236  0
 27.052294  -35.336327   31.286196  0
 25.596388  -34.695621   31.356724  0
 38.274990  -34.205544   29.203545  0
 38.711067  -33.786514   30.987572  0
 24.620573  -34.861042   30.170303  0
 36.921597  -35.051392   28.633760  0
 23.519478  -35.143295   29.383514  0
 19.924259  -34.801125   30.577154  0
  1.509696  -35.130371   28.915100  0
  1.782033  -35.002621   30.056313  0
 22.195463  -35.036373   29.138708  0
 53.538651  -36.929409   29.708040  0
 54.611645  -36.154442   29.655020  0
 53.517933  -35.835819   29.328728  0
 33.979351  -35.071568   27.424557  0
  3.707984  -35.011196   26.959373  0
  2.302562  -35.045444   27.418716  0
  1.745309  -34.658218   28.169716  0
  2.174074  -33.769314   26.702927  0
 55.590584  -35.078888   29.394043  0
 56.435696  -34.588703   28.353491  0
 54.895836  -34.396202   29.289366  0
 53.163055  -35.186302   28.547596  0
  6.729532  -33.888508   26.579540  0
  4.979752  -34.058029   26.272810  0
  2.966061  -34.246136   26.414534  0
 57.109226  -34.611374   26.934765  0
 53.157665  -34.294308   27.413233  0
 12.102252  -34.101082   26.137383  0
 31.960297  -34.952927   24.879868  0
 13.702598  -34.725960   25.044842  0
 58.493706  -34.123909   24.970533  0
 57.904446  -33.835659   23.708643  0
 56.835281  -34.254715   23.413980  0
 55.556225  -34.230389   23.006306  0
 52.334545  -33.425377   23.479595  0
 14.988274  -33.958359   23.340881  0
 31.366909  -34.251377   22.738998  0
 43.014893  -35.340626   21.533804  0
 43.811287  -35.341377   21.024904  0
 43.815804  -35.103962   19.932152  0
 41.702648  -34.692902   21.225361  0
 14.998383  -34.177956   19.333054  0
 55.217579  -34.212402   19.157265  0
 55.031353  -35.462879   17.707150  0
 44.028316  -34.657055   18.948912  0
 40.515347  -34.320808   20.518888  0
 39.488281  -34.305199   19.879696  0
 38.359646  -34.476547   19.266203  0
 14.339311  -33.868462   18.669081  0
  6.696432  -34.843864   19.019279  0
  6.226619  -35.338280   19.148993  0
 48.142097  -34.230381   17.816307  0
 44.355724  -34.077950   18.048338  0
 36.289963  -33.837608   18.174688  0
 12.873113  -34.319740   18.113384  0
 10.311161  -34.052059   17.968710  0
  8.740147  -34.654354   18.536087  0
  5.536924  -34.546318   18.690035  0
  5.485122  -34.538925   17.971058  0
 55.785583  -35.388809   16.916267  0
 46.701462  -34.224567   17.491371  0
 60.084801  -34.004772   16.006905  0
 59.509590  -33.777943   16.979931  0
 58.968327  -34.636585   16.484543  0
 56.994370  -34.858601   16.974962  0
  6.727838  -34.054157   16.149719  0
 60.102467  -34.884369   14.745420  0
 60.348888  -33.237526   15.714310  0
 60.259933  -34.133709   14.279597  0
 52.415573  -35.822948   13.956130  0
  6.830183  -33.827297   13.942418  0
 50.270023  -35.854691   13.675117  0
  5.973959  -34.382744   13.225468  0
 57.503357  -35.036156   12.345682  0
 56.139332  -34.908642   12.501809  0
 56.140354  -34.259907   13.878111  0
 58.549606  -34.456806   13.211263  0
 55.771679  -34.894051   11.802734  0
 54.017616  -34.011646   12.468102  0
  4.515248  -34.387051   12.075120  0
 59.711636  -35.534538   11.779523  0
 60.362144  -34.922375   12.898849  0
 58.237915  -35.359669   11.494296  0
 59.623894  -34.655258   12.877102  0
 56.928307  -35.227097   11.503898  0
  3.574551  -35.043949   11.381627  0
 56.996414  -35.175808   10.595585  0
 55.127789  -34.207031   10.986337  0
 11.683763  -34.277527   10.981180  0
  3.819992  -35.180473   10.868432  0
  3.899417  -34.709541   10.601864  0
 56.735680  -34.518044    9.741251  0
  5.219533  -34.593784   10.324934  0
 59.158295  -34.464554    7.935902  0
 57.772385  -34.216461    8.834948  0
 48.855701  -35.138248    9.073559  0
 50.720875  -34.723923    8.755966  0
 47.309998  -35.278271    9.033946  0
 45.036926  -35.087673    8.764799  0
 46.426807  -34.465153    8.279223  0
 43.420738  -35.075413    8.851169  0
 44.712017  -34.510857    7.875226  0
 41.445980  -34.912571    8.434774  0
 11.265010  -33.771481   10.100513  0
 59.432552  -34.268696    7.201486  0
 55.408524  -34.614765    7.559683  0
 40.091541  -34.309586    8.027619  0
 37.884525  -34.481873    8.456967  0
 32.125053  -34.702381    8.140328  0
 58.167904  -34.141575    6.882102  0
 30.379189  -34.650291    7.194919  0
 29.021923  -34.094326    6.075755  0
 28.365189  -34.234379    5.117762  0
  5.750329  -33.446117    6.889148  0
  1.657068  -34.687302    6.166617  0
 -0.636014  -34.171371    5.903503  0
 27.773941  -34.101574    3.763265  0
 -0.598070  -34.836605    4.879651  0
 27.746553  -34.936710    2.245863  0
 60.107750  -34.690731    0.463666  0
 58.218895  -34.872322    0.413216  0
 35.663185  -34.464455    1.188957  0
 34.998009  -33.982403    0.439348  0
 33.813553  -34.773632    0.289715  0
 27.886148  -33.998028    0.772372  0
 51.308098  -33.865990   -0.324750  0
 38.186359  -35.004467   -0.385738  0
 29.686995  -35.049503   -1.157372  0
 61.997654  -34.220158   -0.829868  0
 61.972733  -34.310413   -1.283566  0
 47.706413  -33.505756   -1.366797  0
 31.030943  -35.117832   -1.913433  0
 31.963959  -34.945778   -2.225512  0
 32.936329  -34.387211   -2.790605  0
 28.753494  -34.014046   -1.398813  0
 61.466816  -33.461014   -1.746340  0
 44.375008  -34.793133   -2.406940  0
 43.986633  -33.995975   -3.165514  0
 39.019798  -34.262733   -1.354889  0
 -0.090397  -33.176289   -0.099289  0
  0.170574  -34.599388   -1.904561  0
 56.788994  -34.090305   -2.098290  0
 53.177837  -34.358887   -2.482817  0
 50.788982  -34.395489   -2.990221  0
 41.986538  -34.753544   -3.367180  0
 40.544868  -34.534599   -3.265414  0
 39.418056  -34.512882   -2.520385  0
  6.358251  -34.536919   -3.045372  0
  0.793904  -35.258366   -3.561161  0
 49.205585  -34.106564   -3.804040  0
 46.186886  -34.622929   -4.582278  0
  7.020284  -34.129112   -3.670845  0
  2.128728  -34.528206   -3.059258  0
 44.405582  -34.825794   -5.075911  0
 42.871441  -34.753986   -5.764781  0
 40.361565  -34.700619   -6.817752  0
 39.770599  -34.322243   -7.838708  0
 38.916275  -34.404747   -9.221073  0
  8.773213  -36.146996   -8.012328  0
  7.943676  -35.048851   -7.456418  0
  8.206789  -34.984070  -10.047567  0
 38.989883  -33.839745  -10.850874  0
  8.363669  -35.032047  -12.232186  0
 59.059708  -34.697124  -11.304361  0
 57.915737  -34.660473  -10.607584  0
 58.138180  -34.148808  -11.320424  0
 56.530216  -34.541805  -10.419885  0
 57.004719  -33.544033  -10.660943  0
 56.069065  -33.460697  -10.415972  0
 55.141380  -33.226433  -10.837378  0
 53.813641  -33.708134  -11.681859  0
 59.836987  -34.684555  -13.125377  0
 52.513916  -33.945877  -12.493640  0
 60.926147  -34.799313  -13.883284  0
 49.570736  -33.916927  -13.967219  0
 48.043011  -35.217766  -13.814199  0
 39.536419  -34.194111  -14.013267  0
 40.278435  -33.982483  -15.143746  0
 57.505093  -34.918442  -15.276388  0
 56.879414  -34.257423  -14.269030  0
 58.267490  -34.359867  -14.290538  0
 59.653049  -34.564384  -15.236866  0
 55.226593  -34.950043  -15.266093  0
 55.807976  -33.788353  -14.136918  0
 47.670757  -34.459625  -14.454647  0
  8.768481  -34.010582  -14.136321  0
 10.657802  -33.643631  -15.239183  0
 60.561871  -34.736633  -16.697775  0
 61.967468  -34.589447  -15.776979  0
 53.935097  -35.036774  -15.856667  0
 54.728100  -33.639370  -14.628470  0
 53.260792  -34.527130  -16.175678  0
 44.122963  -33.311768  -17.456629  0
 30.422037  -34.465992  -16.841654  0
 26.615988  -34.058277  -16.990704  0
 17.261484  -34.544434  -16.735468  0
 52.314480  -34.870754  -17.309618  0
 42.633675  -33.512619  -17.252193  0
 50.940731  -34.585125  -19.378281  0
 33.802559  -34.369984  -18.159548  0
 34.278542  -34.735367  -18.630669  0
 33.885231  -34.344406  -19.651501  0
 49.577873  -34.599594  -20.575020  0
 32.948769  -35.289707  -20.601763  0
 38.199310  -34.992470  -21.119473  0
 40.068535  -34.120792  -21.931948  0
 39.041435  -33.497414  -21.825623  0
 27.347202  -34.232185  -22.555857  0
 25.418167  -35.177952  -22.247633  0
 23.124783  -34.571667  -21.694536  0
 22.295437  -34.041008  -21.967710  0
 42.373970  -34.131413  -25.029156  0
 31.136885  -34.863014  -24.594841  0
 29.812948  -34.580677  -24.541441  0
 18.309454  -34.653671  -24.637583  0
 48.650677  -34.196033  -25.034119  0
 36.486134  -33.956940  -24.793638  0
 32.279858  -34.907207  -25.893373  0
 31.921968  -33.871845  -26.164206  0
 28.522015  -34.203903  -24.821722  0
 25.416620  -34.159637  -25.698128  0
 23.739332  -34.726070  -25.932192  0
 17.703451  -34.244953  -25.919733  0
 20.784126  -35.155499  -27.224236  0
 54.256554  -34.180561  -26.790604  0
 20.369118  -34.327454  -28.162663  0
 56.205460  -34.486916  -28.541775  0
 43.969345  -33.294594  -27.762133  0
 44.068233  -33.433151  -28.872801  0
 32.177166  -34.032425  -28.449888  0
 55.557114  -34.104458  -29.073761  0
 54.706516  -34.245522  -29.233473  0
 53.371304  -33.771912  -28.887098  0
 51.286896  -33.952385  -28.465578  0
 48.344913  -33.763725  -28.951809  0
 43.755733  -33.338066  -30.183895  0
 31.014233  -35.221592  -30.638750  0
 31.735243  -34.179180  -30.150763  0
 47.389538  -33.511200  -29.981560  0
 31.569715  -35.285091  -32.210823  0
 48.059639  -35.214840  -31.581642  0
 47.358425  -34.277664  -32.305672  0
 43.247086  -34.625160  -32.997654  0
 44.400673  -34.189720  -33.923847  0
 20.548306  -32.699203   50.163082  0
  8.630977  -32.790146   50.472698  0
 30.295721  -32.281895   49.537987  0
 27.730869  -32.778233   49.457447  0
 24.601160  -33.188183   49.310852  0
 22.137417  -33.425159   49.392178  0
  9.807776  -33.724567   49.924492  0
 29.718639  -32.629089   47.699615  0
 17.765667  -33.554104   48.947197  0
 17.416502  -33.657772   47.873291  0
  4.852650  -33.321239   49.255848  0
  4.097763  -32.085766   48.273537  0
 12.305685  -33.697521   47.082729  0
  2.925027  -33.510822   47.171028  0
 17.734636  -33.319668   47.191021  0
 12.629848  -34.122910   46.613983  0
  1.630030  -33.464607   45.966202  0
 37.808083  -33.283329   45.910316  0
 36.863384  -33.699810   46.026283  0
 38.859615  -34.198063   44.661617  0
 36.086693  -32.711620   45.608658  0
 29.356525  -33.962303   45.952591  0
 18.471783  -32.903805   46.385197  0
 18.799086  -33.729630   44.629341  0
 13.272160  -32.873890   45.513618  0
 30.220551  -34.351669   43.759087  0
 28.813692  -33.329887   45.049664  0
 13.155989  -33.722561   45.051331  0
 11.819590  -34.533112   44.607510  0
  0.740515  -33.513233   44.127979  0
 18.979015  -33.835529   42.427208  0
 13.066044  -33.829460   43.477692  0
 14.456421  -32.774300   43.254559  0
 10.362704  -34.565502   42.148911  0
  0.407731  -32.632626   42.404896  0
 35.740906  -32.988533   42.409069  0
 30.115742  -34.144852   42.386089  0
 19.914488  -32.852329   43.274017  0
 11.976312  -34.082378   41.935036  0
 43.425556  -32.063240   42.496754  0
 38.982185  -32.734058   42.379978  0
 36.826069  -33.318321   41.006252  0
 30.996897  -34.439152   41.103130  0
 19.792305  -33.045094   41.318565  0
  0.892932  -33.569260   40.332748  0
  0.443520  -32.843056   40.629532  0
 44.957573  -33.511227   41.135132  0
 41.643120  -33.153709   41.602646  0
 40.100952  -33.058834   41.646233  0
 18.726515  -33.696686   40.535019  0
 11.505728  -34.035976   39.748177  0
 31.209522  -34.369976   39.948009  0
 22.616800  -34.558292   37.483219  0
 17.375845  -34.229931   39.380096  0
 18.481848  -33.285751   39.414970  0
 36.970413  -33.045700   39.441986  0
 29.622362  -33.750561   39.229958  0
 21.606672  -34.784206   36.959824  0
 17.554350  -33.392986   38.676582  0
 11.999461  -34.202480   38.227158  0
  0.747534  -33.388092   37.243546  0
 43.478191  -33.238171   38.988537  0
 42.508724  -33.928532   37.965797  0
 30.064022  -33.845753   37.484360  0
 15.938856  -33.716862   37.804993  0
 12.561477  -34.407707   37.692741  0
  1.125695  -34.048332   37.136497  0
 41.773430  -33.487942   37.537136  0
 31.295715  -34.371994   36.970348  0
 23.752192  -34.379036   35.503746  0
 14.324838  -33.742050   37.713249  0
  0.894017  -34.007626   36.442085  0
  1.179557  -34.022449   35.268768  0
 40.871403  -33.272991   36.553074  0
 40.012379  -33.720833   35.290794  0
 35.931591  -33.040928   36.769661  0
 33.529610  -33.858212   35.631325  0
 30.987663  -33.964600   36.134228  0
 22.316105  -34.105732   35.028202  0
 21.341717  -34.181847   34.399044  0
 39.757328  -33.387558   34.416119  0
 34.809925  -32.924252   36.090008  0
 33.791805  -33.138119   35.592842  0
 32.062935  -32.838207   35.054958  0
 30.938801  -33.233105   35.166588  0
 39.283646  -33.529839   33.007507  0
 23.563160  -34.100155   33.658688  0
 24.861378  -34.368248   32.173286  0
  1.806560  -34.022209   33.901642  0
  2.306461  -34.340179   32.306625  0
 23.644457  -34.044842   31.516188  0
 21.128162  -34.068871   31.869274  0
  3.035066  -34.061443   31.536444  0
 22.535404  -34.163181   30.430849  0
  2.961458  -34.050381   29.837204  0
 21.522579  -34.089897   30.744802  0
  1.984612  -34.485241   29.144209  0
 37.625652  -33.588943   27.862553  0
  2.261652  -33.611469   27.713812  0
 55.910164  -34.193550   29.226633  0
 56.695221  -32.983955   28.139528  0
 36.701672  -33.588089   27.032093  0
 35.371529  -34.329788   27.108145  0
 57.474430  -33.430786   27.002279  0
 54.444210  -33.518246   28.313114  0
 10.227751  -33.596462   26.621859  0
  8.368827  -33.870914   26.887310  0
  2.464742  -32.813168   26.532143  0
 33.071621  -34.159603   25.171066  0
  4.302029  -33.153538   25.772100  0
  3.204118  -32.682026   25.846848  0
 53.110737  -33.305466   25.186518  0
 13.538386  -33.435680   24.660797  0
 12.017988  -32.967514   25.429298  0
 58.406380  -34.027443   24.118193  0
 45.562248  -35.056389   24.136747  0
 45.449703  -34.707355   25.634739  0
 44.896996  -35.214191   24.340284  0
 44.308620  -34.778568   25.081364  0
 55.846252  -33.017330   22.374928  0
 51.544960  -32.902889   21.882046  0
 31.165249  -34.023125   21.237759  0
 55.106361  -33.639904   20.600872  0
 50.827358  -33.364628   20.936819  0
 44.090553  -34.339310   20.697630  0
 44.812164  -34.895565   21.657167  0
 42.495068  -34.796623   22.368425  0
 41.952908  -33.906433   22.865786  0
 49.917557  -33.033512   19.441290  0
 43.576260  -33.669682   19.629776  0
 40.979244  -33.635551   21.584766  0
 40.233883  -33.092922   20.888023  0
 38.958656  -33.305424   19.593914  0
 32.161049  -33.751011   19.507259  0
 15.272640  -32.635742   20.316841  0
 15.132515  -33.091717   19.446243  0
 55.962471  -34.146442   18.215620  0
 43.285786  -32.817020   18.747442  0
 37.951355  -32.998924   18.846630  0
 33.344887  -33.797977   18.490026  0
 57.033646  -33.330627   18.302366  0
 48.582733  -32.520111   18.227034  0
 34.458218  -33.062119   18.486959  0
 13.693541  -33.109283   17.777500  0
 12.784507  -33.444134   17.556740  0
 11.795336  -33.375206   17.460661  0
  8.645117  -33.784740   18.217113  0
  6.546497  -33.481747   18.755032  0
  5.017097  -33.067810   18.902878  0
  4.733779  -33.883915   18.415613  0
 58.591751  -33.885479   17.442667  0
 59.386520  -32.427971   17.941725  0
 47.047844  -32.725990   17.614285  0
  4.829550  -33.829933   17.791367  0
  5.511679  -33.498329   16.985687  0
 60.089836  -32.630859   17.089703  0
  7.059122  -33.469780   14.785316  0
 59.253029  -33.757511   14.206113  0
 57.663181  -33.836346   14.316648  0
 54.004482  -33.941738   13.821301  0
 52.267811  -32.687706   13.914257  0
 52.855698  -32.900658   14.801838  0
  6.475926  -32.784561   12.624975  0
  5.663785  -33.395832   11.982210  0
  4.559248  -33.975525   10.919609  0
  3.653917  -34.369797   11.159885  0
 53.646812  -33.215389   11.718778  0
 55.149506  -33.470558   10.308680  0
 11.325670  -33.044956   11.281443  0
 10.608741  -32.924259   11.768041  0
  7.580481  -33.043118   11.338740  0
  5.800487  -33.891090   10.678786  0
 49.263935  -34.269585    8.818274  0
 48.078960  -34.287518    8.728251  0
  9.885639  -33.415070    8.905930  0
 59.198414  -33.043125    7.936718  0
 57.495930  -32.868053    8.677356  0
 52.651649  -33.771080    8.123830  0
 49.993435  -33.648785    8.357466  0
 48.661057  -33.541336    8.104962  0
 47.363743  -33.714851    7.741163  0
 45.913631  -33.575661    6.439924  0
 44.724289  -33.975285    6.466543  0
 43.674034  -34.143524    6.892530  0
 42.295059  -34.267841    7.475751  0
 38.297993  -33.674141    8.371461  0
 40.315636  -33.220787    7.821119  0
 41.615189  -33.675739    7.350482  0
 36.010738  -33.741360    8.620817  0
 33.231468  -33.613541    8.698699  0
 31.452072  -33.510548    8.097005  0
 30.193104  -33.764030    7.097787  0
  7.781010  -33.370678    7.752042  0
 59.719982  -32.747738    6.618098  0
 60.278152  -32.598217    7.148144  0
 55.596409  -33.651802    7.330209  0
 56.889027  -32.580654    6.747524  0
 54.260002  -33.117546    7.445085  0
 43.935207  -33.710018    6.137941  0
 42.895458  -33.599464    6.700788  0
 58.546646  -32.425766    6.456797  0
 44.551556  -33.369385    5.828488  0
  3.973875  -33.163872    6.742398  0
  1.249462  -32.802101    6.803336  0
 -0.301481  -33.221874    6.250282  0
 -0.650747  -33.535824    5.418749  0
 27.627779  -33.606350    2.167217  0
 60.858330  -33.286709    0.203679  0
 57.633820  -33.845097    0.186880  0
 55.071854  -32.910725   -0.413364  0
 37.906818  -34.110123    0.432921  0
 36.843906  -33.720734    0.699323  0
 38.791019  -33.954533   -0.201396  0
 36.354504  -32.748596    0.321625  0
 35.615215  -32.559589   -0.375176  0
 28.316011  -33.149994   -1.022738  0
 49.441479  -33.145607   -0.935389  0
 35.002865  -33.057144   -0.976081  0
 34.513088  -33.483990   -2.087641  0
 29.002230  -32.898956   -2.649912  0
 60.581551  -33.218132   -2.129056  0
 59.207893  -32.244640   -2.349950  0
 45.470367  -33.256878   -2.924230  0
 40.056515  -32.986298   -2.077181  0
 29.601269  -33.861206   -2.808391  0
  6.329923  -33.369888   -2.314389  0
  4.991220  -32.397896   -1.459073  0
  0.485739  -32.663467   -0.673915  0
 55.020481  -32.666775   -2.695229  0
 52.798824  -33.472603   -2.861530  0
 43.096092  -33.420906   -3.586681  0
 42.047806  -33.481377   -3.541249  0
 40.077969  -33.629181   -2.929586  0
 33.832996  -33.815445   -3.827218  0
 35.026096  -33.193871   -3.834755  0
 31.996719  -34.309910   -3.694224  0
 30.926668  -33.896179   -3.764060  0
  2.693591  -33.372505   -1.983514  0
  1.018195  -33.889542   -2.104647  0
 47.331528  -33.643707   -5.033822  0
 33.226326  -33.962494   -4.343056  0
 29.892756  -32.782375   -3.846148  0
  7.648864  -34.646198   -5.174505  0
  7.131255  -33.047897   -4.889044  0
 32.784828  -33.628754   -5.056305  0
 44.430954  -33.123512   -6.916724  0
  7.099195  -33.051666   -7.317088  0
 41.567181  -33.166138   -8.010768  0
 39.925385  -33.100544   -9.743379  0
  7.406618  -33.200375  -11.509242  0
 55.783817  -32.466820  -10.788733  0
 56.085655  -32.144081  -11.207006  0
 57.009541  -33.160587  -11.759983  0
 58.465870  -34.176941  -13.080544  0
 56.963917  -33.506367  -12.971759  0
  7.817317  -33.517643  -13.500481  0
