#!ascii file
22525  22796  22268  0
22525  22787  22796  0
22796  22269  22268  0
22796  22527  22269  0
22796  22787  22797  0
22796  22797  22527  0
22527  22797  22798  0
22527  22798  22270  0
22270  22798  22788  0
22270  22788  22265  0
22266  22521  22790  0
22266  22790  22799  0
22266  22799  22526  0
22791  21806  22037  0
22791  22037  22273  0
22263  22031  22800  0
22529  22528  22801  0
22529  22801  22802  0
22529  22802  22532  0
22528  22526  22799  0
22528  22799  22801  0
22531  22800  22031  0
22532  22802  22803  0
22532  22803  22533  0
22274  22804  22805  0
22274  22040  22804  0
22274  22805  22531  0
22274  22531  22530  0
22533  22803  22806  0
22536  22804  22040  0
22279  22042  22807  0
22042  22280  22807  0
22280  22808  22807  0
22280  22534  22808  0
22535  22533  22806  0
22282  22809  22536  0
22282  22810  22809  0
22049  22278  22811  0
22537  22812  22810  0
22537  22810  22282  0
22537  22538  22812  0
22539  22813  22285  0
22814  22540  22286  0
22542  22049  22811  0
22543  22550  22815  0
22545  22816  22056  0
22547  22056  22816  0
22545  22544  22817  0
22545  22817  22816  0
22289  22818  22819  0
22289  22819  22538  0
22289  22553  22818  0
22538  22819  22812  0
22285  22820  22548  0
22286  22549  22814  0
22550  22551  22821  0
22546  22547  22822  0
22546  22822  22552  0
22059  22291  22556  0
22823  22549  22293  0
22824  22821  22551  0
22551  22554  22824  0
22825  22824  22554  0
22552  22822  22826  0
22552  22826  22553  0
22296  22556  22827  0
22296  22827  22295  0
22293  22297  22823  0
22828  22823  22297  0
22541  22829  22830  0
22541  22830  22061  0
22554  22294  22825  0
22831  22825  22294  0
22294  22558  22831  0
22569  22831  22558  0
22304  22555  22832  0
22833  22832  22555  0
22304  22832  22559  0
22555  22295  22833  0
22827  22833  22295  0
22297  22560  22834  0
22562  22834  22560  0
22297  22834  22828  0
22835  22828  22834  0
22836  22563  22307  0
22307  22564  22836  0
22567  22564  22565  0
22069  22559  22570  0
22837  22838  22834  0
22838  22835  22834  0
22834  22562  22837  0
22839  22837  22562  0
22562  22563  22839  0
22840  22839  22563  0
22563  22836  22840  0
22841  22836  22564  0
22564  22567  22841  0
22842  22567  22571  0
22310  22557  22843  0
22310  22843  22568  0
22568  22844  22314  0
22315  22314  22844  0
22838  22837  22845  0
22846  22845  22837  0
22838  22845  22847  0
22837  22839  22846  0
22571  22573  22842  0
22848  22573  22572  0
22315  22844  22849  0
22315  22849  22576  0
22850  22845  22846  0
22839  22850  22846  0
22572  22575  22848  0
22851  22848  22575  0
22575  22578  22851  0
22852  22851  22578  0
22576  22849  22853  0
22578  22577  22585  0
22578  22585  22852  0
22854  22852  22585  0
22581  22580  22587  0
22855  22587  22580  0
22580  22576  22856  0
22580  22856  22855  0
22585  22584  22854  0
22857  22854  22584  0
22587  22855  22858  0
22587  22858  22588  0
22859  22588  22858  0
22589  22860  22584  0
22584  22860  22857  0
22588  22859  22590  0
22861  22590  22859  0
22862  22860  22589  0
22589  22590  22862  0
22863  22862  22590  0
22590  22861  22863  0
22864  22078  22591  0
22865  22591  22592  0
22078  22864  22593  0
22866  22594  22593  0
22594  22866  22595  0
22867  22595  22866  0
22595  22867  22596  0
22868  22597  22596  0
22592  22598  22865  0
22597  22868  22322  0
22869  22322  22868  0
22598  22599  22870  0
22600  22870  22599  0
22322  22869  22601  0
22871  22324  22601  0
22600  22603  22872  0
22324  22871  22326  0
22606  22605  22873  0
22874  22873  22875  0
22873  22605  22875  0
22873  22876  22606  0
22873  22874  22876  0
22877  22876  22874  0
22878  22876  22877  0
22879  22603  22602  0
22880  22603  22879  0
22603  22880  22872  0
22609  22326  22871  0
22329  22881  22605  0
22329  22604  22881  0
22882  22881  22604  0
22606  22876  22607  0
22878  22607  22876  0
22602  22608  22879  0
22883  22880  22879  0
22610  22884  22604  0
22884  22885  22604  0
22882  22604  22885  0
22886  22885  22884  0
22607  22878  22887  0
22607  22887  22611  0
22888  22611  22887  0
22325  22612  22608  0
22608  22883  22879  0
22889  22883  22608  0
22890  22092  22609  0
22609  22891  22890  0
22884  22610  22614  0
22884  22614  22886  0
22611  22888  22613  0
22892  22613  22888  0
22612  22893  22608  0
22889  22608  22893  0
22612  22327  22894  0
22612  22894  22893  0
22886  22614  22615  0
22613  22892  22616  0
22895  22616  22892  0
22327  22091  22896  0
22327  22896  22894  0
22091  22098  22619  0
22091  22619  22896  0
22092  22890  22093  0
22897  22617  22093  0
22615  22617  22897  0
22616  22895  22618  0
22898  22618  22895  0
22899  22342  22900  0
22342  22901  22344  0
22342  22899  22901  0
22622  22344  22901  0
22624  22618  22898  0
22628  22624  22898  0
22623  22902  22347  0
22099  22105  22903  0
22105  22904  22903  0
22105  22348  22904  0
22348  22905  22904  0
22628  22356  22624  0
22350  22110  22906  0
22110  22626  22906  0
22348  22354  22905  0
22354  22355  22907  0
22354  22907  22905  0
22352  22627  22908  0
22352  22908  22357  0
22909  22357  22908  0
22355  22630  22907  0
22629  22910  22911  0
22357  22909  22634  0
22629  22911  22632  0
22634  22912  22633  0
22638  22913  22914  0
22638  22914  22639  0
22638  22637  22913  0
22639  22915  22125  0
22915  22639  22916  0
22912  22917  22633  0
22641  22636  22918  0
22637  22641  22913  0
22125  22915  22642  0
22915  22919  22647  0
22915  22647  22642  0
22919  22645  22647  0
22645  22920  22646  0
22646  22921  22922  0
22646  22922  22648  0
22646  22920  22923  0
22646  22923  22921  0
22648  22922  22649  0
22648  22649  22365  0
22633  22917  22640  0
22640  22918  22636  0
22921  22924  22922  0
22921  22923  22925  0
22922  22924  22926  0
22922  22926  22649  0
22649  22926  22651  0
22917  22927  22640  0
22925  22928  22921  0
22925  22929  22928  0
22921  22928  22930  0
22921  22930  22924  0
22924  22930  22931  0
22924  22931  22926  0
22926  22931  22652  0
22926  22652  22651  0
22381  22932  22371  0
22371  22933  22635  0
22371  22932  22933  0
22934  22935  22928  0
22934  22928  22929  0
22934  22929  22936  0
22931  22930  22937  0
22931  22937  22652  0
22652  22937  22653  0
22652  22653  22370  0
22381  22654  22938  0
22381  22938  22932  0
22928  22935  22939  0
22928  22939  22940  0
22928  22940  22930  0
22930  22940  22941  0
22930  22941  22937  0
22937  22941  22942  0
22937  22942  22653  0
22653  22942  22656  0
22934  22943  22935  0
22944  22940  22939  0
22945  22940  22944  0
22940  22945  22941  0
22946  22941  22945  0
22941  22946  22942  0
22942  22946  22947  0
22942  22947  22656  0
22656  22947  22661  0
22948  22654  22658  0
22943  22949  22935  0
22944  22950  22945  0
22951  22945  22950  0
22945  22951  22952  0
22945  22952  22946  0
22667  22658  22136  0
22658  22667  22948  0
22953  22943  22954  0
22955  22939  22935  0
22939  22955  22944  0
22956  22944  22955  0
22944  22956  22950  0
22950  22956  22951  0
22664  22661  22957  0
22664  22957  22958  0
22395  22670  22665  0
22959  22665  22670  0
22665  22959  22960  0
22665  22960  22396  0
22396  22960  22961  0
22396  22961  22397  0
22397  22961  22962  0
22397  22962  22666  0
22953  22954  22963  0
22949  22964  22935  0
22935  22964  22955  0
22965  22956  22955  0
22664  22958  22966  0
22664  22966  22669  0
22670  22671  22967  0
22670  22967  22959  0
22401  22666  22672  0
22953  22968  22943  0
22949  22943  22968  0
22949  22969  22964  0
22955  22964  22965  0
22669  22966  22970  0
22971  22953  22972  0
22968  22973  22949  0
22949  22973  22969  0
22974  22668  22669  0
22669  22970  22974  0
22975  22675  22404  0
22968  22953  22971  0
22976  22969  22973  0
22977  22676  22668  0
22668  22974  22977  0
22974  22970  22978  0
22974  22978  22977  0
22404  22677  22975  0
22979  22677  22406  0
22980  22968  22971  0
22973  22968  22980  0
22676  22977  22981  0
22982  22977  22978  0
22406  22678  22979  0
22983  22979  22678  0
22980  22971  22984  0
22980  22985  22973  0
22986  22973  22985  0
22973  22986  22976  0
22987  22976  22986  0
22676  22981  22679  0
22988  22679  22981  0
22989  22988  22981  0
22981  22977  22989  0
22982  22989  22977  0
22678  22680  22983  0
22990  22988  22989  0
22679  22988  22409  0
21940  22410  22681  0
22409  22988  22682  0
22991  22682  22988  0
22682  22991  22684  0
22992  22685  22413  0
22685  22993  22683  0
22994  22683  22993  0
22685  22992  22993  0
22683  22994  22415  0
22995  22415  22994  0
22415  22995  22416  0
22686  22416  22995  0
22414  22992  22413  0
22996  22418  22419  0
22997  22418  22996  0
22418  22997  22414  0
22414  22997  22992  0
22998  22421  22688  0
22999  22689  22686  0
22421  22998  22690  0
23000  22690  22998  0
23001  22167  22691  0
22422  22690  23002  0
23000  23002  22690  0
23003  22175  22422  0
22175  23003  22176  0
22694  22176  23003  0
22423  22693  23004  0
22693  22427  23005  0
23006  22695  22694  0
23007  22696  22426  0
22695  23006  22431  0
23006  23008  23009  0
22427  23010  23005  0
22428  23011  22427  0
23006  23009  22432  0
23006  22432  22431  0
23009  23012  22700  0
23009  22700  22432  0
23009  23008  23012  0
23012  23013  22700  0
23007  23014  22696  0
22428  22699  23011  0
22700  23013  22705  0
22700  22705  22184  0
23013  23012  23015  0
22696  23014  22702  0
22696  22702  22429  0
22699  22701  23016  0
23013  23015  22706  0
23013  22706  22705  0
23015  23017  22706  0
23014  23018  22702  0
22702  23019  22433  0
22702  23018  23019  0
22433  23019  23020  0
22433  23020  22436  0
22701  23021  23016  0
22706  23017  23022  0
22706  23022  22707  0
23019  23023  23020  0
23020  23024  22436  0
22704  22703  23025  0
22704  23025  22701  0
22701  23025  23021  0
23026  23027  23028  0
23027  23029  23028  0
22707  23030  22442  0
22707  23022  23031  0
22707  23031  23030  0
22708  23032  21961  0
22436  23024  22711  0
22703  22445  22720  0
22703  22720  23025  0
23025  22720  23033  0
22709  23034  22714  0
22709  22710  23034  0
22710  23035  23034  0
22710  22448  22716  0
22710  22716  23035  0
23026  23036  23027  0
23030  22727  22452  0
23030  22452  22442  0
23030  23031  23037  0
23030  23037  22727  0
22443  22717  22708  0
22708  22717  23032  0
22711  23024  22718  0
22720  22722  23033  0
22723  22714  23038  0
22723  23038  22724  0
22714  23034  23039  0
22714  23039  23038  0
23034  23035  23039  0
23035  22716  23040  0
22716  22725  23040  0
22727  23037  22728  0
22719  22718  23041  0
22719  23041  22729  0
22722  22735  23042  0
22724  23038  23043  0
22724  23043  22731  0
23038  23039  23044  0
23038  23044  23043  0
23039  23035  23044  0
23035  23040  23045  0
23035  23045  23044  0
23040  22725  23046  0
23040  23046  23045  0
22725  22726  23046  0
22726  22732  23047  0
22726  23047  23048  0
22732  22733  23049  0
22732  23049  23047  0
22733  22728  23049  0
22453  22729  22736  0
22729  23050  22736  0
22735  22721  22730  0
22731  23043  23051  0
22731  23051  23052  0
23043  23044  23053  0
23043  23053  23051  0
23044  23054  23053  0
23044  23045  23054  0
23045  23055  23054  0
23045  23046  23056  0
23045  23056  23055  0
23046  22726  23056  0
22730  23057  22735  0
22730  22731  23057  0
23052  23057  22731  0
22457  22736  23058  0
22457  23058  23059  0
22457  23059  22458  0
22458  23060  22737  0
22738  22737  23060  0
22458  23059  23060  0
22738  23060  22739  0
22740  22739  23061  0
22743  22740  23062  0
22743  23062  22745  0
22745  23062  22748  0
23063  22748  23062  0
22748  23063  22750  0
22750  23063  22753  0
22751  23064  22752  0
22755  23065  22481  0
23065  22755  23066  0
22756  23066  22755  0
23065  23066  23067  0
23068  23067  23066  0
23066  22756  23068  0
23069  23068  22756  0
23070  23069  22756  0
23065  22759  22481  0
22756  22487  22760  0
23071  22756  22760  0
23072  23071  22760  0
22757  22754  23073  0
22757  23073  22758  0
23074  22758  23073  0
22475  22477  23075  0
23076  23075  22477  0
22485  22759  23077  0
22760  22490  23072  0
22233  22758  23074  0
22477  23078  23076  0
22477  22761  23078  0
23077  22486  22485  0
23079  22490  22491  0
22233  23080  22243  0
22498  22243  23080  0
22479  22762  23081  0
23082  22763  22486  0
22491  22764  23079  0
23083  23079  22764  0
23078  22761  23084  0
22767  23084  22761  0
22767  22768  23085  0
23082  23086  22763  0
22764  22769  23083  0
23087  23083  22769  0
22762  23088  23081  0
22762  22498  23088  0
23089  22770  23090  0
22770  23089  22771  0
22771  23089  22772  0
23091  22772  23089  0
23092  22503  23093  0
22503  22776  23093  0
22503  23092  22513  0
22763  23094  22505  0
22763  23086  23094  0
23095  23087  22769  0
22769  22777  23096  0
22769  23096  23095  0
23090  23097  23089  0
23089  23097  23098  0
23089  23098  23091  0
23091  23098  23099  0
22250  22786  22779  0
22766  22517  22768  0
22768  22793  23085  0
23094  22780  22505  0
22777  22778  23100  0
22777  23100  23096  0
22778  22781  23101  0
22778  23101  23100  0
22781  23102  23101  0
23097  23103  23098  0
23097  23104  23103  0
23098  23103  23105  0
23098  23106  23099  0
22783  23107  22784  0
22786  22785  23108  0
22786  23108  23109  0
22513  23110  22520  0
22517  22791  22768  0
22768  22791  22793  0
22792  23111  22793  0
22792  22522  22523  0
22792  22523  23111  0
22523  23112  23111  0
23094  22794  22780  0
22780  22794  22524  0
23103  23104  23113  0
23103  23113  23114  0
23098  23105  23106  0
22784  23107  23115  0
22798  22785  22788  0
22798  23116  23108  0
22798  23108  22785  0
22789  22520  23110  0
23103  23114  23117  0
23103  23117  23105  0
22787  22784  23118  0
22787  23118  22797  0
22799  22790  23119  0
22799  23119  23120  0
22799  23120  22801  0
22795  22263  22800  0
22802  22801  23121  0
22800  22531  23122  0
22800  23122  22795  0
22802  23121  22803  0
22805  23123  23122  0
22805  23122  22531  0
22805  22804  23123  0
22803  23124  22806  0
22536  23125  23126  0
22536  23126  22804  0
22808  22534  23127  0
22808  23127  23128  0
22534  22535  23129  0
22534  23129  23127  0
22535  22806  23124  0
22535  23124  23129  0
22809  23125  22536  0
22811  22278  23130  0
22278  22279  23130  0
22279  22807  23131  0
23127  23129  23132  0
23127  23132  23133  0
23124  23132  23129  0
22812  23134  22809  0
22812  22809  22810  0
22812  22819  23134  0
22539  23135  22813  0
22539  22540  23135  0
22540  23136  23135  0
22540  22814  23136  0
22543  22815  22817  0
22543  22817  22544  0
22818  23134  22819  0
22550  23137  23138  0
22550  23138  22815  0
22550  22821  23137  0
23139  23137  22821  0
22815  23138  23140  0
22815  23140  22817  0
22817  23140  23141  0
22817  23141  22816  0
22816  23142  22547  0
22822  22547  23142  0
22816  23141  23142  0
22553  22826  22818  0
22291  22548  23143  0
22291  23143  22556  0
22823  22814  22549  0
22821  22824  23139  0
22822  23142  23144  0
22822  23144  22826  0
22556  23145  22827  0
23146  22825  22831  0
22832  23147  22559  0
23145  22833  22827  0
23148  22828  22835  0
22830  22557  22061  0
22831  22569  23146  0
23149  23146  22569  0
22559  23150  22570  0
22838  22847  22835  0
23148  22835  22847  0
23151  22840  22836  0
22836  22841  23151  0
22842  22841  22567  0
23152  22569  22574  0
22574  22570  23152  0
22847  23153  23148  0
23154  23148  23153  0
22847  22845  23153  0
23155  23153  22845  0
23156  22839  22840  0
22840  23151  23157  0
22840  23157  23156  0
23158  23156  23157  0
23159  23151  22841  0
22841  22842  23159  0
23160  23159  22842  0
22842  22573  23160  0
23161  23160  22573  0
23162  22557  23163  0
22557  23162  22843  0
23164  22568  22843  0
23165  22843  23162  0
22568  23164  22844  0
22849  22844  23164  0
22845  22850  23155  0
23166  22850  22839  0
22839  23156  23166  0
23158  23166  23156  0
22573  22848  23161  0
23167  23161  22848  0
22843  23165  23164  0
23168  22853  22849  0
22848  22851  23167  0
23169  23167  22851  0
22851  22852  23169  0
22854  23169  22852  0
22576  22853  22856  0
23168  22856  22853  0
23170  23169  22854  0
22855  22856  22858  0
23171  22858  22856  0
22856  23168  23171  0
23172  23171  23168  0
22854  22857  23170  0
22858  23171  23173  0
23172  23173  23171  0
22858  23173  22859  0
22857  22860  23174  0
23175  23174  22860  0
22859  23173  22861  0
23176  22861  23173  0
22860  22862  23175  0
22861  23176  22863  0
23177  22863  23176  0
23175  22862  23178  0
23179  23178  22862  0
22862  22863  23179  0
22863  23177  23179  0
23180  23179  23177  0
22593  22864  23181  0
23182  23181  22864  0
23181  23183  22593  0
22866  23184  22867  0
22867  23185  22596  0
22591  23186  22864  0
23182  22864  23186  0
22591  22865  23186  0
22593  23183  22866  0
22596  23185  22868  0
23187  22865  22598  0
22598  22870  23187  0
23188  23187  22870  0
23189  23190  23191  0
23192  23191  23190  0
22870  22600  23188  0
23193  23188  22600  0
22872  23193  22600  0
22869  23194  22601  0
23195  23196  23189  0
23197  23189  23196  0
23189  23191  23195  0
23198  23191  23192  0
22601  23194  22871  0
22875  23199  23196  0
23197  23196  23199  0
23196  23195  22875  0
22874  22875  23195  0
23195  23191  22874  0
22877  22874  23191  0
23191  23198  22877  0
22881  23200  23199  0
23201  23199  23200  0
23199  22875  22881  0
22605  22881  22875  0
22877  23198  22878  0
23202  22878  23198  0
23203  22872  22880  0
22872  23203  23204  0
22891  22609  22871  0
23200  22881  22885  0
22882  22885  22881  0
23200  22885  23205  0
22878  23202  22887  0
23206  22887  23202  0
23203  22880  22883  0
23205  22885  22886  0
23205  22886  23207  0
22887  23206  22888  0
22891  23208  22890  0
23208  23207  22897  0
23208  22897  22890  0
23207  22886  22615  0
23207  22615  22897  0
22888  23206  23209  0
22888  23209  22892  0
23210  22892  23209  0
22893  22894  23211  0
22893  23211  22889  0
22883  23212  23203  0
22895  22892  23210  0
23213  22895  23210  0
23214  23215  22900  0
23214  22900  23216  0
23214  23216  23217  0
23215  22899  22900  0
22894  22896  23218  0
22894  23218  23219  0
22894  23219  23211  0
22890  22897  22093  0
22895  23213  22898  0
23216  23220  23221  0
23216  23221  23217  0
22899  23222  22901  0
22901  23223  22622  0
22619  23224  22896  0
22620  23221  23220  0
22620  22621  23221  0
22622  23223  23225  0
22622  23225  22623  0
22623  23225  22902  0
22902  22625  22347  0
22902  23225  23226  0
22902  23226  22625  0
22619  23227  23224  0
22619  22099  22903  0
22619  22903  23227  0
22621  22108  23228  0
22625  23226  23229  0
22625  23229  22626  0
22904  22905  23230  0
22107  23231  23228  0
22107  23228  22108  0
22906  22626  23229  0
22627  23232  23233  0
22627  23233  23234  0
22627  22350  22906  0
22627  22906  23232  0
22908  22627  23234  0
22632  23235  22115  0
22909  22908  23236  0
22909  23236  22634  0
22630  22631  23237  0
23238  23239  22639  0
23238  22639  22914  0
23238  22914  23240  0
23239  23241  22916  0
23239  22916  22639  0
23239  23238  23242  0
23239  23242  23241  0
23241  23243  23244  0
23241  23244  22916  0
23241  23242  23245  0
23241  23245  23243  0
23243  23246  23247  0
23243  23247  23244  0
23243  23245  23246  0
23246  23248  23247  0
23246  23245  23249  0
23246  23250  23251  0
23246  23251  23248  0
23246  23249  23250  0
23252  23253  23250  0
22634  23254  22912  0
22913  23240  22914  0
22916  23244  22919  0
22916  22919  22915  0
23244  23247  22645  0
23244  22645  22919  0
23247  23248  22920  0
23247  22920  22645  0
23248  23251  22920  0
23251  23250  23255  0
23251  23255  23256  0
23250  23253  23255  0
22912  23254  22917  0
22641  23257  22913  0
22920  23251  23256  0
22920  23256  22923  0
22918  22640  23258  0
22925  22923  23259  0
22925  23259  22929  0
22927  23260  22640  0
22640  23260  23258  0
22929  23261  22936  0
22635  22933  23262  0
22917  23254  22927  0
23263  22934  22936  0
23263  22936  23261  0
23263  22943  22934  0
22943  23263  22954  0
23264  22946  22952  0
22946  23264  22947  0
23264  22952  22951  0
23264  22957  22947  0
22661  22947  22957  0
23265  22963  22954  0
23266  22951  22956  0
22951  23266  23264  0
23267  23264  23266  0
23264  23267  22957  0
22958  22957  23267  0
22959  22967  23268  0
22959  23268  22960  0
22961  22960  22962  0
22953  22963  22972  0
23269  22956  22965  0
22956  23269  23266  0
22966  22958  23267  0
22671  23270  22967  0
23271  22671  22675  0
22667  22673  22672  0
23272  22965  22964  0
22965  23272  23269  0
23273  23269  23272  0
23269  23273  23266  0
23274  23266  23273  0
23266  23274  23267  0
23275  23267  23274  0
23267  23275  22966  0
22970  22966  23275  0
22975  23271  22675  0
23276  22971  22972  0
23277  22964  22969  0
23278  22964  23277  0
22964  23278  23272  0
23279  23275  23274  0
22971  23276  22984  0
22976  23280  22969  0
22969  23280  23277  0
23272  23281  23273  0
23272  23278  23281  0
23273  23281  23274  0
23275  23279  22970  0
23282  22970  23279  0
22970  23282  22978  0
22975  22677  23283  0
23284  23283  22677  0
22677  22979  23284  0
22976  22987  23280  0
23285  23280  22987  0
23280  23285  23277  0
23286  23277  23285  0
23277  23286  23278  0
23287  22982  22978  0
23288  22978  23282  0
22978  23288  23287  0
23289  23287  23288  0
22984  23290  22980  0
22986  23291  22987  0
23292  22987  23291  0
22987  23292  23285  0
23293  23285  23292  0
23294  22989  22982  0
22982  23287  23294  0
23295  23294  23287  0
23287  23289  23295  0
22983  22680  23296  0
23297  23296  22680  0
23298  22985  22980  0
22985  23298  22986  0
22986  23298  23291  0
22989  23294  23299  0
22989  23299  22990  0
23300  22990  23299  0
22408  23297  22680  0
23290  23301  22980  0
23302  23301  23290  0
22980  23301  23298  0
23298  23303  23291  0
23291  23303  23292  0
23304  23292  23303  0
23292  23304  23305  0
23300  22988  22990  0
23297  22408  22681  0
23306  23298  23301  0
23298  23306  23303  0
23307  23303  23306  0
23304  23303  23307  0
22988  23300  22991  0
23301  23302  23308  0
23301  23308  23306  0
23304  23307  23309  0
23308  23310  23306  0
23306  23311  23307  0
23307  23312  23309  0
23309  23312  23313  0
22684  23314  22419  0
22996  22419  23314  0
22992  23315  23316  0
22992  23316  22993  0
23306  23310  23311  0
23307  23311  23312  0
23312  23317  23313  0
23313  23318  23309  0
23315  22992  22997  0
22688  22687  23319  0
22688  23319  23320  0
22688  23320  22998  0
22687  22689  22999  0
22687  22999  23319  0
23311  23321  23312  0
23312  23321  23317  0
23317  23322  23323  0
23317  23323  23313  0
23321  23324  23317  0
23317  23324  23322  0
23322  23324  23325  0
23325  23326  23322  0
23002  23000  23327  0
23001  22691  23328  0
23311  23329  23321  0
23321  23330  23324  0
23321  23329  23330  0
23325  23324  23331  0
23325  23331  23332  0
22422  23002  23003  0
23324  23330  23333  0
23324  23333  23331  0
23003  23334  22694  0
22692  22423  23004  0
22692  23004  23335  0
23334  23003  23336  0
22426  23337  23007  0
22426  22692  23335  0
22426  23335  23337  0
23335  23004  23338  0
23004  22693  23005  0
22694  23334  23006  0
23334  23339  23006  0
23334  23336  23339  0
23339  23008  23006  0
23339  23336  23340  0
23008  23339  23340  0
23008  23340  23341  0
23341  23342  23012  0
23341  23012  23008  0
23341  23340  23343  0
23341  23343  23342  0
23342  23344  23345  0
23342  23345  23012  0
23005  23346  23347  0
23005  23010  23346  0
23010  22427  23011  0
23012  23345  23015  0
23345  23348  23015  0
23345  23344  23349  0
23345  23349  23348  0
23348  23349  23350  0
23007  23351  23352  0
23348  23350  23017  0
23348  23017  23015  0
23007  23352  23014  0
22699  23016  23011  0
23353  23354  23355  0
23353  23355  23356  0
23353  23356  23357  0
23356  23358  23357  0
23356  23355  23359  0
23359  23360  23356  0
23360  23359  23028  0
23360  23028  23361  0
23028  23362  23361  0
23014  23352  23363  0
23014  23363  23018  0
23354  23353  23364  0
23354  23365  23355  0
23366  23355  23365  0
23355  23366  23359  0
23026  23359  23366  0
23028  23359  23026  0
23028  23029  23362  0
23367  23362  23029  0
23017  23362  23367  0
21961  23368  22698  0
23018  23369  23019  0
23018  23363  23369  0
23019  23369  23023  0
23024  23020  23023  0
23370  23021  23025  0
23365  23354  23371  0
23365  23372  23366  0
23036  23366  23372  0
23366  23036  23026  0
23373  23367  23029  0
23367  23373  23022  0
23031  23022  23373  0
23367  23022  23017  0
21961  23032  23368  0
23023  23369  23374  0
23025  23033  23370  0
23375  23370  23033  0
23365  23376  23372  0
23377  23372  23376  0
23365  23371  23376  0
23378  23372  23377  0
23372  23378  23036  0
23379  23036  23378  0
23380  23036  23379  0
23036  23380  23027  0
23381  23027  23380  0
23027  23381  23029  0
23382  23029  23381  0
23029  23382  23373  0
23037  23031  23373  0
23023  23374  23383  0
23023  23383  23024  0
23024  23383  22718  0
23033  22722  23375  0
23384  23375  22722  0
23377  23376  23385  0
23377  23385  23378  0
23380  23386  23381  0
23048  23381  23386  0
23381  23048  23382  0
23047  23382  23048  0
23382  23047  23373  0
23049  23373  23047  0
23373  23049  23037  0
22728  23037  23049  0
23387  23032  22717  0
23388  22729  23041  0
23041  22718  23389  0
23041  23389  23390  0
23041  23390  23388  0
22722  23042  23384  0
23053  23391  23051  0
23392  23393  23391  0
23391  23053  23392  0
23394  23392  23053  0
23378  23385  23379  0
23379  23385  23395  0
23379  23395  23380  0
23380  23395  23386  0
23386  23056  23048  0
22726  23048  23056  0
23386  23395  23396  0
23386  23396  23056  0
22729  23388  23397  0
22729  23397  23050  0
23042  22735  23398  0
23057  23398  22735  0
23051  23399  23052  0
23399  23400  23052  0
23057  23052  23400  0
23391  23399  23051  0
23053  23054  23401  0
23053  23401  23394  0
23055  23401  23054  0
23396  23055  23056  0
22717  22734  23387  0
23050  23397  22736  0
23396  23401  23055  0
23402  23387  22734  0
23058  23403  23059  0
23404  23059  23403  0
22734  22459  23402  0
23059  23404  23060  0
23405  23060  23404  0
22741  23402  22459  0
23406  23402  22741  0
23407  23060  23405  0
23060  23407  22739  0
23408  22739  23407  0
22741  22468  23406  0
23409  22739  23408  0
22739  23409  23061  0
23410  23062  22740  0
22740  23061  23410  0
22468  22747  23411  0
23062  23412  23063  0
23413  22747  22749  0
23063  23414  22753  0
22751  22472  23064  0
22752  23415  22749  0
22753  23414  22754  0
22472  22475  23416  0
22472  23416  23064  0
23065  23067  23417  0
23065  23417  23418  0
23067  23068  23419  0
23067  23419  23417  0
23068  23069  23420  0
23068  23420  23419  0
23069  23070  23420  0
22754  23414  23421  0
22754  23421  23073  0
23080  23073  23421  0
23416  22475  23075  0
23416  23075  23422  0
22756  23071  23070  0
23073  23080  23074  0
23075  23076  23422  0
23423  22486  23077  0
23074  23080  22233  0
23082  23423  23424  0
23082  22486  23423  0
22490  23079  23425  0
22490  23425  23072  0
23426  22498  23080  0
23076  23078  23084  0
23085  23427  22767  0
23085  23428  23429  0
23428  23085  23430  0
23428  23430  23424  0
23424  23430  23086  0
23424  23086  23082  0
23079  23083  23431  0
23079  23431  23425  0
23085  23111  23430  0
23432  23433  23434  0
23434  23083  23435  0
23434  23435  23432  0
23434  23433  23431  0
23434  23431  23083  0
23083  23087  23435  0
23426  23436  23088  0
23426  23088  22498  0
23088  23437  23438  0
22776  23439  23093  0
22776  23440  23439  0
23093  23441  23092  0
23092  23442  22513  0
23092  23441  23443  0
23092  23443  23442  0
23085  22793  23111  0
23430  23111  23112  0
23430  23112  23094  0
23430  23094  23086  0
23087  23095  23096  0
23087  23096  23444  0
23087  23444  23435  0
23445  22779  22786  0
23445  22786  23109  0
23445  23446  23447  0
23445  23447  22779  0
23445  23109  23446  0
22779  23447  23440  0
22779  23440  22776  0
23444  23096  23448  0
23096  23100  23449  0
23096  23449  23448  0
23101  23102  23100  0
23088  23436  23450  0
23104  23090  23451  0
23099  23106  23107  0
23452  23453  23108  0
23452  23108  23116  0
23452  23454  23455  0
23452  23455  23453  0
23452  23116  23456  0
23452  23456  23454  0
23453  23109  23108  0
23453  23455  23446  0
23453  23446  23109  0
23442  23110  22513  0
23442  23443  23110  0
22781  22261  22795  0
23104  23451  23113  0
23106  23105  23107  0
23457  23107  23105  0
23107  23457  23115  0
23118  22784  23115  0
23115  23457  23458  0
23115  23458  23459  0
23115  23459  23118  0
23118  23116  22797  0
22798  22797  23116  0
23118  23459  23456  0
23118  23456  23116  0
22790  22789  23119  0
23460  23461  22789  0
22789  23110  23460  0
22523  22794  23112  0
22781  22795  23102  0
23462  23102  22795  0
23113  23463  23114  0
23464  23117  23114  0
23465  23117  23464  0
23117  23465  23105  0
23466  23105  23465  0
23105  23466  23457  0
23467  23121  23120  0
22801  23120  23121  0
23119  23467  23120  0
23114  23463  23468  0
23114  23468  23464  0
23466  23465  23469  0
23467  23470  23121  0
22795  23122  23471  0
23121  23470  23472  0
23121  23472  22803  0
23123  23471  23122  0
23473  23123  22804  0
22803  23472  23474  0
23125  23475  23126  0
23476  23126  23475  0
23126  23476  23473  0
23126  23473  22804  0
22803  23474  23124  0
23125  23477  23475  0
23125  22809  23477  0
23475  23477  23478  0
23475  23478  23476  0
23131  23130  22279  0
23131  22807  23479  0
23128  23479  22807  0
22807  22808  23128  0
23128  23127  23133  0
23124  23480  23132  0
23134  23481  23482  0
23134  23482  22809  0
22542  22811  23483  0
23130  23483  22811  0
23480  23484  23133  0
23133  23132  23480  0
23134  22818  23485  0
22285  22813  22820  0
23136  22814  23486  0
23487  23138  23137  0
23488  23137  23139  0
23138  23487  23140  0
23489  23140  23487  0
23140  23490  23141  0
23140  23489  23490  0
23485  22818  22826  0
22548  22820  23491  0
22548  23491  23143  0
23492  22820  22813  0
22814  22823  23486  0
23139  22824  23493  0
22825  23493  22824  0
23139  23493  23488  0
23494  23141  23490  0
23141  23494  23142  0
23495  23142  23494  0
23142  23495  23144  0
22556  23143  23145  0
23496  22823  22828  0
22829  23497  22830  0
23498  23493  22825  0
22825  23146  23498  0
23499  23498  23146  0
22832  22833  23147  0
23145  23147  22833  0
22828  23148  23496  0
23154  23496  23148  0
23500  22830  23497  0
23149  23499  23146  0
22559  23147  23501  0
22559  23501  23150  0
23163  22557  22830  0
23163  22830  23500  0
23152  23149  22569  0
23152  22570  23502  0
23150  23502  22570  0
23503  23154  23153  0
23157  23151  23158  0
23504  23158  23151  0
23151  23159  23504  0
23160  23504  23159  0
23505  23155  22850  0
22850  23166  23506  0
22850  23506  23505  0
23166  23158  23507  0
23508  23507  23158  0
23158  23504  23508  0
23162  23509  23165  0
23168  22849  23164  0
23507  23506  23166  0
23510  23161  23167  0
23167  23169  23511  0
23167  23511  23510  0
23165  23509  23164  0
23512  23164  23509  0
23164  23512  23168  0
23511  23169  23170  0
23511  23170  23513  0
23511  23513  23514  0
23511  23514  23510  0
23168  23515  23172  0
23516  23172  23515  0
23170  22857  23174  0
23170  23174  23517  0
23170  23517  23513  0
23173  23172  23518  0
23172  23516  23518  0
23519  23518  23516  0
23517  23174  23175  0
23517  23175  23520  0
23173  23518  23519  0
23173  23519  23177  0
23173  23177  23176  0
23520  23175  23178  0
23520  23178  23521  0
23520  23521  23522  0
23520  23522  23517  0
23521  23178  23523  0
23521  23523  23524  0
23521  23524  23525  0
23521  23525  23522  0
23178  23179  23523  0
23177  23526  23180  0
23523  23179  23527  0
23523  23527  23524  0
23179  23180  23528  0
23179  23528  23527  0
23526  23529  23180  0
23528  23180  23529  0
23527  23528  23524  0
23181  23530  23183  0
23531  23183  23530  0
23181  23182  23532  0
23181  23532  23530  0
23183  23531  22866  0
23184  22866  23531  0
23184  23533  22867  0
23534  22867  23533  0
22867  23534  23185  0
23535  23185  23534  0
23185  23535  22868  0
23536  22868  23535  0
23186  22865  23187  0
23186  23187  23182  0
23182  23187  23537  0
23182  23537  23532  0
22869  22868  23536  0
23190  23538  23539  0
23538  23190  23189  0
23187  23188  23193  0
23187  23193  23540  0
23187  23540  23541  0
23187  23541  23537  0
23540  23193  23542  0
23540  23542  23541  0
22869  23543  23194  0
23538  23189  23544  0
23193  22872  23545  0
23193  23545  23542  0
23546  23197  23199  0
23546  23199  23201  0
23197  23544  23189  0
23545  22872  23547  0
23194  23548  22871  0
23549  23201  23200  0
23549  23200  23550  0
23546  23201  23549  0
22872  23204  23547  0
22871  23548  22891  0
23551  23552  23550  0
23549  23550  23552  0
23550  23200  23205  0
23198  23553  23554  0
23198  23554  23202  0
22891  23548  23208  0
23548  23555  23208  0
23555  23548  23551  0
23551  23550  23205  0
23551  23205  23555  0
23202  23554  23556  0
23202  23556  23206  0
23555  23207  23208  0
23555  23205  23207  0
23206  23556  23557  0
23209  23206  23557  0
23209  23557  23558  0
23209  23558  23210  0
23215  23214  23559  0
23215  23559  22899  0
22899  23559  23222  0
22889  23211  23560  0
22889  23560  22883  0
22883  23560  23212  0
23210  23558  23213  0
23211  23561  23560  0
23211  23219  23562  0
23212  23563  23203  0
23213  23564  22898  0
23217  23221  23565  0
22901  23222  23223  0
23218  22896  23224  0
22898  23564  23566  0
23221  23567  23565  0
23221  22621  23568  0
23221  23568  23567  0
23225  23569  23226  0
23218  23224  23570  0
23218  23570  23571  0
23218  23571  23219  0
22898  23566  22628  0
22621  23228  23568  0
23224  23227  23570  0
23227  22903  23572  0
22903  22904  23230  0
22903  23230  23572  0
22628  23566  23573  0
23229  23226  23574  0
23229  23574  23575  0
23229  23575  22906  0
23230  23576  23572  0
23573  22629  22628  0
22115  23231  22107  0
23235  23231  22115  0
23232  22906  23575  0
22907  23230  22905  0
22910  22629  23577  0
22629  23573  23577  0
23232  23234  23233  0
23230  22907  23576  0
23578  23576  22907  0
22907  22630  23578  0
23237  23578  22630  0
23235  22632  23579  0
23245  23242  23580  0
23581  23580  23242  0
23580  23582  23245  0
23582  23249  23245  0
23582  23583  23249  0
23250  23249  23584  0
23249  23583  23584  0
23584  23252  23250  0
23584  23585  23252  0
23252  23585  23586  0
23252  23586  23253  0
23236  23254  22634  0
23587  23238  23240  0
23238  23588  23581  0
23238  23581  23242  0
23238  23587  23588  0
23262  23237  22631  0
22913  23257  23240  0
23589  23240  23257  0
23240  23589  23587  0
23255  23590  23256  0
23255  23253  23591  0
22631  22635  23262  0
22641  22918  23257  0
23592  23257  22918  0
23257  23592  23593  0
23257  23593  23589  0
23256  23594  22923  0
22918  23258  23595  0
22918  23595  23592  0
23259  22923  23596  0
23594  23596  22923  0
23260  23597  23258  0
23258  23597  23598  0
23259  23261  22929  0
22933  23599  23262  0
23600  23599  22933  0
23254  23601  22927  0
22927  23601  23602  0
22927  23602  23260  0
23603  23263  23261  0
22933  22932  23604  0
22932  22938  23604  0
22654  23605  22938  0
22954  23263  23603  0
23605  22654  22948  0
23606  23605  22948  0
23603  23265  22954  0
22967  23270  23268  0
23607  23268  23270  0
23268  23607  22960  0
23608  22960  23607  0
22960  23608  22962  0
23609  22962  23608  0
22962  23609  22666  0
22672  22666  23609  0
23609  23610  22672  0
23609  23611  23610  0
23610  23612  22672  0
22667  22672  23612  0
23606  23612  23610  0
23612  22948  22667  0
23612  23606  22948  0
22972  22963  23613  0
22671  23271  23270  0
23270  23271  23614  0
23615  23614  23271  0
23615  23271  23616  0
23271  22975  23616  0
22975  23283  23616  0
23617  22984  23276  0
23617  23618  22984  0
23278  23286  23281  0
23619  23282  23279  0
23282  23619  23288  0
23620  23288  23619  0
23621  23288  23620  0
22983  23296  23622  0
23618  23290  22984  0
23285  23293  23286  0
23286  23293  23623  0
23286  23623  23624  0
23289  23288  23625  0
23289  23625  23295  0
23288  23621  23625  0
23292  23305  23293  0
23293  23626  23623  0
23294  23295  23627  0
23294  23627  23299  0
23295  23625  23628  0
23295  23628  23627  0
23618  23629  23302  0
23618  23302  23290  0
23293  23630  23626  0
23293  23305  23630  0
23300  23299  23631  0
23299  23627  23631  0
23632  22681  23633  0
22681  22410  23633  0
22681  23632  23297  0
23304  23309  23305  0
23300  23631  23634  0
23300  23634  22991  0
22410  22417  23635  0
22410  23635  23633  0
23636  23308  23302  0
23305  23309  23637  0
23305  23637  23630  0
22991  23634  23314  0
22991  23314  22684  0
23638  22995  22994  0
22994  22993  23639  0
23640  22995  23638  0
22995  23640  22686  0
23308  23636  23310  0
23316  23315  23641  0
23316  23641  22993  0
23639  22993  23641  0
22686  23640  22999  0
22417  22167  23642  0
23318  23313  23323  0
23318  23637  23309  0
22996  23314  22997  0
23643  22997  23314  0
22997  23643  23315  0
23000  22998  23320  0
23310  23636  23644  0
23310  23644  23311  0
23323  23645  23318  0
23323  23322  23326  0
23326  23325  23332  0
23326  23646  23323  0
23002  23327  23647  0
23311  23648  23329  0
23332  23331  23649  0
23002  23647  23650  0
23002  23650  23003  0
23329  23651  23330  0
23329  23652  23651  0
23003  23650  23336  0
23330  23653  23654  0
23330  23651  23653  0
23330  23654  23333  0
23331  23333  23655  0
23331  23655  23649  0
23649  23655  23656  0
23649  23656  23657  0
23336  23650  23658  0
23336  23658  23659  0
23659  23340  23336  0
23007  23337  23351  0
23333  23654  23655  0
23340  23659  23660  0
23340  23660  23661  0
23661  23343  23340  0
23004  23005  23347  0
23004  23347  23338  0
23654  23662  23655  0
23343  23663  23342  0
23342  23663  23664  0
23342  23664  23344  0
23344  23664  23349  0
23665  22691  21476  0
21476  22697  23665  0
23351  23666  23352  0
23667  23346  23010  0
23010  23011  23667  0
23358  23356  23668  0
23360  23668  23356  0
23358  23668  23669  0
23668  23360  23670  0
23361  23670  23360  0
23668  23670  23669  0
23670  23361  23671  0
23672  23670  23671  0
23017  23350  23671  0
23671  23350  23672  0
23349  23672  23350  0
23673  23667  23011  0
23011  23016  23673  0
23357  23674  23353  0
23361  23362  23671  0
23671  23362  23017  0
23675  23673  23016  0
23016  23021  23675  0
23364  23353  23674  0
23352  23676  23677  0
23352  23677  23363  0
23678  23021  23370  0
23364  23679  23354  0
23371  23354  23679  0
23363  23677  23680  0
23363  23680  23369  0
23681  23369  23680  0
23374  23369  23681  0
23370  23375  23678  0
23682  23678  23375  0
23683  23679  23684  0
23679  23683  23371  0
23376  23371  23683  0
23681  23685  23374  0
23383  23374  23685  0
23383  23389  22718  0
23375  23384  23682  0
23686  23682  23384  0
23393  23684  23687  0
23684  23393  23683  0
23392  23683  23393  0
23683  23392  23376  0
23688  23376  23392  0
23385  23376  23688  0
23032  23387  23689  0
23690  23689  23387  0
23383  23685  23691  0
23383  23691  23389  0
23389  23691  23692  0
23389  23692  23390  0
23384  23042  23693  0
23398  23693  23042  0
23384  23693  23686  0
23694  23693  23398  0
23399  23687  23400  0
23400  23687  23695  0
23687  23399  23393  0
23391  23393  23399  0
23392  23394  23688  0
23688  23394  23385  0
23696  23385  23394  0
23395  23385  23696  0
23388  23390  23397  0
23697  23397  23390  0
23390  23692  23697  0
23698  23697  23692  0
23398  23057  23699  0
23398  23699  23694  0
23699  23057  23400  0
23394  23401  23696  0
23696  23401  23395  0
23396  23395  23401  0
23403  22736  23397  0
23397  23697  23403  0
23700  23403  23697  0
23387  23402  23690  0
22736  23403  23058  0
23404  23403  23700  0
23404  23407  23405  0
23411  23406  22468  0
23062  23410  23412  0
23701  23412  23410  0
23412  23701  23063  0
23702  23063  23701  0
22747  23413  23411  0
23063  23702  23414  0
22752  23064  23415  0
22749  23415  23413  0
23417  23419  23703  0
23417  23703  23418  0
23064  23416  23415  0
23704  22759  23065  0
23419  23420  23703  0
23705  23080  23421  0
23705  23421  23706  0
23707  23705  23706  0
23421  23414  23708  0
23421  23708  23706  0
23070  23071  23709  0
23070  23709  23710  0
23705  23707  23080  0
23422  23711  23416  0
23429  23712  23713  0
23071  23072  23714  0
23071  23714  23715  0
23071  23715  23709  0
23422  23076  23084  0
23427  23085  23429  0
23712  23429  23428  0
23712  23428  23716  0
23716  23428  23424  0
23716  23424  23717  0
23424  23423  23717  0
23072  23425  23714  0
23080  23718  23426  0
23719  22767  23427  0
23084  22767  23719  0
23714  23425  23720  0
23425  23431  23721  0
23425  23721  23720  0
23441  23093  23439  0
23432  23722  23433  0
23433  23721  23431  0
23426  23723  23436  0
23438  23437  23724  0
23440  23447  23446  0
23440  23446  23725  0
23440  23725  23439  0
23441  23726  23443  0
23432  23727  23722  0
23432  23435  23727  0
23435  23444  23728  0
23435  23728  23729  0
23435  23729  23727  0
23437  23088  23450  0
23437  23450  23730  0
23725  23446  23455  0
23725  23455  23731  0
23444  23448  23732  0
23444  23732  23728  0
23448  23449  23733  0
23448  23733  23732  0
23100  23102  23734  0
23100  23734  23449  0
23090  23735  23451  0
23736  23454  23456  0
23736  23456  23459  0
23736  23737  23738  0
23736  23738  23454  0
23736  23459  23458  0
23736  23458  23737  0
23454  23738  23731  0
23454  23731  23455  0
23110  23443  23460  0
23443  23739  23460  0
22794  23094  23112  0
23740  23119  23461  0
22789  23461  23119  0
23740  23461  23741  0
23461  23460  23741  0
23739  23741  23460  0
23102  23462  23742  0
23466  23469  23457  0
23743  23457  23469  0
23457  23743  23744  0
23745  23470  23467  0
23467  23119  23745  0
23740  23745  23119  0
23471  23462  22795  0
23463  23746  23468  0
23469  23465  23464  0
23747  23470  23745  0
23468  23746  23748  0
23468  23748  23464  0
23464  23748  23749  0
23464  23749  23469  0
23469  23749  23750  0
23747  23472  23470  0
23123  23751  23471  0
23123  23473  23751  0
23752  23751  23473  0
23476  23478  23473  0
23752  23473  23478  0
23124  23474  23753  0
23477  22809  23482  0
23477  23754  23478  0
23478  23754  23752  0
23130  23131  23755  0
23479  23756  23131  0
23757  23479  23128  0
23133  23757  23128  0
23758  23484  23753  0
23480  23753  23484  0
23758  23753  23759  0
23474  23759  23753  0
23753  23480  23124  0
23481  23134  23760  0
23481  23760  23761  0
23481  23761  23482  0
23482  23761  23762  0
23482  23762  23477  0
23477  23762  23754  0
23135  23136  23763  0
23136  23486  23763  0
23764  23763  23486  0
23483  23765  22542  0
23755  23483  23130  0
23758  23757  23133  0
23133  23484  23758  0
23485  23766  23760  0
23485  23760  23134  0
23767  23766  23485  0
22813  23768  23492  0
22541  22542  22829  0
23765  22829  22542  0
23137  23488  23487  0
23769  23487  23488  0
23487  23770  23771  0
23487  23771  23489  0
23487  23769  23770  0
23772  23770  23769  0
23489  23771  23773  0
23489  23773  23490  0
23767  22826  23144  0
23495  23767  23144  0
22826  23767  23485  0
23491  22820  23774  0
23492  23774  22820  0
23486  22823  23764  0
23496  23764  22823  0
22829  23765  23497  0
23488  23775  23772  0
23488  23772  23769  0
23488  23493  23775  0
23498  23775  23493  0
23490  23773  23776  0
23490  23776  23494  0
23494  23776  23777  0
23494  23777  23495  0
23143  23491  23145  0
23147  23145  23778  0
23779  23778  23145  0
23147  23778  23501  0
23491  23779  23145  0
23780  23496  23154  0
23154  23503  23780  0
23781  23150  23501  0
23153  23155  23503  0
23505  23503  23155  0
23782  23163  23500  0
23783  23505  23506  0
23784  23507  23508  0
23508  23504  23784  0
23785  23784  23504  0
23504  23160  23785  0
23161  23785  23160  0
23163  23782  23162  0
23162  23782  23509  0
23786  23506  23507  0
23507  23784  23786  0
23787  23784  23785  0
23785  23161  23788  0
23789  23788  23161  0
23161  23510  23789  0
23790  23509  23782  0
23509  23790  23791  0
23509  23791  23512  0
23515  23512  23791  0
23512  23515  23168  0
23506  23786  23783  0
23787  23786  23784  0
23789  23510  23792  0
23514  23792  23510  0
23793  23515  23791  0
23515  23793  23516  0
23514  23513  23794  0
23514  23794  23795  0
23514  23795  23792  0
23516  23796  23519  0
23516  23793  23796  0
23794  23513  23517  0
23794  23517  23797  0
23519  23796  23798  0
23519  23798  23799  0
23519  23799  23177  0
23797  23517  23522  0
23177  23799  23526  0
23800  23526  23799  0
23522  23801  23797  0
23522  23525  23801  0
23526  23800  23529  0
23802  23529  23800  0
23525  23524  23803  0
23529  23802  23528  0
23524  23528  23802  0
23524  23802  23803  0
23530  23804  23531  0
23530  23532  23804  0
23805  23535  23534  0
23535  23806  23536  0
23807  23535  23805  0
23535  23807  23806  0
23808  23809  23810  0
23808  23539  23809  0
23811  23808  23812  0
23808  23811  23539  0
23813  23539  23811  0
23532  23537  23814  0
23809  23544  23197  0
23809  23197  23810  0
23809  23539  23538  0
23809  23538  23544  0
23539  23813  23190  0
23537  23541  23815  0
23537  23815  23814  0
22869  23536  23543  0
23536  23816  23817  0
23536  23817  23543  0
23536  23806  23816  0
23818  23816  23806  0
23816  23818  23546  0
23818  23197  23546  0
23810  23197  23818  0
23819  23192  23190  0
23543  23820  23194  0
23543  23817  23820  0
23817  23816  23821  0
23817  23821  23820  0
23816  23546  23549  0
23816  23549  23821  0
23819  23198  23192  0
23545  23547  23542  0
23194  23820  23548  0
23820  23552  23548  0
23820  23821  23552  0
23821  23549  23552  0
23822  23553  23819  0
23819  23553  23198  0
23552  23551  23548  0
23823  23822  23824  0
23822  23823  23553  0
23554  23553  23823  0
23204  23825  23547  0
23826  23556  23554  0
23204  23203  23825  0
23556  23826  23557  0
23827  23557  23826  0
23203  23563  23825  0
23557  23827  23558  0
23828  23558  23827  0
23559  23829  23222  0
23558  23828  23830  0
23558  23830  23213  0
23214  23217  23831  0
23211  23562  23561  0
23561  23832  23560  0
23560  23832  23212  0
23213  23830  23564  0
23217  23565  23831  0
23222  23833  23223  0
23222  23834  23833  0
23833  23835  23223  0
23562  23836  23561  0
23561  23836  23832  0
23832  23563  23212  0
23223  23835  23225  0
23219  23837  23562  0
23566  23564  23838  0
23568  23228  23839  0
23569  23840  23226  0
23219  23571  23841  0
23219  23841  23837  0
23571  23570  23842  0
23571  23842  23841  0
23570  23227  23843  0
23570  23843  23842  0
23566  23838  23573  0
23228  23231  23839  0
23574  23226  23840  0
23842  23843  23844  0
23227  23572  23845  0
23227  23845  23843  0
23572  23576  23845  0
23232  23575  23846  0
23574  23846  23575  0
23232  23846  23847  0
23841  23842  23848  0
23844  23848  23842  0
23845  23844  23843  0
23845  23576  23849  0
23234  23232  23847  0
23234  23847  23850  0
23234  23850  22908  0
23849  23576  23851  0
23578  23851  23576  0
23577  23852  22910  0
22908  23850  23236  0
23853  23580  23581  0
23580  23853  23854  0
23580  23854  23582  0
23582  23854  23583  0
23584  23583  23585  0
23850  23855  23236  0
23236  23855  23254  0
23588  23856  23581  0
23857  23588  23587  0
23581  23856  23853  0
23586  23858  23253  0
23599  23237  23262  0
22910  23859  22911  0
23254  23855  23601  0
23589  23593  23587  0
23860  23587  23593  0
23587  23860  23857  0
23255  23591  23590  0
23591  23253  23861  0
23858  23861  23253  0
23591  23861  23862  0
23591  23862  23590  0
23592  23595  23593  0
