#!ascii file
 43.108330  -44.307629    9.171600  0
 44.679127  -44.135624   10.161250  0
  2.463864  -44.217033    9.706913  0
 62.645874  -49.118305    9.826685  0
 63.394733  -48.496841    9.025161  0
 57.438744  -48.666031    9.566275  0
  3.736513  -44.704563    7.992879  0
 61.931217  -49.635704    9.012383  0
 60.068886  -49.844635    9.026452  0
  5.027155  -44.705627    7.633651  0
 63.463242  -46.834991    9.148748  0
 49.024647  -44.158161    8.602651  0
 46.286793  -44.821461    8.443812  0
  6.691570  -45.228390    7.577728  0
 63.503384  -45.930138    4.040388  0
 62.473236  -46.945694    3.601333  0
  2.081142  -45.176380    5.887027  0
  5.846716  -45.700726    6.892854  0
 61.157845  -47.097126    3.425666  0
 59.158619  -46.535500    3.319083  0
 57.958447  -46.107254    2.740385  0
 57.954044  -45.460060    1.859830  0
 59.117901  -45.753384    0.866124  0
 47.851917  -45.488495    0.369201  0
 58.681076  -48.897934   -1.010736  0
 60.493752  -48.504501   -0.664584  0
 59.407578  -48.035255   -0.246096  0
 51.371086  -46.303928   -0.204757  0
 46.350269  -45.461594   -0.242418  0
 45.636452  -45.951630   -0.959774  0
 59.526222  -49.031525   -1.862693  0
 61.872696  -48.370609   -0.825552  0
 56.752831  -48.088898   -2.764071  0
 55.042728  -46.765053   -2.576409  0
 52.602688  -46.092922   -1.062108  0
 65.254181  -48.594673   -2.437464  0
 64.148132  -47.750885   -1.396677  0
 59.027599  -48.620266   -3.292381  0
 57.423721  -47.605289   -3.625382  0
 59.368477  -47.934742   -4.553527  0
  1.740401  -43.552177   -0.214792  0
 61.103699  -48.295341   -5.040736  0
 44.363850  -47.273228   -4.492627  0
 63.849022  -48.333668   -4.928691  0
 62.482357  -48.444260   -5.227268  0
 43.888912  -47.881905   -7.045859  0
  2.519933  -41.662888   -5.035633  0
 52.483257  -48.316681   -7.407730  0
 52.299431  -47.303238   -6.105794  0
 50.058846  -48.462173   -7.938317  0
 49.729031  -47.635811   -6.879134  0
 51.676388  -46.996685   -5.457434  0
 50.697166  -47.027634   -5.158895  0
 47.843506  -47.532803   -6.576605  0
 46.353020  -48.142315   -7.770604  0
 57.131824  -48.935009   -8.075747  0
 56.824493  -49.727398   -9.338085  0
 58.033543  -49.089149   -9.643654  0
 54.246395  -48.856972   -7.528217  0
 54.877209  -49.621464   -8.503686  0
 54.990780  -47.738697   -6.822457  0
 54.044086  -47.253506   -6.278068  0
 51.992504  -49.127308   -8.673107  0
 48.837158  -48.954960   -9.054161  0
 45.722561  -48.555393   -9.518430  0
  3.666852  -43.963192  -10.214435  0
 58.719540  -48.170776   -9.577514  0
 53.614090  -49.638134   -9.376264  0
 51.396488  -49.156364  -10.038186  0
 48.228580  -49.004211  -10.141748  0
 57.226040  -49.209267  -10.763749  0
 55.060768  -49.352509  -10.578609  0
 44.878765  -48.304089  -10.857760  0
  8.671952  -44.130936  -15.101705  0
 48.391518  -46.407490  -13.880510  0
 12.746436  -45.798916  -16.572115  0
  9.374238  -43.034592  -15.515704  0
 27.241259  -43.292465  -17.398348  0
 14.467370  -45.084110  -16.971502  0
 51.540302  -46.438335  -15.505865  0
 53.998974  -46.734020  -16.752922  0
 29.754812  -43.534218  -17.393633  0
 56.143341  -47.367653  -17.624905  0
 25.844017  -43.724644  -20.408537  0
 24.557564  -43.014111  -21.122671  0
 62.443851  -47.194832  -19.034264  0
 61.915878  -47.503242  -18.150827  0
 60.641953  -47.972672  -17.776348  0
 59.221230  -47.465416  -17.086958  0
 38.958641  -44.344814  -20.439699  0
 18.180645  -43.435276  -19.273411  0
 17.811625  -42.200054  -20.746864  0
 53.534096  -45.588921  -22.004244  0
 51.006001  -45.537327  -20.809494  0
 50.449837  -44.826630  -21.000328  0
 49.824192  -46.073536  -21.672764  0
 37.132961  -44.578236  -21.866911  0
 20.983955  -41.964169  -22.582472  0
 61.370018  -47.174377  -21.575069  0
 56.329182  -45.081894  -24.122280  0
 54.780224  -45.508217  -23.099737  0
 41.148014  -44.504570  -21.883730  0
 17.101772  -42.325066  -23.030542  0
 60.003960  -45.692581  -23.216217  0
 58.636101  -45.768700  -24.266403  0
 41.934887  -44.900654  -23.363165  0
 50.260880  -45.723499  -22.841909  0
 51.365837  -45.643299  -24.252684  0
 38.720970  -43.454105  -24.830669  0
 39.091862  -43.806236  -25.428040  0
 26.449644  -45.697254  -22.453274  0
 52.146713  -46.674065  -25.428089  0
 42.892078  -43.759647  -25.136009  0
 39.836029  -43.862904  -26.503944  0
 23.441240  -45.690586  -23.802525  0
 54.261330  -48.034122  -29.476112  0
 43.749573  -45.131180  -27.850492  0
 44.905487  -45.346401  -29.445114  0
 22.025656  -45.205269  -25.922091  0
 22.249962  -45.280216  -27.231926  0
 40.872883  -43.610519  -27.824373  0
 25.638454  -45.336765  -29.178726  0
 23.361233  -45.365196  -28.385616  0
 55.732677  -49.702404  -31.723850  0
 31.228731  -43.851467  -31.080196  0
 55.717297  -50.680145  -32.988811  0
 47.370628  -45.594822  -33.646980  0
 42.619053  -41.849743  -30.405483  0
 55.088951  -50.058941  -34.335461  0
 56.060856  -49.798672  -32.972248  0
 43.489365  -42.133297  -31.031052  0
 42.988987  -41.898979  -32.027473  0
 36.439396  -43.624489  -34.081429  0
 41.930450  -41.666199  -33.010033  0
 38.117393  -43.000652  -34.198048  0
 39.436192  -42.988480  -34.594498  0
 10.827408  -44.083775   56.598721  0
  8.256145  -43.882694   56.901577  0
 13.046679  -43.774300   55.764690  0
  4.956294  -45.079353   56.563869  0
  1.468847  -43.700741   54.778248  0
 14.648285  -46.733646   54.590557  0
 13.678270  -46.852909   52.892776  0
 14.749990  -45.894505   52.713776  0
 15.668960  -45.061642   54.744667  0
  0.146545  -45.300316   53.309753  0
 13.432828  -46.806770   51.183372  0
 14.421133  -46.525879   50.300838  0
  0.038947  -44.899147   51.791821  0
 13.153098  -46.526672   49.331974  0
 12.264530  -47.047760   49.921417  0
  0.034422  -44.137043   50.620857  0
 36.248711  -44.295830   48.650421  0
 34.424335  -43.933422   47.868366  0
 18.714067  -45.513863   49.814198  0
 17.066786  -45.855011   50.321289  0
 15.979180  -46.876793   49.223438  0
 15.820657  -47.073326   48.057873  0
 15.752905  -46.265160   50.405792  0
 10.911880  -46.075920   47.312599  0
 -0.085004  -44.367901   48.690598  0
 36.978195  -43.991306   48.089211  0
 22.276432  -45.069382   50.010799  0
 20.549278  -44.784264   50.032078  0
 15.649983  -46.948193   46.478386  0
 14.871300  -46.880795   47.175285  0
 -0.134053  -43.745956   46.607330  0
 39.012589  -44.040424   46.388206  0
 37.367943  -43.858528   46.797272  0
 33.512211  -44.283909   46.821480  0
 35.824471  -43.155022   47.835346  0
 32.385952  -44.417576   46.000408  0
 16.060822  -47.020077   43.880676  0
 15.057899  -46.807945   44.705368  0
 40.669151  -44.456062   45.765842  0
 41.882412  -44.503040   45.472038  0
 30.618343  -44.538330   45.026863  0
 23.275738  -46.890747   45.824505  0
 23.005611  -46.745220   44.024998  0
 21.854761  -47.165840   43.504189  0
 34.363724  -44.013809   45.016655  0
 27.956223  -43.750824   43.437721  0
 10.899843  -45.601089   43.599720  0
 42.736614  -45.060734   44.595531  0
 43.724396  -44.992374   43.402039  0
 32.846165  -44.535759   44.094055  0
 32.216724  -44.225266   42.856358  0
 18.453711  -47.435806   42.468266  0
  0.371779  -43.635803   40.503853  0
 20.176004  -47.140591   42.126221  0
 19.318098  -46.605614   41.105694  0
 48.016930  -46.244411   41.199955  0
 47.006741  -45.660362   41.697708  0
 46.126030  -45.478458   42.240719  0
 26.148926  -42.595924   41.462608  0
 25.305433  -41.974430   39.966053  0
  1.066153  -43.053455   38.512604  0
 49.095837  -46.258987   40.115646  0
 38.030704  -46.465717   37.495983  0
 12.689632  -45.233185   39.950180  0
 42.104519  -48.123768   37.978260  0
 37.480659  -46.746265   37.003189  0
 23.618210  -42.816216   38.646584  0
 24.199816  -41.272099   38.124458  0
  3.620725  -43.512669   35.622742  0
  1.741386  -42.897457   37.442768  0
 38.937786  -46.690304   37.034687  0
 23.043863  -41.863632   37.079487  0
 21.695219  -42.544983   36.412849  0
  5.261540  -43.920639   35.186573  0
 49.286602  -45.644314   36.837559  0
 20.066174  -43.829391   36.244534  0
 17.577084  -44.183022   36.726467  0
 19.424845  -43.704998   35.978073  0
  7.477346  -44.140190   34.581314  0
  9.152709  -44.011005   33.807507  0
 46.458324  -46.267422   33.390675  0
 10.432707  -43.649521   33.068527  0
 43.797630  -45.492672   30.239012  0
 44.473518  -43.915981   31.842276  0
 42.933582  -45.028252   28.708454  0
 11.929536  -42.995117   29.196295  0
  8.034447  -43.852978   27.884783  0
  9.024323  -43.459785   27.758835  0
 33.363289  -45.249168   28.376530  0
 10.312821  -43.138496   27.925398  0
 32.173401  -45.307888   27.986095  0
 29.435879  -45.504246   26.789074  0
  9.550885  -43.936859   26.478413  0
 28.344395  -45.500149   25.723333  0
 51.253128  -47.610931   25.538639  0
 50.813408  -47.521313   26.483757  0
 50.069477  -47.615585   25.511169  0
 48.601391  -47.242622   25.284504  0
 49.567101  -47.472031   23.657125  0
 47.656425  -46.324356   26.875128  0
 47.696732  -47.192368   25.860641  0
 27.884151  -46.143814   24.990746  0
 50.580929  -47.191746   23.839924  0
 46.894936  -46.402512   26.501259  0
 45.504829  -45.618217   27.490067  0
 10.740347  -44.243744   24.951546  0
 11.516096  -44.169846   23.869465  0
 49.201160  -46.679642   22.306967  0
 49.887486  -46.801868   22.816000  0
 43.827648  -45.145714   27.762375  0
 29.360397  -45.530334   25.599909  0
  2.172086  -44.909206   28.255228  0
  3.998360  -44.862988   27.363850  0
  0.988944  -44.338490   27.593954  0
  0.102147  -44.496243   26.810085  0
  0.234681  -43.435394   25.382553  0
 41.690369  -44.226620   25.233126  0
 41.352169  -43.837570   23.866409  0
 12.505232  -43.250023   23.039225  0
  5.733526  -45.023254   25.578297  0
  0.266622  -43.302021   23.018078  0
 27.239574  -47.406940   23.216103  0
 11.890402  -43.082653   22.200136  0
  8.840970  -44.042255   22.941765  0
  0.317616  -44.919983   22.199257  0
 35.896881  -43.201626   21.232231  0
  1.579619  -45.484505   21.210018  0
 38.012737  -43.513542   20.855564  0
  6.107264  -44.792641   17.881405  0
  7.447740  -44.567616   17.044153  0
 47.780491  -44.872849   16.834284  0
 10.906841  -45.836189   15.312567  0
 61.224174  -42.703682   16.684610  0
 59.820011  -42.594975   15.594149  0
  7.391857  -45.587460   17.147997  0
  2.879750  -44.055122   18.088213  0
  0.322246  -44.020927   15.506565  0
  0.763993  -44.050838   13.635467  0
 61.926121  -42.194832   15.077576  0
  9.333398  -45.537247   15.983084  0
 62.593937  -42.382435   13.712294  0
 62.395676  -44.147980   12.698909  0
 63.278961  -43.218868   11.745568  0
 56.346222  -43.716003   11.997420  0
 42.264030  -43.043873   10.676170  0
 62.893127  -45.441887   11.056158  0
 63.414383  -44.600857   10.225751  0
 41.837704  -43.116756    9.810024  0
  3.398036  -43.958328    8.870119  0
  4.796677  -43.860168    8.119582  0
 63.843761  -44.655163    8.734295  0
  5.829041  -44.050026    8.131687  0
  6.592107  -43.997475    8.005192  0
 64.467293  -44.714622    6.610788  0
 64.368187  -44.004604    5.442946  0
 45.684101  -43.916908    7.920579  0
 42.911884  -43.528950    8.664629  0
 59.217598  -44.854980    4.159455  0
 48.798061  -43.031322    8.084568  0
  5.420602  -44.818859    7.410566  0
  2.898937  -44.317471    6.749990  0
 57.860313  -45.104836    3.578843  0
  1.186678  -43.769665    5.369398  0
 61.983688  -44.507214    0.428036  0
 50.415382  -45.154331   -0.039821  0
 64.715080  -46.523411   -1.627373  0
 63.188282  -46.911098   -0.752574  0
 54.169346  -45.312248   -2.171193  0
 45.475048  -46.629597   -2.123918  0
 58.253841  -46.560253   -4.387302  0
 60.123962  -46.276722   -4.809594  0
 46.502884  -45.784172   -1.477800  0
  2.257590  -44.179977   -2.705787  0
 64.083824  -45.616234   -3.396570  0
 64.864510  -48.048302   -3.995364  0
 63.099545  -45.744972   -4.105048  0
 61.822845  -45.305351   -4.421957  0
 46.532597  -46.683231   -2.914523  0
 45.168194  -47.067024   -5.096891  0
 49.340275  -46.783588   -3.559161  0
 48.510876  -45.775581   -2.203014  0
 47.014511  -47.141712   -4.608357  0
 49.279106  -47.229790   -4.873519  0
 50.235374  -46.032177   -2.888387  0
 51.411613  -46.165035   -3.681841  0
 46.523785  -47.422890   -6.023197  0
 52.668045  -46.232407   -5.010818  0
  2.889692  -42.337486   -8.539598  0
  2.649275  -40.888947   -6.930367  0
 55.330067  -46.105614   -6.153446  0
 53.821339  -45.920956   -5.498837  0
 57.373211  -47.287174   -7.526597  0
 58.410339  -47.033752   -8.607954  0
 48.666733  -48.373074  -11.336320  0
 46.708225  -48.574532  -10.918910  0
  6.127182  -43.438034  -12.492931  0
 59.481152  -47.906681  -11.814457  0
 59.782345  -47.506409  -10.743659  0
 59.845333  -46.174721   -9.828800  0
 55.891853  -48.518772  -11.947867  0
 51.544758  -47.965126  -11.925817  0
 50.115192  -46.789932  -12.933124  0
 48.323895  -46.610680  -12.911344  0
 46.382137  -47.695297  -11.928307  0
  9.143764  -41.627037  -13.838293  0
  8.946133  -41.891407  -13.995049  0
  8.468884  -42.150471  -14.255832  0
  7.524209  -43.122849  -13.456004  0
 63.457546  -47.094112  -12.165295  0
 65.540001  -46.861084  -10.961837  0
 63.469910  -46.561737  -11.171888  0
 65.258354  -45.609554  -10.786484  0
 63.962364  -45.761971  -10.746346  0
 61.501560  -47.044476  -11.374231  0
 61.918266  -45.779633  -10.642067  0
 58.132938  -47.886139  -12.943366  0
 52.751087  -46.521812  -13.914210  0
 64.273270  -46.994545  -13.397232  0
 65.912621  -47.111675  -11.388546  0
 62.382717  -47.239288  -13.777657  0
 60.833176  -47.346344  -14.320739  0
 59.118374  -47.100491  -14.380714  0
 56.985546  -47.041908  -14.172674  0
 65.872925  -46.630787  -12.519418  0
 63.860516  -46.232117  -14.299151  0
 62.321167  -46.194984  -15.143667  0
 49.817509  -46.211136  -13.864542  0
 53.850170  -46.227409  -15.329851  0
 28.495705  -43.407089  -17.036907  0
 26.296057  -42.906013  -18.071611  0
 17.010895  -44.861507  -17.695017  0
 18.271765  -43.920464  -18.570862  0
 55.896381  -46.688797  -16.639572  0
 25.830654  -42.768154  -19.162350  0
 62.216858  -45.965900  -18.105021  0
 60.897343  -46.833725  -16.820620  0
 62.307369  -46.192680  -19.475805  0
 58.166500  -46.872120  -16.172409  0
 24.342812  -41.870861  -20.220127  0
 18.642200  -42.642063  -19.266962  0
 18.672703  -41.987110  -20.202898  0
 29.752626  -44.428074  -19.140146  0
 21.706656  -41.475857  -21.584696  0
 53.151413  -43.557850  -21.138315  0
 54.609489  -43.708118  -22.034063  0
 40.852123  -43.660049  -20.926466  0
 19.365179  -41.483864  -21.269766  0
 17.950201  -41.669144  -22.220625  0
 61.212608  -45.799324  -21.723459  0
 57.639515  -44.701958  -24.218651  0
 57.086376  -43.329868  -23.184832  0
 58.843266  -44.197361  -23.075462  0
 55.484097  -43.900455  -22.999216  0
 38.238754  -43.690418  -23.220207  0
 19.869036  -41.373547  -22.255550  0
 50.427254  -44.420494  -21.950684  0
 41.531483  -43.211388  -23.000143  0
 27.654890  -44.069836  -20.731810  0
 42.138657  -43.711620  -24.088257  0
 43.962463  -42.908573  -25.831190  0
 52.377487  -45.437332  -25.952902  0
 39.872593  -41.957378  -27.384525  0
 24.788723  -45.041538  -23.045258  0
 22.368586  -44.130608  -24.677589  0
 54.132076  -46.727558  -29.137516  0
 45.031147  -43.415634  -27.854639  0
 21.776758  -43.584545  -26.945232  0
 54.910519  -48.225716  -30.476019  0
 40.490810  -41.983200  -28.511799  0
 29.386581  -44.005272  -30.652554  0
 27.554989  -44.206417  -29.733994  0
 25.437418  -43.899117  -28.997705  0
 24.226509  -44.401661  -28.636303  0
 22.746815  -44.163918  -27.950474  0
 55.701447  -49.007164  -30.992544  0
 41.346554  -41.589489  -29.499344  0
 32.664917  -42.577557  -31.672432  0
 55.975914  -48.509781  -31.089195  0
 56.523911  -48.755291  -32.017246  0
 46.314121  -44.355446  -31.702814  0
 46.700420  -44.225910  -32.756058  0
 34.906670  -42.462357  -32.897778  0
 36.091675  -42.264416  -33.556366  0
 33.960934  -42.147778  -32.238400  0
 56.282181  -48.237064  -33.772297  0
 42.379063  -41.265308  -31.645741  0
 41.055874  -41.050045  -31.450092  0
 37.091599  -42.464119  -33.712162  0
 55.643681  -48.832813  -34.464317  0
 55.179836  -47.522518  -34.791840  0
 49.376236  -44.349926  -34.642448  0
 39.650208  -41.839794  -33.665806  0
 52.894463  -46.776760  -35.133400  0
 10.290812  -43.481449   56.672836  0
  5.992202  -44.200222   57.348736  0
  7.254326  -42.930210   57.565468  0
  5.169779  -43.000031   57.582905  0
  3.785622  -43.332504   57.132313  0
  2.493541  -43.268047   55.998573  0
 14.639917  -43.898438   55.464962  0
 14.849502  -45.168621   55.499275  0
 11.750973  -42.867874   56.387669  0
 15.624247  -43.981369   55.037399  0
  0.469802  -44.032089   53.452366  0
 15.797794  -44.347832   53.530823  0
 15.802256  -45.381218   51.739914  0
 16.584433  -43.932838   52.431576  0
 24.060167  -44.261051   51.465622  0
 22.958281  -43.496918   51.740952  0
 23.358591  -45.460636   49.253452  0
 24.747641  -44.710815   50.283318  0
 21.263090  -43.035484   51.172825  0
 18.020922  -44.011250   51.064987  0
 13.769401  -46.405743   48.016167  0
 25.011436  -45.001762   48.759396  0
 19.987228  -43.083527   50.630547  0
 19.163157  -43.232613   50.602840  0
 12.161232  -45.613903   46.466114  0
 24.037355  -45.932728   46.899174  0
 25.323910  -44.810246   46.411671  0
 13.233751  -45.824783   44.814106  0
 38.538326  -42.861034   46.521694  0
 37.233387  -42.874714   46.448246  0
 36.369537  -42.921551   46.899403  0
 24.225752  -46.020138   44.898972  0
 39.977745  -42.234573   45.865185  0
 36.245312  -42.038811   46.085407  0
 35.518806  -42.873341   46.513756  0
 42.373665  -43.691460   45.389561  0
 23.795465  -45.312180   42.672226  0
 12.336106  -45.396408   42.175629  0
  0.371118  -42.283630   42.615051  0
 43.366032  -43.955471   44.315842  0
 35.888195  -43.197491   44.064236  0
 36.665382  -41.727257   44.923500  0
 22.178825  -45.866447   41.404308  0
 16.850399  -46.569061   41.509914  0
 14.816801  -45.715652   41.761921  0
 44.521503  -44.015549   42.748375  0
 37.176891  -42.646385   42.943489  0
 35.867065  -43.540226   42.558792  0
 34.324158  -44.006931   42.552414  0
 31.658911  -43.345448   41.437172  0
 30.046850  -42.712997   41.242638  0
 28.265055  -42.508411   41.398323  0
 20.965935  -45.846199   40.325497  0
  0.578806  -42.479702   40.215115  0
 18.864231  -46.315811   40.244705  0
 17.203026  -46.269215   40.428417  0
 16.311932  -45.865086   40.647453  0
 46.258579  -44.126713   41.725101  0
 45.905899  -42.143402   41.423809  0
 36.719563  -42.749329   40.526081  0
 34.007462  -43.083130   40.515205  0
 20.120581  -45.352921   39.082783  0
 17.800303  -45.610687   39.501587  0
  1.443204  -42.027191   38.420914  0
 48.089306  -44.787224   41.214542  0
 49.636208  -44.503323   39.389626  0
 49.241199  -43.910419   40.279060  0
 49.332867  -45.242702   38.427269  0
 25.326403  -41.014164   38.721321  0
  3.089699  -42.235966   35.698727  0
  4.241429  -42.372776   34.580036  0
  5.367638  -42.791351   34.150585  0
 14.689082  -44.564545   38.484558  0
  7.421261  -42.991718   33.747852  0
 48.466072  -45.506592   35.607277  0
 46.852970  -44.045959   34.224083  0
 21.031858  -42.752911   35.764656  0
 43.476486  -44.270458   30.252871  0
 12.217263  -41.859192   31.942621  0
 13.213347  -41.947582   30.730829  0
 13.136714  -42.477654   29.547230  0
 52.191490  -47.273617   32.476143  0
 51.262745  -46.318810   32.722073  0
 51.447823  -46.580727   31.436039  0
 52.896561  -47.641850   31.221600  0
 52.804222  -46.185875   33.416267  0
 53.739624  -47.464211   32.391914  0
 42.683636  -43.872635   27.490904  0
 40.861107  -45.379799   26.425037  0
 41.924152  -44.633209   26.525398  0
 39.175480  -45.617985   27.137022  0
 54.514320  -47.591175   30.480955  0
 53.365906  -47.656712   29.631924  0
 55.569405  -46.667568   31.997520  0
 51.499443  -46.719757   30.173477  0
 50.437035  -46.503864   30.880119  0
 49.862957  -45.277496   31.659306  0
 49.896679  -45.930759   30.025360  0
 36.413441  -44.959404   27.292572  0
 34.289913  -44.896679   27.712194  0
 32.263462  -44.909245   27.131729  0
 10.914959  -43.005527   26.496758  0
 52.208134  -47.445320   27.817387  0
 53.192326  -47.616196   28.409304  0
 54.114231  -46.855022   28.564554  0
 50.802380  -46.795631   28.574011  0
 49.618027  -46.409855   28.904327  0
 29.952856  -45.209198   25.965057  0
 53.040192  -46.961933   27.208418  0
 50.060017  -46.938061   27.398224  0
 48.376652  -45.994999   27.967075  0
 48.837009  -45.489594   29.319811  0
 47.308144  -44.644455   29.413982  0
 46.428726  -44.940277   28.533249  0
 10.977909  -43.259777   25.447542  0
 52.126965  -46.734718   25.614204  0
 28.401482  -45.332760   25.101576  0
 44.133820  -44.162773   28.168007  0
 45.203167  -44.548527   28.451113  0
 11.893406  -43.311451   24.437077  0
 43.294205  -43.887642   27.709972  0
 12.663423  -42.715698   24.693213  0
 42.973465  -43.180588   26.473692  0
 42.227772  -43.373589   25.603874  0
  2.556234  -43.473675   27.472260  0
  1.118132  -42.929863   26.732271  0
 42.125641  -42.882439   24.004425  0
 32.015800  -42.769691   24.075903  0
 29.417803  -44.386700   24.908585  0
  6.959275  -43.751854   24.232567  0
  5.851249  -43.316422   25.576292  0
  4.160331  -43.464600   26.564682  0
 33.805367  -42.454624   23.093651  0
 30.115206  -43.290493   24.262686  0
 28.523857  -44.749783   24.700922  0
  0.712455  -43.547253   21.330690  0
 48.296654  -45.475628   20.188560  0
 41.911263  -42.033829   22.894947  0
 40.028278  -42.799477   21.453043  0
  8.917063  -42.311817   22.398314  0
  2.316436  -44.185493   20.004295  0
  4.592986  -43.052776   17.865065  0
 34.929050  -42.304207   20.800385  0
 33.294357  -41.952202   21.857876  0
 36.069069  -41.776417   20.231318  0
 10.653178  -44.530819   15.911986  0
  9.475245  -44.738792   16.261749  0
 48.080067  -44.678642   12.230409  0
 47.230553  -44.543606   11.215167  0
  1.360400  -43.535721   16.979424  0
 47.031506  -43.339619   10.580607  0
 44.946014  -43.135502   10.708146  0
  9.458711  -43.523525   16.043577  0
  8.048943  -44.908867   16.699055  0
  6.256136  -44.010246   17.387379  0
  4.193256  -43.786678   18.167784  0
  0.373315  -43.499870   14.296353  0
 60.984314  -41.490574   15.117590  0
 41.273376  -42.059097   10.986034  0
 40.821068  -41.482708   11.988696  0
  1.141661  -42.682751   13.203867  0
  1.633148  -42.816811   11.771341  0
 62.035912  -41.009621   14.469296  0
 63.365238  -40.899010   12.692412  0
 60.841572  -40.602066   14.208824  0
 59.460815  -41.047886   13.348132  0
 57.874020  -42.366474   12.374416  0
 57.700153  -41.056667   11.073329  0
 56.643158  -42.572720   11.127436  0
 55.273758  -42.809525   10.462290  0
  3.737525  -42.749695    8.999885  0
  5.890071  -42.555897    8.687686  0
 53.742317  -42.989086    9.808310  0
 51.289040  -43.172371    8.844415  0
  6.405189  -42.783302    8.562499  0
 64.572395  -42.736305    7.539404  0
 64.354561  -41.898262   10.613732  0
 53.025063  -42.119358    9.167889  0
  1.721912  -43.233810    6.648348  0
 63.615311  -43.718449    4.412064  0
 62.118778  -44.555458    4.051316  0
 47.515690  -42.773746    8.104263  0
 44.533337  -42.885967    8.652962  0
 58.101089  -43.671982    4.225822  0
 57.399799  -43.258236    3.608492  0
 49.741459  -42.410015    8.281996  0
 48.454754  -42.821362    7.610497  0
  1.383771  -42.754204    3.101022  0
 57.128593  -42.883068    2.455337  0
 58.173153  -43.756401    1.919395  0
 59.683697  -43.874905    1.332296  0
 48.190681  -43.780590    0.308503  0
 50.862076  -43.372192   -0.346870  0
 46.611439  -43.909809    0.108176  0
 64.362404  -44.516754   -0.601312  0
 52.384129  -44.419262   -0.832108  0
 53.417660  -43.290333   -1.411207  0
 46.107609  -44.552475   -0.901191  0
 64.945595  -46.214123   -2.570969  0
 55.643185  -43.763035   -3.152889  0
 57.494801  -44.223553   -4.424769  0
 59.052574  -45.140392   -4.797873  0
 60.723850  -44.151031   -4.698833  0
 46.929817  -44.487396   -1.348409  0
 47.958088  -44.987156   -1.652456  0
 47.676983  -43.858700   -1.971984  0
 49.002235  -44.265236   -2.408972  0
 49.894447  -45.199932   -2.359108  0
 51.171562  -44.793888   -3.225521  0
 52.578926  -45.326694   -4.201220  0
 53.030361  -44.599556   -4.909548  0
 56.541145  -45.175232   -6.621331  0
 55.400475  -44.698029   -5.931661  0
 53.811348  -44.295403   -5.653213  0
 57.690361  -45.054348   -7.581552  0
 56.890644  -44.292007   -6.971070  0
 55.537254  -43.783230   -6.642286  0
  5.498631  -42.547520  -11.853084  0
 58.497288  -44.951145   -8.577685  0
 57.784454  -44.057426   -7.987318  0
 56.567673  -43.441833   -7.709606  0
  9.786598  -41.468941  -13.383615  0
 10.371527  -40.175808  -12.789087  0
  8.292558  -41.321869  -13.647799  0
 66.322571  -46.367577  -11.401972  0
 65.955734  -45.124741  -11.601999  0
 62.842888  -44.468178  -10.703193  0
 60.582623  -44.455959  -10.015768  0
 58.910629  -43.986794   -9.284326  0
 57.246353  -43.180435   -8.809515  0
  9.839275  -40.648701  -13.425629  0
 66.253532  -45.838364  -12.414996  0
  8.767271  -40.912895  -13.852329  0
  8.528759  -42.350708  -14.756727  0
 65.432312  -45.733883  -13.512179  0
 60.065369  -46.724770  -15.814694  0
 57.983704  -46.899765  -15.194554  0
 63.664627  -44.547272  -14.604338  0
 61.211918  -45.580124  -16.545908  0
 61.990864  -44.838608  -15.871644  0
 18.456825  -43.146950  -18.661184  0
 14.712476  -43.259403  -17.584421  0
 11.938321  -43.593880  -16.506203  0
 60.696033  -43.798325  -16.401230  0
 60.784653  -44.181801  -18.212126  0
 19.617020  -41.815826  -20.277866  0
 61.824299  -44.982964  -19.213568  0
 22.314062  -41.201702  -20.804852  0
 61.195194  -44.558147  -20.582054  0
 40.361778  -43.191788  -20.581070  0
 21.044794  -41.132912  -21.177826  0
 60.503021  -44.593258  -21.988451  0
 55.518471  -42.411640  -21.719177  0
 57.259949  -42.120583  -21.478481  0
 58.381962  -42.895832  -22.389309  0
 51.723186  -43.581860  -20.829092  0
 37.688175  -43.911518  -21.377653  0
 59.598454  -43.375149  -21.532652  0
 41.518494  -42.667595  -22.290604  0
 42.473198  -42.363918  -23.583076  0
 52.031322  -43.119099  -23.811207  0
 43.311947  -42.353924  -24.747322  0
 38.889389  -41.773624  -25.896173  0
 39.277470  -40.843456  -27.280176  0
 25.980423  -43.884830  -22.089821  0
 23.833582  -43.622307  -23.479027  0
 21.331541  -42.487675  -25.786486  0
 53.139820  -45.153671  -27.156950  0
 39.771591  -40.860863  -27.853727  0
 21.187996  -41.704132  -26.959194  0
 54.093235  -45.411209  -28.260963  0
 55.234684  -46.475529  -29.859484  0
 46.173534  -43.129391  -29.005554  0
 40.061649  -40.630695  -29.877634  0
 39.810589  -40.365662  -29.012598  0
 39.046818  -40.180477  -31.023657  0
 28.477713  -42.822514  -30.495556  0
 23.424309  -43.284424  -28.746902  0
 21.903742  -42.469872  -27.984886  0
 56.760544  -47.207973  -30.662294  0
 46.471146  -43.483250  -30.851498  0
 40.308159  -40.738365  -30.595598  0
 38.562840  -40.765438  -32.379299  0
 31.363535  -41.902466  -31.183067  0
 56.673168  -48.431301  -31.187641  0
 56.756596  -47.375713  -32.564243  0
 47.175606  -43.063900  -31.423342  0
 47.436539  -43.480927  -33.350208  0
 36.571758  -40.851921  -33.080669  0
 35.410725  -40.812576  -32.974819  0
 56.205559  -46.807491  -34.201221  0
 48.259026  -43.933998  -34.379494  0
 54.106937  -45.328667  -34.764271  0
  5.916894  -42.386967   57.623535  0
  6.915545  -41.758770   57.732929  0
  9.839788  -42.404953   56.816635  0
 15.091714  -42.410259   54.996304  0
  1.565620  -42.175026   55.319973  0
 15.993024  -42.403954   54.016785  0
  1.449605  -42.066078   54.146564  0
 16.953743  -41.238712   52.437115  0
  0.502185  -43.801498   52.155319  0
  1.246651  -42.519173   51.716053  0
 30.906160  -41.738609   51.702374  0
 29.504030  -41.046822   52.245270  0
 30.083450  -42.362568   51.667854  0
 28.894081  -41.566425   52.477772  0
 17.564978  -42.608120   51.960827  0
 25.956081  -43.888691   52.149097  0
 23.774176  -42.790707   52.919163  0
 25.320204  -44.449341   51.363571  0
 22.534252  -42.227280   52.243591  0
 26.718046  -44.315620   49.582619  0
 18.308640  -42.204887   51.126835  0
  0.774268  -42.644154   48.821476  0
 26.100784  -44.404583   47.652554  0
 27.576859  -43.583702   47.172737  0
 19.516838  -41.389217   50.663567  0
  1.748268  -41.710918   49.680340  0
  2.207916  -41.283123   47.960392  0
  0.672334  -41.991890   45.600441  0
 26.258001  -43.240658   45.623634  0
 25.284086  -44.539078   43.927277  0
 25.723692  -43.559029   44.588207  0
  1.347656  -41.163666   43.294106  0
 42.190929  -41.967579   45.610813  0
 43.008133  -43.016800   45.274181  0
 40.975132  -41.322704   45.773117  0
 43.057297  -41.501858   45.453861  0
 38.832142  -41.488689   46.474495  0
 37.262554  -41.546619   46.122231  0
 24.836636  -44.683834   43.040264  0
 44.007092  -42.240528   44.720985  0
 37.853790  -40.954407   45.070808  0
 38.181046  -40.936829   46.336185  0
 13.347129  -45.296761   41.454365  0
 44.356960  -43.247517   43.947578  0
 44.959236  -42.751656   42.889275  0
 38.329372  -41.344368   43.400284  0
 38.587330  -40.472553   44.649296  0
 22.915289  -44.317036   40.171234  0
  1.475788  -41.293510   39.801182  0
 38.110302  -42.274731   42.224121  0
 21.799505  -44.742786   39.339176  0
 15.123630  -44.663532   39.405487  0
 37.942078  -42.420265   41.082035  0
 32.593761  -42.385513   39.759800  0
 31.207798  -42.041187   39.423840  0
 29.162510  -41.555958   39.808838  0
 21.775499  -44.080360   38.243073  0
 19.616758  -44.518105   37.692417  0
 17.707298  -44.588318   38.133930  0
 47.653267  -42.810890   41.119213  0
 35.065243  -42.226273   39.240528  0
 30.223635  -41.555107   39.060329  0
 27.567801  -41.124073   39.020844  0
 17.090509  -44.269455   37.688183  0
 33.908882  -41.986702   38.606171  0
 32.798119  -42.045296   38.115570  0
 31.106482  -41.983299   38.299427  0
 30.357353  -41.367374   37.687397  0
 27.334972  -40.535233   38.014374  0
  2.434748  -41.338863   37.352158  0
  3.565186  -40.447788   36.600742  0
 49.259251  -44.092220   36.692371  0
 33.936905  -41.367065   36.808128  0
  3.776387  -41.042793   35.052639  0
 31.957458  -41.643200   37.195156  0
 25.072216  -40.451450   37.053848  0
  5.103771  -41.452095   33.791252  0
  4.638562  -40.521770   34.289898  0
  6.947320  -41.676491   33.330452  0
 45.354309  -42.645992   32.774330  0
 22.056070  -41.878258   35.913052  0
 22.761139  -40.916626   36.044430  0
  8.910244  -42.158962   33.046364  0
 10.596371  -41.563316   32.684120  0
 43.129330  -42.369419   29.251965  0
 54.931892  -45.205658   33.536430  0
 54.287689  -46.357517   33.398079  0
 56.461395  -45.051170   31.741318  0
 55.668953  -43.280331   33.497215  0
 53.518078  -44.805481   34.521408  0
 52.028248  -43.728985   34.722748  0
 50.336483  -44.186539   33.305744  0
 56.385483  -45.860352   30.724264  0
 48.307026  -43.485367   31.737867  0
 48.348373  -44.504501   30.465351  0
 41.336887  -44.540783   25.640482  0
 41.785511  -43.029007   25.492268  0
 40.154713  -44.465176   25.214527  0
 38.141163  -44.371120   25.424427  0
 34.403053  -44.650761   26.336782  0
 13.390843  -42.141796   26.836264  0
 56.820030  -44.877964   29.278404  0
 46.998234  -43.424725   30.381727  0
 36.551773  -44.041801   25.201698  0
 31.565260  -44.914486   26.266523  0
 32.937366  -44.421261   25.969454  0
 55.370220  -45.224548   28.157942  0
 53.799522  -45.248920   26.745249  0
 46.133606  -43.755802   29.430202  0
 45.453823  -43.662823   28.825974  0
 31.026850  -44.393452   25.698647  0
 29.240265  -44.609200   25.115070  0
 44.733467  -43.387264   28.178368  0
 44.180504  -42.727684   27.128752  0
 50.323868  -45.474838   22.558979  0
  5.465595  -42.557667   25.485893  0
  3.719400  -42.358841   26.339691  0
  2.354939  -41.540691   25.995373  0
  4.742654  -41.829941   25.041834  0
  1.047683  -41.956818   25.673643  0
  0.604991  -41.839104   24.420662  0
  0.616076  -41.486328   22.225433  0
 31.541382  -42.174648   23.196783  0
  7.339616  -42.354557   23.899265  0
 40.875641  -41.466930   21.789078  0
  2.711869  -41.845516   17.901396  0
  1.308205  -42.202923   19.234556  0
  0.670788  -42.324963   20.734200  0
 48.628410  -45.065029   19.134106  0
 49.606853  -44.564869   17.102165  0
 50.238194  -45.208584   19.178673  0
 38.603569  -42.102375   20.695274  0
  6.394946  -43.311333   17.256453  0
 49.773937  -44.248158   15.217639  0
 34.840878  -41.157284   20.585756  0
 48.543385  -44.734482   14.051230  0
 50.033844  -43.997536   12.812305  0
 10.508385  -43.534229   15.841019  0
 48.483097  -43.564049   11.000196  0
  2.564394  -42.006592   17.533733  0
  1.372803  -42.044147   16.564852  0
 42.670986  -42.334290   11.655848  0
 44.932182  -42.124714   11.094271  0
 42.226555  -41.534859   12.405052  0
  4.472592  -42.710747   17.610367  0
  0.982231  -42.583019   15.757262  0
  0.904493  -42.081593   14.495935  0
 62.120388  -39.610435   13.535108  0
  2.407276  -41.596489   10.462178  0
 61.277470  -38.971031   13.075067  0
 60.547421  -39.590046   13.016983  0
 40.612030  -39.927177   11.306009  0
 64.466278  -40.437817   11.296250  0
 59.403763  -39.602173   11.632593  0
 60.402344  -38.764542   11.841603  0
 56.231583  -41.385273    9.879945  0
 41.299271  -40.735401   11.077459  0
 65.027214  -40.373608    9.326939  0
 57.731991  -40.271626    9.227218  0
 54.796211  -41.488716    9.341748  0
 55.783020  -40.866501    8.866919  0
 64.937668  -41.489613    6.711230  0
 53.624779  -40.663521    8.456404  0
 51.812782  -41.888298    8.919634  0
 42.309875  -41.502468   10.570081  0
  5.253367  -43.598541    7.814913  0
  4.963720  -42.214489    8.445621  0
  2.481099  -42.172676    7.211478  0
  0.984804  -40.012470    6.172058  0
 64.261726  -41.865845    5.149579  0
 62.112801  -42.974380    4.355184  0
 59.674553  -42.897533    4.255971  0
 48.766010  -42.509411    8.137461  0
 58.396580  -42.060841    1.032513  0
 61.728645  -42.289440    0.559888  0
 59.175396  -42.965858    1.318153  0
 48.756130  -42.463314   -0.256531  0
 45.943848  -43.011368   -0.841295  0
 64.865883  -43.563976   -1.113986  0
 63.627289  -43.020287   -0.036008  0
 46.316719  -43.048157   -1.940288  0
 59.462460  -42.616882   -5.089810  0
 56.262661  -42.478867   -4.099413  0
  2.137800  -40.891331   -2.409482  0
 64.722382  -43.396244   -1.911533  0
 63.968697  -42.542622   -2.762446  0
 62.461430  -42.923634   -3.954326  0
 61.338772  -42.588665   -4.744309  0
 46.622021  -42.729313   -3.014197  0
 45.683006  -41.802673   -4.681138  0
 48.432014  -42.865990   -3.867749  0
 46.079361  -42.092342   -5.148201  0
 47.073055  -42.283318   -5.019734  0
 44.578304  -41.643002   -6.603736  0
 44.241131  -40.771633   -6.020503  0
 50.998116  -43.331646   -4.227975  0
 45.879986  -41.809589   -7.208185  0
 48.642254  -41.731026   -6.500765  0
 51.933102  -42.890614   -5.850515  0
 50.455204  -41.935295   -6.337460  0
 54.002243  -42.783653   -6.828303  0
 52.358109  -42.006855   -7.158223  0
 50.183990  -41.223743   -7.746089  0
 48.426136  -41.070992   -8.025044  0
  3.737892  -41.511326   -9.717646  0
 54.339069  -42.106892   -7.976348  0
 51.998367  -41.065392   -8.773834  0
 54.716034  -41.788620   -9.123480  0
 21.890606  -41.608932  -10.799905  0
 22.649448  -41.664398  -11.522426  0
 22.009615  -41.819813  -11.935189  0
 21.375355  -41.559826  -11.677264  0
 11.096977  -39.630981  -12.536965  0
  9.463284  -40.486553  -13.054358  0
 64.485878  -44.123283  -11.279513  0
 62.413109  -42.894672  -11.199584  0
 60.989811  -43.177467  -10.547230  0
 59.187763  -42.729500  -10.176877  0
 57.078205  -42.252285  -10.102316  0
 54.882877  -41.714378  -10.046218  0
 21.501354  -38.981144  -11.877902  0
 65.232681  -44.497803  -13.180618  0
 64.172737  -43.303566  -12.142158  0
  9.373901  -40.273014  -13.246014  0
 63.731258  -43.220692  -13.466904  0
 62.692173  -42.928509  -14.239352  0
 62.016605  -43.607861  -15.278100  0
 60.430786  -42.174046  -14.657568  0
 29.287037  -41.349655  -17.163048  0
 27.584003  -41.432922  -17.128181  0
 17.504370  -42.656620  -18.510847  0
 58.843250  -42.797352  -17.660337  0
 58.781025  -42.362972  -16.530716  0
 30.561375  -41.453724  -18.216434  0
 25.324253  -41.193748  -18.317930  0
 18.860384  -41.955971  -19.638935  0
 57.956947  -42.153389  -19.507933  0
 57.704918  -41.975693  -17.975687  0
 56.382969  -41.380978  -20.499094  0
 56.546227  -41.233498  -19.305758  0
 52.933281  -42.135609  -20.940468  0
 54.282890  -41.282387  -20.704470  0
 39.319374  -43.267708  -20.845543  0
 30.294893  -41.354362  -19.290607  0
 41.948490  -41.962147  -20.937071  0
 41.599693  -41.783310  -20.723724  0
 28.751375  -41.620487  -20.353619  0
 51.499958  -42.793339  -21.402122  0
 44.308147  -41.443035  -24.142427  0
 26.977829  -42.814373  -21.208031  0
 44.835709  -41.521011  -25.087200  0
 25.368975  -42.678524  -22.309717  0
 45.125919  -42.172634  -26.031406  0
 23.361784  -42.437073  -23.517580  0
 53.357712  -43.463173  -25.702799  0
 46.589878  -41.644238  -25.898499  0
 21.979563  -41.914669  -24.524363  0
 47.183208  -42.041359  -27.277088  0
 47.070126  -42.548004  -28.922569  0
 39.207863  -39.805458  -28.992626  0
 20.869673  -40.480946  -26.282221  0
 54.948738  -45.361691  -29.095877  0
 54.939613  -44.315567  -27.762932  0
 56.049919  -44.989529  -29.081991  0
 39.008842  -39.785515  -30.217878  0
 26.691633  -42.349354  -29.731411  0
 24.620377  -42.322227  -29.088772  0
 22.899105  -41.950588  -28.609440  0
 26.475710  -40.196636  -29.636984  0
 57.558281  -44.726212  -28.959618  0
 48.912663  -41.815742  -28.798317  0
 37.991581  -40.016350  -32.006977  0
 29.602674  -41.126221  -30.812607  0
 57.362053  -46.631573  -31.504745  0
 57.888805  -45.846287  -30.434271  0
 57.937370  -45.627033  -31.826200  0
 48.236340  -42.346642  -31.146269  0
 48.113728  -42.167179  -32.600334  0
 34.086872  -40.765060  -32.514019  0
 31.793858  -40.723885  -31.404266  0
 56.878452  -46.236111  -33.008968  0
 56.800701  -44.960670  -33.550938  0
 48.023003  -42.780186  -33.968315  0
 48.693340  -41.896351  -34.043900  0
 56.120968  -45.595943  -34.343216  0
 55.162312  -44.040447  -34.470268  0
 49.815399  -42.390232  -34.460339  0
 50.979355  -40.954704  -34.354218  0
  4.412013  -41.649105   57.584209  0
  8.877298  -41.308491   57.459503  0
  2.448099  -40.740868   56.862877  0
 11.889976  -40.942814   56.016659  0
 10.768678  -41.097839   56.684223  0
 13.232019  -40.984791   54.974335  0
 30.253340  -40.847347   51.888157  0
 28.404064  -40.027790   52.469463  0
 23.436954  -40.944725   53.100597  0
  2.192745  -41.357048   51.748310  0
 31.586264  -42.934853   51.462582  0
 32.556458  -41.723156   51.131783  0
 32.211300  -42.900818   50.518356  0
 31.119455  -43.543678   50.849346  0
 28.579006  -42.900932   52.039402  0
 21.987955  -40.946381   52.069897  0
  3.206306  -40.763359   50.223259  0
 29.287926  -43.843067   50.785019  0
 27.593870  -43.713146   51.850906  0
 27.737713  -44.154190   50.719936  0
 18.106096  -40.353203   50.391140  0
  4.580172  -40.508175   47.486588  0
  4.402372  -40.114990   49.435566  0
 29.019188  -43.576958   48.150158  0
 20.037992  -40.661751   50.843937  0
  3.306052  -40.748833   45.835606  0
 27.340570  -42.452129   45.454029  0
 19.573084  -39.837273   50.206329  0
  4.928606  -40.616531   45.281364  0
 19.081228  -38.861202   48.941380  0
 17.289730  -39.083225   49.132290  0
 17.193670  -39.704632   50.596096  0
  3.232001  -40.531532   43.563545  0
 43.073490  -40.441063   45.561409  0
 41.871006  -40.146137   45.594570  0
 44.190018  -40.970341   45.216820  0
 39.718731  -40.697945   46.436752  0
 18.250847  -39.219643   49.018204  0
  4.742355  -40.240536   42.159206  0
 39.311245  -40.216793   45.853008  0
 25.267889  -42.946194   42.033096  0
  2.182056  -40.678272   41.333179  0
 45.561684  -42.214222   43.659634  0
 45.601940  -41.576946   44.316986  0
 24.360764  -43.294331   40.615688  0
 39.231773  -40.027218   44.415459  0
 45.430882  -42.160614   42.331535  0
 38.982483  -41.126976   42.085049  0
 23.565985  -42.937737   38.976128  0
 38.942497  -41.212639   40.175262  0
  3.074073  -40.509476   38.942638  0
 38.156033  -41.107685   38.377930  0
 28.703075  -40.806168   38.405464  0
 20.967134  -43.197460   36.522030  0
 22.585016  -42.490200   37.410526  0
 50.095856  -42.571609   39.280743  0
 49.570496  -41.827812   40.151569  0
 49.896019  -43.303970   37.945286  0
 47.908764  -41.532963   40.864273  0
 36.760330  -41.240204   37.679848  0
 35.296032  -41.345802   37.846691  0
 19.459085  -43.916893   36.843639  0
 49.656170  -42.013866   36.331421  0
 28.538923  -40.548721   36.533730  0
 27.446281  -39.975021   36.631588  0
  3.967311  -40.121967   35.520752  0
 48.051884  -41.699062   34.675587  0
 36.808552  -40.040039   36.573013  0
 35.578568  -40.797676   36.605453  0
 32.588501  -41.270031   35.776237  0
 30.533403  -41.072311   35.342651  0
 26.529724  -39.548195   35.796848  0
 35.743980  -39.902225   35.262260  0
 34.583263  -40.913364   35.582565  0
 29.888969  -40.886890   34.487976  0
 28.749838  -40.168724   34.436287  0
 27.646208  -39.668152   35.460758  0
 24.208273  -39.869228   35.852379  0
  6.878582  -39.897385   33.732376  0
 33.117584  -41.034554   34.165909  0
  8.301019  -40.783676   33.202564  0
 43.887535  -40.992603   30.516840  0
 34.656071  -40.487301   34.397942  0
 34.075783  -40.105145   33.284977  0
 30.901606  -41.164436   33.205772  0
 29.542578  -40.607388   32.938976  0
 32.480320  -40.825340   32.838566  0
 28.012873  -39.842739   34.108936  0
 54.362534  -43.806087   34.703564  0
 53.535736  -42.788116   35.178192  0
 31.090216  -40.765682   32.274078  0
 57.082268  -42.541946   31.560177  0
 50.801239  -43.261333   34.285286  0
 49.403030  -42.664066   33.219570  0
 42.403522  -41.643818   27.715759  0
 13.769740  -41.623222   28.466593  0
 13.309946  -40.946644   29.475460  0
 57.437550  -44.063461   30.446123  0
 47.392967  -42.308846   31.267838  0
 46.308670  -42.498451   29.511984  0
 35.034824  -43.967506   24.983055  0
 14.097800  -41.255230   26.037231  0
 55.030056  -43.713406   26.920286  0
 41.875374  -41.016331   26.248451  0
 40.434322  -42.432861   24.186239  0
 41.406006  -40.900963   24.933115  0
 38.845715  -43.396557   24.236502  0
 32.542324  -43.748592   25.368900  0
 13.600854  -42.074543   24.342804  0
 45.757648  -41.853905   27.833603  0
 31.882133  -43.161205   24.671181  0
 52.038422  -44.565247   23.956558  0
 43.322170  -42.116283   24.964638  0
 13.284536  -41.842281   22.607103  0
 13.709986  -41.116272   24.150431  0
 50.246155  -44.927460   21.290123  0
 50.941658  -44.681194   22.575039  0
  1.312423  -41.004417   24.986481  0
  7.640110  -41.358868   23.412146  0
 51.498093  -45.296967   20.200533  0
 33.110332  -41.227028   21.741835  0
 32.401611  -41.432178   22.622639  0
 12.009625  -41.350086   21.506580  0
 10.975383  -41.526257   21.494698  0
  9.831140  -41.004448   21.995293  0
  0.462588  -41.044998   20.232313  0
 51.155560  -45.090961   18.635845  0
  6.304917  -41.472656   17.176418  0
  0.478802  -40.123791   18.080328  0
 51.233055  -43.933262   15.910732  0
  7.375818  -41.180801   16.695189  0
  9.076652  -41.936962   16.173351  0
 52.240757  -42.852745   12.984020  0
 49.928059  -43.378689   11.461382  0
 49.908268  -42.028095   10.920141  0
 48.455017  -41.552387   10.670849  0
 46.388969  -42.058811   10.528301  0
 46.701641  -40.962440   11.062846  0
 44.157547  -41.256439   12.061000  0
 41.482433  -40.643227   12.528143  0
  7.112529  -40.615101   16.578268  0
  5.893918  -41.748432   16.986898  0
  1.340014  -41.539120   12.473193  0
 39.932232  -39.150822   11.530252  0
  6.225290  -40.939602    9.064837  0
  6.079565  -40.085297    9.274563  0
  5.036333  -40.577557    9.001618  0
  3.612628  -40.667511    9.513885  0
 63.429852  -39.161663   12.395224  0
 61.774807  -38.342861   12.589011  0
 39.577843  -38.929871   10.626358  0
 40.283161  -39.048862   10.373636  0
 64.643089  -39.005215   11.225394  0
 65.023239  -38.117081   10.430251  0
 63.042412  -38.043648   12.319152  0
 61.280529  -37.939175   11.399974  0
 59.033882  -39.391811    9.567882  0
 42.310902  -40.018261   11.134920  0
 41.228951  -39.459225   11.042929  0
 36.994377  -39.234333    9.491612  0
 37.855682  -39.881416    8.257711  0
 36.868435  -40.912735    7.239584  0
 35.169563  -41.367771    5.917964  0
 35.352257  -40.303757    7.851280  0
 65.408546  -38.876369    8.160420  0
 55.973934  -40.028336    8.020012  0
 43.598991  -42.278149    9.695785  0
 44.015179  -41.152996   10.797156  0
 38.270897  -40.476864    6.521795  0
 36.837521  -41.313484    5.808346  0
 33.842686  -40.837761    5.550865  0
 34.646648  -39.826912    7.345897  0
 33.244122  -39.805763    5.544542  0
  1.834124  -40.234646    7.099765  0
 65.114075  -39.975220    6.263093  0
 64.420113  -40.973896    5.030540  0
 54.386703  -39.233845    7.235219  0
 53.888168  -40.070042    7.610343  0
 45.260403  -42.174477    9.847855  0
 46.931168  -42.274197    8.903817  0
 37.753815  -40.574123    5.177856  0
 31.920223  -39.639713    4.614073  0
 63.504250  -40.492298    4.621226  0
 61.805573  -41.235531    4.301460  0
 36.509899  -40.909546    4.388387  0
 35.330856  -41.148186    4.368190  0
  0.930229  -40.128586    4.719940  0
 58.182873  -41.183376    3.653288  0
 56.895630  -41.047241    2.824028  0
 33.518246  -40.672222    4.108420  0
 56.290024  -40.451710    1.889975  0
 56.822384  -40.834274    0.919592  0
  1.436081  -39.985592    1.060899  0
 58.292797  -41.225178    0.342122  0
 46.885605  -42.872547    0.030710  0
 63.921234  -42.000633   -1.022966  0
 60.782341  -41.191135    0.012185  0
 63.109264  -41.155010   -1.051187  0
 51.734001  -42.285118   -1.129129  0
 46.970684  -41.915352   -0.756063  0
 63.997074  -41.354378   -2.257386  0
 63.575188  -41.031204   -3.046429  0
 54.677570  -42.330921   -2.663329  0
 53.197849  -41.552277   -2.469836  0
 45.981594  -41.915817   -2.830492  0
 63.064754  -41.729046   -3.882931  0
 57.201424  -41.712879   -4.943353  0
 58.947876  -41.142979   -5.203231  0
 61.745502  -41.223038   -4.720212  0
 45.756367  -41.393448   -4.515854  0
 43.876682  -40.678028   -7.030679  0
 44.645016  -41.091862   -7.763808  0
 46.092216  -40.957867   -8.226130  0
 44.876366  -40.205132   -7.771718  0
 50.367317  -40.655090   -8.818808  0
 47.721146  -40.383194   -8.011829  0
 46.223400  -40.319939   -8.104372  0
 20.909918  -40.887730  -10.789362  0
 20.606451  -38.141159  -11.552039  0
  5.994934  -41.364204  -11.490015  0
 51.673256  -40.863972   -9.873344  0
 22.376715  -41.187351  -12.244433  0
 23.213348  -40.899055  -12.172272  0
  7.670994  -41.577972  -12.655962  0
 60.027172  -41.859867  -11.384015  0
 54.725224  -41.240284  -10.926330  0
 52.663986  -40.776566  -11.042646  0
 21.843582  -38.159721  -12.242264  0
 63.031204  -42.429855  -12.528028  0
 57.279934  -41.404228  -10.535311  0
 11.079598  -38.815548  -12.502604  0
 61.580509  -41.965588  -12.990014  0
 59.509384  -41.076305  -13.673620  0
 57.019234  -41.006035  -15.907990  0
 56.654472  -41.349922  -17.214663  0
 55.526012  -40.822262  -17.757593  0
 55.384735  -40.422344  -17.175240  0
 23.933418  -40.758026  -19.609640  0
 18.785309  -41.496681  -20.486023  0
 17.763920  -42.130081  -19.232151  0
 15.727531  -41.347504  -18.896774  0
 11.610870  -41.538280  -16.700373  0
 13.813890  -41.644814  -17.975080  0
 55.496479  -40.658260  -18.984684  0
 20.246563  -41.159927  -21.087038  0
 55.019840  -40.571819  -19.965166  0
 42.046249  -40.960747  -20.485781  0
 39.047134  -43.254379  -21.545183  0
 44.313431  -40.599743  -22.086292  0
 52.173405  -40.977280  -21.789978  0
 27.082722  -41.598900  -21.686926  0
 45.635246  -41.073109  -24.460470  0
