#!ascii file
27658  27659  27660  0
27426  27427  27661  0
27423  27183  27186  0
27423  27186  27662  0
27423  27662  27663  0
27660  27664  27665  0
27664  27660  27659  0
27666  27658  27667  0
27427  27428  27431  0
27427  27431  27436  0
27186  27430  27662  0
27189  27424  27668  0
27189  27668  27430  0
27664  27659  27669  0
27659  27658  27666  0
27659  27666  27669  0
27190  27670  26951  0
27671  27190  27432  0
27190  27671  27670  0
27670  27433  26951  0
27672  27433  27670  0
27195  27441  27196  0
27437  27673  27199  0
27674  27439  27438  0
27675  27676  27677  0
27196  27441  27449  0
27196  27449  27442  0
27442  27449  27443  0
27447  27678  27437  0
27673  27437  27678  0
27439  27674  27679  0
27439  27679  27448  0
27675  27677  27680  0
27449  27211  27459  0
27449  27459  27443  0
27443  27459  27681  0
27443  27681  27450  0
27682  27205  27206  0
27205  27682  27204  0
27204  27683  27444  0
27444  27683  27445  0
27452  27456  27453  0
27684  27447  27457  0
27448  27679  27458  0
27685  27458  27679  0
27459  27460  27686  0
27459  27686  27681  0
27204  27682  27683  0
27687  27683  27682  0
27683  27687  27461  0
27683  27461  27445  0
27456  27688  27454  0
27689  27455  27454  0
27455  27689  27213  0
27690  27213  27689  0
27213  27690  26974  0
27691  26974  27690  0
26974  27691  27214  0
27457  27214  27691  0
27458  27468  27217  0
27458  27685  27468  0
27460  27218  27470  0
27460  27470  27692  0
27460  27692  27686  0
27693  27461  27687  0
27461  27693  27471  0
27461  27471  27462  0
27467  27466  27694  0
27468  27685  27469  0
27695  27469  27685  0
27696  27469  27695  0
27470  27697  27692  0
27693  27698  27471  0
27465  27471  27699  0
27465  27699  27700  0
27465  27700  27466  0
27694  27466  27701  0
27694  27701  27702  0
27469  27696  27472  0
27470  27703  27697  0
27470  27220  27473  0
27470  27473  27703  0
27704  27471  27705  0
27471  27704  27699  0
27699  27704  27700  0
27706  27700  27704  0
27700  27707  27466  0
27701  27466  27707  0
27708  27474  27472  0
27709  27474  27708  0
27474  27709  27475  0
27703  27473  27710  0
27711  27710  27473  0
27473  27476  27711  0
27480  27711  27476  0
27476  27224  27480  0
27707  27700  27706  0
27477  27475  27709  0
27712  27713  27480  0
27480  27479  27712  0
27233  27479  27229  0
27477  27714  27481  0
27715  27716  27479  0
27479  27233  27715  0
27233  26996  27715  0
27717  27715  26996  0
27234  27717  26996  0
27714  27718  27481  0
27481  27486  27482  0
27237  27482  27486  0
27481  27718  27486  0
27483  27717  27234  0
27717  27483  27719  0
27720  27242  27484  0
27484  26998  27721  0
27722  27721  26998  0
27484  27721  27720  0
26998  27236  27722  0
27485  27722  27236  0
27486  27723  27488  0
27486  27488  27241  0
27487  27719  27483  0
27724  27485  27240  0
27719  27487  27725  0
27242  27720  27726  0
27242  27726  27490  0
27240  27491  27724  0
27725  27487  27494  0
27245  27495  27492  0
27494  27246  27727  0
27497  27727  27246  0
27490  27726  27496  0
27252  27254  27728  0
27729  27255  27256  0
27498  27730  27259  0
27500  27252  27728  0
27256  27502  27729  0
27731  27729  27502  0
27259  27730  27505  0
27259  27505  27260  0
27732  27499  27248  0
27501  27500  27733  0
27502  27504  27731  0
27734  27731  27504  0
27735  27734  27504  0
27732  27736  27737  0
27736  27732  27248  0
27501  27733  27508  0
27509  27735  27504  0
27024  27505  27263  0
27510  27263  27738  0
27263  27505  27738  0
27737  27739  27740  0
27737  27740  27732  0
27737  27515  27739  0
27507  27508  27518  0
27741  27518  27508  0
27508  27733  27741  0
27742  27509  27512  0
27510  27738  27743  0
27510  27743  27513  0
27515  27514  27739  0
27744  27739  27514  0
27514  27517  27745  0
27746  27745  27517  0
27514  27745  27744  0
27517  27518  27746  0
27518  27741  27747  0
27518  27747  27746  0
27748  27742  27512  0
27512  27519  27748  0
27749  27748  27519  0
27519  27266  27749  0
27513  27749  27266  0
27750  27745  27746  0
27751  27270  27522  0
27751  27271  27270  0
27268  27752  27753  0
27268  27267  27752  0
27754  27752  27267  0
27268  27753  27520  0
27520  27755  27521  0
27756  27522  27274  0
27267  27526  27754  0
27757  27754  27526  0
27521  27755  27758  0
27521  27759  27273  0
27528  27273  27759  0
27521  27758  27759  0
27274  27529  27756  0
27526  27527  27757  0
27756  27529  27289  0
27756  27289  27760  0
27761  27760  27289  0
27762  27527  27530  0
27280  27528  27535  0
27536  27535  27761  0
27536  27761  27289  0
27531  27537  27281  0
27531  27763  27537  0
27525  27531  27279  0
27042  27533  27764  0
27042  27764  27532  0
27532  27764  27534  0
27537  27763  27765  0
27533  27766  27767  0
27533  27767  27764  0
27533  27538  27768  0
27533  27768  27766  0
27534  27541  27283  0
27534  27764  27769  0
27534  27769  27541  0
27539  27537  27765  0
27539  27765  27770  0
27538  27540  27771  0
27538  27771  27768  0
27541  27769  27772  0
27530  27542  27773  0
27539  27770  27543  0
27541  27544  27291  0
27541  27772  27544  0
27542  27774  27773  0
27540  27293  27775  0
27540  27775  27771  0
27542  27546  27776  0
27542  27776  27774  0
27777  27545  27543  0
27293  27549  27775  0
27544  27778  27294  0
27544  27779  27778  0
27546  27780  27776  0
27545  27777  27299  0
27781  27549  27782  0
27781  27782  27783  0
27778  27303  27294  0
27784  27552  27299  0
27784  27299  27777  0
27785  27784  27777  0
27778  27550  27303  0
27546  27554  27786  0
27546  27786  27780  0
27784  27787  27788  0
27784  27788  27552  0
27784  27785  27787  0
27552  27788  27551  0
27782  27549  27555  0
27554  27558  27786  0
27789  27787  27785  0
27551  27788  27556  0
27790  27791  27782  0
27783  27782  27791  0
27550  27560  27557  0
27550  27792  27560  0
27787  27793  27788  0
27787  27789  27793  0
27790  27782  27559  0
27782  27555  27559  0
27786  27558  27794  0
27793  27789  27795  0
27793  27796  27788  0
27788  27796  27561  0
27788  27561  27556  0
27790  27559  27564  0
27790  27564  27797  0
27793  27795  27798  0
27793  27798  27796  0
27796  27799  27561  0
27561  27799  27563  0
27800  27801  27797  0
27800  27802  27803  0
27800  27803  27801  0
27797  27564  27800  0
27560  27804  27565  0
27560  27565  27308  0
27805  27794  27321  0
27794  27558  27312  0
27794  27312  27321  0
27563  27799  27566  0
27806  27566  27799  0
27802  27807  27808  0
27802  27808  27809  0
27803  27802  27809  0
27802  27800  27577  0
27802  27577  27807  0
27800  27564  27577  0
27810  27321  27320  0
27810  27320  27573  0
27810  27805  27321  0
27566  27811  27812  0
27566  27812  27568  0
27566  27806  27811  0
27813  27811  27806  0
27814  27812  27811  0
27815  27816  27817  0
27816  27818  27817  0
27816  27819  27818  0
27816  27808  27820  0
27816  27820  27819  0
27816  27815  27808  0
27821  27808  27815  0
27809  27808  27821  0
27808  27807  27820  0
27807  27822  27820  0
27807  27577  27822  0
27577  27564  27569  0
27570  27565  27823  0
27570  27824  27571  0
27825  27571  27824  0
27572  27571  27825  0
27572  27826  27573  0
27810  27573  27826  0
27568  27812  27827  0
27812  27578  27827  0
27812  27814  27578  0
27818  27819  27828  0
27818  27828  27829  0
27820  27830  27819  0
27820  27822  27830  0
27822  27577  27831  0
27568  27827  27574  0
27827  27578  27574  0
27578  27814  27579  0
27579  27814  27832  0
27832  27580  27579  0
27832  27833  27580  0
27834  27580  27833  0
27819  27830  27835  0
27819  27835  27828  0
27822  27831  27830  0
27831  27577  27576  0
27580  27834  27836  0
27828  27835  27837  0
27831  27835  27830  0
27580  27836  27582  0
27831  27837  27835  0
27831  27576  27838  0
27581  27838  27576  0
27576  27575  27581  0
27582  27836  27839  0
27838  27581  27587  0
27583  27587  27581  0
27582  27839  27584  0
27840  27584  27839  0
27092  27585  27586  0
27841  27329  27586  0
27329  27841  27095  0
27842  27095  27841  0
27583  27591  27588  0
27843  27588  27591  0
27584  27844  27589  0
27586  27585  27845  0
27585  27330  27845  0
27846  27845  27330  0
27095  27842  27847  0
27095  27847  27094  0
27094  27847  27848  0
27094  27848  27336  0
27336  27848  27849  0
27336  27849  27337  0
27590  27337  27849  0
27590  27843  27591  0
27339  27589  27592  0
27844  27592  27589  0
27846  27330  27335  0
27592  27103  27340  0
27341  27850  27335  0
27594  27342  27595  0
27102  27103  27851  0
27102  27851  27598  0
27852  27850  27341  0
27341  27593  27852  0
27595  27100  27596  0
27598  27853  27344  0
27854  27597  27343  0
27599  27854  27343  0
27855  27599  27107  0
27107  27347  27856  0
27857  27856  27347  0
27345  27600  27601  0
27346  27601  27858  0
27346  27858  27348  0
27348  27858  27859  0
27348  27859  27602  0
27347  27604  27857  0
27110  27605  27604  0
27604  27860  27857  0
27604  27605  27860  0
27350  27349  27861  0
27603  27861  27349  0
27350  27861  27363  0
27862  27353  27606  0
27353  27862  27358  0
27863  27358  27862  0
27358  27863  27607  0
27361  27611  27362  0
27864  27362  27611  0
27865  27362  27864  0
27362  27865  27608  0
27605  27608  27866  0
27867  27606  27868  0
27609  27868  27606  0
27867  27868  27869  0
27870  27869  27868  0
27606  27867  27871  0
27606  27871  27862  0
27862  27871  27872  0
27862  27872  27863  0
27863  27873  27607  0
27607  27873  27610  0
27610  27873  27874  0
27610  27874  27611  0
27875  27611  27874  0
27611  27875  27864  0
27608  27865  27866  0
26836  27363  27876  0
26836  27876  27368  0
27868  27609  27870  0
27877  27870  27609  0
27369  27613  27878  0
27369  27878  27370  0
27609  27612  27877  0
27370  27878  27879  0
27370  27879  27123  0
27880  27877  27612  0
27371  27880  27612  0
27614  27880  27371  0
27880  27614  27881  0
27615  27881  27614  0
27617  27372  27882  0
27883  27882  27372  0
27372  27127  27883  0
27884  27883  27127  0
27885  27884  27127  0
27127  27374  27885  0
27881  27615  27886  0
27881  27886  27887  0
27616  27888  27618  0
27374  27376  27889  0
27374  27889  27885  0
27373  27890  27619  0
27376  27623  27889  0
27886  27891  27887  0
27619  27890  27624  0
27886  27615  27621  0
27886  27621  27892  0
27886  27892  27893  0
27886  27893  27891  0
27383  27618  27382  0
27625  27894  27622  0
27621  27626  27892  0
27382  27895  27629  0
27894  27625  27627  0
27896  26881  27380  0
27626  27386  27897  0
27626  27897  27898  0
27626  27898  27899  0
27626  27899  27892  0
27386  27629  27897  0
27628  27900  27627  0
26881  27896  27388  0
27897  27901  27898  0
27897  27629  27901  0
27628  27391  27900  0
27631  27388  27896  0
27900  27391  27632  0
27902  26899  27631  0
27149  26899  27902  0
27903  27149  27902  0
27149  27903  27400  0
27904  27634  27399  0
27904  27399  27905  0
27634  27398  27399  0
27905  27399  27635  0
27401  27400  27906  0
27905  27635  27402  0
27905  27402  27636  0
27905  27636  27907  0
27403  27158  27401  0
27636  27908  27907  0
27636  27404  27908  0
27909  27404  27638  0
27637  27405  26651  0
27639  27640  27910  0
27911  27407  27406  0
27407  27911  27164  0
27641  27643  27912  0
27913  27647  27410  0
27913  27410  27914  0
27913  27915  27647  0
27914  27410  27648  0
27164  27911  27644  0
27916  27644  27911  0
27646  27647  27917  0
27918  27646  27917  0
27647  27915  27917  0
27648  27919  27920  0
27648  27920  27914  0
27415  27644  27916  0
27650  27646  27918  0
27919  27648  27414  0
27919  27414  27921  0
27919  27921  27922  0
27919  27922  27920  0
27923  27651  27924  0
27651  27652  27925  0
27651  27925  27924  0
27652  27926  27925  0
27652  27415  27927  0
27649  27423  27928  0
27649  27928  27645  0
27928  27423  27663  0
27650  27918  27929  0
27650  27929  27417  0
27918  27930  27929  0
27930  27931  27929  0
27932  27929  27931  0
27921  27414  27653  0
27921  27653  27922  0
27420  27933  27934  0
27420  27651  27923  0
27420  27923  27933  0
27417  27929  27657  0
27935  27657  27929  0
27932  27935  27929  0
27418  27419  27936  0
27419  27654  27936  0
27655  27936  27654  0
27937  27655  27420  0
27420  27934  27937  0
27933  27937  27934  0
27660  27923  27658  0
27667  27658  27923  0
27663  27662  27938  0
27430  27938  27662  0
27938  27430  27668  0
27939  27938  27668  0
27424  27657  27668  0
27668  27657  27939  0
27940  27939  27657  0
27657  27935  27940  0
27932  27940  27935  0
27664  27941  27665  0
27667  27942  27666  0
27941  27664  27943  0
27941  27943  27944  0
27675  27944  27943  0
27669  27943  27664  0
27676  27675  27943  0
27943  27669  27676  0
27945  27676  27669  0
27669  27666  27946  0
27669  27946  27947  0
27669  27947  27945  0
27199  27673  27438  0
27438  27948  27674  0
27447  27684  27678  0
27678  27949  27673  0
27450  27950  27206  0
27450  27951  27950  0
27206  27950  27682  0
27952  27684  27457  0
27953  27685  27679  0
27679  27674  27954  0
27679  27954  27953  0
27692  27681  27686  0
27454  27688  27955  0
27454  27955  27689  0
27457  27691  27952  0
27695  27685  27953  0
27687  27698  27693  0
27687  27956  27698  0
27705  27471  27698  0
27957  27702  27701  0
27702  27957  27958  0
27472  27696  27708  0
27697  27703  27959  0
27960  27959  27703  0
27961  27701  27707  0
27701  27961  27957  0
27703  27710  27960  0
27711  27480  27962  0
27963  27962  27480  0
27480  27713  27963  0
27704  27705  27964  0
27704  27964  27706  0
27707  27706  27965  0
27707  27965  27961  0
27709  27714  27477  0
27709  27966  27714  0
27712  27479  27716  0
27714  27966  27967  0
27718  27714  27968  0
27715  27717  27969  0
27970  27969  27717  0
27718  27723  27486  0
27718  27968  27971  0
27718  27971  27723  0
27970  27717  27719  0
27485  27972  27722  0
27723  27971  27973  0
27723  27973  27974  0
27723  27974  27488  0
27719  27725  27975  0
27719  27975  27970  0
27485  27976  27972  0
27485  27724  27976  0
27724  27977  27976  0
27975  27725  27978  0
27725  27494  27979  0
27725  27979  27978  0
27724  27491  27980  0
27724  27980  27977  0
27491  27492  27980  0
27981  27488  27974  0
27488  27981  27489  0
27982  27489  27981  0
27494  27727  27979  0
27492  27495  27983  0
27489  27982  27493  0
27727  27497  27984  0
27726  27985  27496  0
27495  27493  27982  0
27497  27986  27984  0
27987  27496  27985  0
27496  27987  27498  0
27497  27499  27986  0
27254  27988  27728  0
27254  27255  27988  0
27255  27729  27988  0
27498  27987  27730  0
27499  27989  27986  0
27728  27988  27990  0
27729  27731  27991  0
27729  27991  27988  0
27730  27992  27505  0
27499  27732  27989  0
27500  27728  27733  0
27728  27990  27993  0
27728  27993  27733  0
27991  27731  27994  0
27731  27734  27994  0
27734  27735  27995  0
27734  27995  27994  0
27996  27505  27992  0
27732  27740  27997  0
27732  27997  27989  0
27998  27733  27993  0
27735  27509  27999  0
27735  27999  28000  0
27735  28000  27995  0
27738  27505  27996  0
27739  27744  27740  0
27733  27998  27741  0
27999  27509  27742  0
27999  27742  28001  0
27999  28001  28002  0
27999  28002  28000  0
28003  27743  27738  0
27744  27745  28004  0
27744  28004  27740  0
27747  27741  27998  0
27748  27749  28005  0
27748  28005  28006  0
27748  28006  28007  0
27748  28007  27742  0
27745  27750  28008  0
27745  28008  28004  0
27746  27747  27750  0
27751  28009  27271  0
27752  27754  28010  0
27753  28011  27520  0
27755  27520  28011  0
27522  28012  27751  0
28009  27751  28012  0
27522  27756  28013  0
27522  28013  28012  0
28009  28014  27271  0
27271  28014  27523  0
28015  27523  28014  0
27523  28015  27524  0
27754  27757  28016  0
27754  28016  28010  0
28013  27756  28017  0
27756  27760  28017  0
27757  27527  28018  0
27757  28018  28016  0
27758  28019  27759  0
27528  28020  27535  0
27528  27759  28020  0
28021  28020  27759  0
28020  27761  27535  0
28020  28021  27761  0
28017  27761  28021  0
27761  28017  27760  0
28018  27527  27762  0
28018  27762  28022  0
27531  28023  27763  0
27531  27525  28023  0
28024  27766  27768  0
28024  27768  28025  0
28024  28026  27766  0
27766  28026  27767  0
28027  27767  28026  0
27767  27769  27764  0
27767  28027  27769  0
28028  27769  28027  0
27762  27530  27773  0
27762  27773  28029  0
27765  28030  27770  0
28025  27768  27771  0
27772  27769  28028  0
28031  28025  27771  0
28028  28032  27772  0
27773  27774  28029  0
28033  28029  27774  0
27543  27770  28034  0
28030  28034  27770  0
27772  27779  27544  0
28035  27779  27772  0
27776  28033  27774  0
27543  28034  28036  0
27543  28036  27777  0
27771  27775  27781  0
27549  27781  27775  0
27771  27781  28031  0
28037  28031  27781  0
27779  28035  28038  0
28033  27776  28039  0
27780  28039  27776  0
27783  28037  27781  0
27779  28040  27778  0
27780  28041  28039  0
27777  28036  28042  0
27777  28042  27785  0
28043  28037  28044  0
27791  28044  28037  0
28045  28043  28044  0
28037  27783  27791  0
27550  27778  28040  0
28041  27780  28046  0
27792  27550  28040  0
28047  28041  28048  0
28046  28048  28041  0
27786  28046  27780  0
28044  27791  28045  0
27790  28045  27791  0
28040  28049  27792  0
28050  28047  28048  0
27785  28051  27789  0
27785  28042  28052  0
27785  28052  28051  0
28045  27790  28053  0
27797  28053  27790  0
28045  28053  28054  0
28055  28054  28053  0
27560  27792  28056  0
28057  28048  28046  0
28046  27786  28057  0
27794  28057  27786  0
28051  28058  27789  0
27795  27789  28058  0
28051  28052  28058  0
28053  27797  27801  0
28053  27801  28055  0
28059  28055  27801  0
28056  28060  27560  0
27804  27560  28060  0
28061  28050  28048  0
27801  27803  28059  0
28062  28059  27803  0
27804  28060  27823  0
28048  28057  28061  0
27805  28061  28057  0
28057  27794  27805  0
28058  28063  27795  0
28064  27795  28063  0
27795  28064  27798  0
28065  27796  27798  0
27796  28065  27799  0
27806  27799  28065  0
27809  28066  27803  0
27803  28066  28062  0
28067  28062  28066  0
27804  27823  27565  0
27810  27826  28061  0
28061  27826  28068  0
28069  28068  27826  0
28061  27805  27810  0
28063  28058  28070  0
28071  28065  27798  0
28065  28071  27806  0
27806  28072  27813  0
27806  28071  28072  0
28073  28072  28071  0
27811  28074  27814  0
27833  27814  28074  0
27818  28075  27817  0
28075  28076  28077  0
28075  28077  27817  0
28078  28076  28075  0
27817  28077  28079  0
27817  28079  27815  0
27815  28079  27821  0
27821  28080  27809  0
27821  28081  28080  0
27809  28080  28066  0
27823  28082  27570  0
27570  28082  27824  0
27572  27825  28069  0
27572  28069  27826  0
28063  28083  28064  0
28063  28070  28083  0
28084  28071  27798  0
28073  28071  28084  0
27832  27814  27833  0
28075  27818  27829  0
28075  27829  28078  0
28085  28078  27829  0
28080  28081  28086  0
28080  28086  28087  0
28080  28087  28066  0
28066  28087  28067  0
28088  28064  28083  0
28083  28070  28089  0
28064  28088  27798  0
27798  28088  28084  0
27833  28090  27834  0
27829  27828  28085  0
28083  28089  28091  0
28083  28091  28088  0
27836  27834  28092  0
27836  28092  27839  0
28093  27828  27837  0
28094  28093  27837  0
27837  27831  28094  0
27838  28094  27831  0
28094  27838  27588  0
27587  27588  27838  0
28094  27588  28095  0
27588  27843  28096  0
27588  28096  28095  0
27844  27584  28097  0
27584  27840  28097  0
27586  27845  28098  0
27586  28098  27841  0
28099  27848  27847  0
27848  28099  27849  0
28100  27849  28099  0
28101  27846  27335  0
28101  28102  27846  0
27846  28102  27845  0
28098  27845  28102  0
27849  28100  27590  0
27843  27590  28100  0
27103  27592  28103  0
28101  27335  27850  0
28101  27850  28104  0
28104  27850  27852  0
27593  27594  28105  0
28106  27593  28105  0
27594  27596  28105  0
27594  27595  27596  0
28104  27852  28107  0
27852  28106  28107  0
27852  27593  28106  0
28108  27344  27853  0
27599  28109  27854  0
27599  27855  28109  0
27855  27107  27856  0
27344  28108  27600  0
27600  28110  27601  0
28111  27603  27602  0
27861  27603  28111  0
27605  27866  28112  0
27605  28112  27860  0
27869  27870  28113  0
27869  28113  28114  0
27869  28115  27867  0
27871  27867  28115  0
27871  28116  27872  0
27872  28116  28117  0
27872  28117  27863  0
27863  28117  27873  0
27865  28118  27866  0
27861  28119  27363  0
27876  27363  28119  0
28113  28120  28114  0
27870  27877  28113  0
28116  28121  28117  0
27873  28117  28122  0
27873  28122  27874  0
27874  28122  27875  0
27864  27875  28123  0
27864  28123  27865  0
27876  28124  27368  0
27368  28124  27613  0
28113  27877  28125  0
28113  28125  28120  0
28121  28126  28117  0
28117  28126  28122  0
28127  28122  28126  0
28128  28122  28127  0
28122  28128  27875  0
28123  27875  28128  0
27877  27880  28125  0
28125  27880  27881  0
28125  27881  27887  0
27123  28129  27373  0
27616  28130  27888  0
27616  27617  28131  0
27616  28131  28130  0
27889  28132  27885  0
27373  28129  27890  0
28133  27887  27891  0
27889  28134  28132  0
27888  28135  27618  0
27889  27623  28134  0
27890  28129  27624  0
27624  28129  27378  0
28136  28137  27891  0
27618  28135  28138  0
28139  27623  27622  0
27893  28136  27891  0
27618  28138  27382  0
27622  27894  28139  0
27380  27378  28140  0
28136  27893  28141  0
28142  28141  27893  0
28138  27895  27382  0
27627  28143  27894  0
27380  28140  27896  0
27893  27892  27899  0
27629  27895  28144  0
27627  27900  28143  0
28143  28145  27894  0
28146  28145  28143  0
27893  27899  28142  0
27899  27898  28147  0
28148  28147  27898  0
27898  27901  28148  0
27901  27629  28144  0
28146  28143  27900  0
28147  28148  28149  0
28148  27901  28149  0
28150  28149  27901  0
27901  28144  28150  0
27900  28151  28146  0
27900  28152  28151  0
28153  27900  27632  0
27900  28153  28152  0
27631  28154  27902  0
27632  27633  28153  0
27633  27634  28155  0
27904  27907  28155  0
27904  28155  27634  0
27904  27905  27907  0
27400  27903  27906  0
27403  27401  27906  0
27906  28156  27403  0
27907  27908  28157  0
28158  28157  27908  0
27637  27403  28159  0
27404  27909  27908  0
27909  28158  27908  0
27637  28159  27405  0
27405  28159  28160  0
27910  27638  27639  0
27405  28160  27406  0
27910  27640  28161  0
28162  28161  27640  0
28163  28162  27640  0
27406  28164  27911  0
27640  27641  28163  0
27912  28163  27641  0
28165  28163  27912  0
27912  28166  28165  0
27917  27915  28167  0
27917  28167  28168  0
27915  27913  28167  0
28169  28167  27913  0
27913  27914  28169  0
28170  28169  27914  0
27916  27911  28164  0
27912  27643  28166  0
28171  27918  27917  0
27917  28168  28172  0
27917  28172  28171  0
27914  27920  28170  0
27415  27916  28173  0
27643  27645  28166  0
27928  28166  27645  0
28166  27928  28174  0
28175  28174  27928  0
28174  28175  28176  0
27918  28171  27930  0
27931  27930  28171  0
28171  28170  27931  0
28177  27931  28170  0
28171  28172  28170  0
28170  27920  28177  0
27922  28177  27920  0
27924  27925  27923  0
28178  27923  27925  0
27925  27926  28178  0
28179  28178  27926  0
27926  27652  27927  0
27926  27927  28180  0
27926  28180  28179  0
27928  27663  28175  0
28181  28176  28175  0
28182  28176  28181  0
28181  28183  28182  0
27931  28177  28184  0
27931  28184  27932  0
28177  27922  28184  0
28185  28184  27922  0
27922  27653  28185  0
28186  28185  27653  0
27933  27923  27660  0
27923  28178  27667  0
28175  27663  27938  0
28175  27938  28181  0
28181  27938  27939  0
28181  27939  28183  0
28183  27939  27940  0
28183  27940  28187  0
28183  28187  28182  0
28187  27940  27932  0
27653  27418  28186  0
27418  27936  28188  0
27418  28188  28186  0
27936  28189  28188  0
27936  27655  28189  0
27655  28190  28189  0
27655  27937  28190  0
27937  27933  28191  0
27660  27665  27933  0
27941  28192  27665  0
27933  27665  28192  0
27941  27944  28192  0
27667  28178  27942  0
27944  27675  28193  0
28192  27944  28193  0
27942  28194  27666  0
28193  27675  28195  0
27675  28196  28195  0
27946  28197  27947  0
28198  27947  28197  0
27438  27673  27948  0
27947  28198  27945  0
28199  27671  27432  0
27671  28199  27670  0
27672  27670  28199  0
27440  27203  27672  0
27678  27684  27949  0
27949  28200  27673  0
28201  27948  27673  0
28202  27948  28201  0
27948  28202  27674  0
27677  27945  28198  0
27677  28198  27680  0
27450  27681  27951  0
28203  27688  28204  0
27684  27952  28205  0
27684  28205  27949  0
27674  28202  27954  0
28206  27953  27954  0
27681  28207  27951  0
27681  27692  28208  0
27681  28208  28207  0
28209  27950  27951  0
27950  28209  27682  0
28210  27682  28209  0
27682  27956  27687  0
27682  28210  27956  0
27688  28203  27955  0
27692  27697  28208  0
28211  27702  27958  0
28211  27958  28212  0
27953  28206  27695  0
28213  27695  28206  0
27959  28214  27697  0
28208  27697  28214  0
27959  28215  28216  0
27959  28216  28214  0
28217  27698  27956  0
27695  28213  27696  0
28213  27708  27696  0
28215  27959  27960  0
28215  27960  28218  0
28215  28218  28219  0
28215  28219  28216  0
27698  28217  27705  0
27957  27961  28220  0
27957  28220  28221  0
27957  28221  27958  0
27708  28213  27966  0
27708  27966  27709  0
27960  27710  28222  0
27960  28222  28218  0
27710  27711  28222  0
27711  27962  28222  0
27963  27713  28223  0
28224  27705  28225  0
27705  28224  27964  0
28226  27964  28224  0
27706  27964  28227  0
27706  28227  27965  0
27961  28228  28220  0
28213  28229  27966  0
27967  27966  28229  0
27713  27712  28230  0
27713  28230  28223  0
27712  27716  28230  0
27964  28226  28227  0
27965  28227  28228  0
27965  28228  27961  0
27716  27715  27969  0
27716  27969  28231  0
27716  28231  28230  0
28232  27968  27967  0
27967  27968  27714  0
27969  28233  28234  0
27969  28234  28231  0
27970  28233  27969  0
27721  27722  28235  0
27971  28236  27973  0
27975  28233  27970  0
28237  28234  28233  0
28238  27720  27721  0
27721  28235  28238  0
27974  27973  28239  0
27974  28239  27981  0
28233  27975  28237  0
27978  28237  27975  0
27720  28238  28240  0
27720  28240  27726  0
27978  27979  28241  0
28242  28241  27979  0
27979  27727  27984  0
27979  27984  28242  0
28243  28242  27984  0
28244  28243  27984  0
27726  28240  27985  0
27985  28240  28245  0
28246  27980  27492  0
27492  27983  28246  0
28247  28248  28244  0
27985  28245  27987  0
27495  27982  27983  0
27984  27986  28244  0
28244  27986  28247  0
28249  28247  27986  0
27987  28245  27730  0
27730  28245  28250  0
27730  28250  27992  0
27986  28251  28249  0
27986  27989  28251  0
28252  27990  27988  0
27991  28252  27988  0
28253  27993  27990  0
27990  28252  28253  0
28252  27991  28253  0
28254  28253  27991  0
27991  27994  28254  0
27995  28254  27994  0
27992  28255  27996  0
27996  28255  28256  0
27989  27997  28251  0
28257  27998  27993  0
27993  28253  28257  0
28258  28257  28253  0
28254  27995  28259  0
28000  28259  27995  0
27996  28260  27738  0
27996  28256  28260  0
28004  27997  27740  0
27997  28004  28261  0
28262  28261  28004  0
28263  27998  28257  0
28257  28258  28263  0
28259  28000  28264  0
28004  28008  28262  0
28263  27747  27998  0
28263  28258  28265  0
28264  28266  28259  0
28267  28264  28000  0
28000  28002  28267  0
28002  28001  28268  0
28269  28268  28001  0
28002  28268  28267  0
28001  27742  28269  0
28270  28269  27742  0
27742  28007  28270  0
28271  28008  27750  0
27750  27747  28271  0
27747  28263  28271  0
28265  28271  28263  0
28007  28006  28270  0
27752  28010  27753  0
28011  27753  28010  0
28011  28272  27755  0
28012  28013  28273  0
28009  28012  28274  0
28009  28274  28014  0
28014  28274  28275  0
28014  28275  28015  0
28276  28010  28277  0
28016  28277  28010  0
28010  28276  28278  0
28010  28278  28011  0
28011  28278  28272  0
28272  28279  27755  0
27758  27755  28279  0
28280  28013  28017  0
27524  28015  28281  0
27524  28281  27525  0
28282  28277  28016  0
28283  28276  28277  0
28018  28282  28016  0
27758  28279  28284  0
27758  28284  28019  0
28019  28285  27759  0
28019  28284  28285  0
27759  28285  28021  0
28286  28021  28285  0
28021  28286  28287  0
28021  28287  28017  0
28017  28287  28280  0
27525  28281  28023  0
28277  28282  28283  0
28022  28282  28018  0
28288  28283  28282  0
28289  28285  28284  0
28286  28285  28289  0
28290  27765  27763  0
28282  28022  28291  0
28282  28291  28288  0
28292  28028  28027  0
28022  27762  28029  0
28030  27765  28293  0
28294  28024  28025  0
28026  28024  28294  0
28028  28292  28032  0
28295  28032  28292  0
28296  28297  28022  0
28291  28022  28297  0
28296  28298  28297  0
28022  28033  28296  0
28022  28029  28033  0
28025  28031  28299  0
28025  28299  28294  0
28032  28035  27772  0
28032  28295  28035  0
28300  28035  28295  0
28296  28301  28298  0
28030  28302  28034  0
28303  28034  28302  0
28031  28304  28299  0
28305  28306  28301  0
28301  28296  28305  0
28033  28039  28296  0
28307  28036  28034  0
28308  28304  28037  0
28308  28299  28304  0
28308  28309  28299  0
28304  28031  28037  0
28035  28300  28038  0
28305  28310  28311  0
28305  28311  28306  0
28305  28296  28041  0
28296  28039  28041  0
28312  28036  28307  0
28308  28037  28043  0
28313  27779  28038  0
28310  28305  28047  0
28305  28041  28047  0
28036  28312  28042  0
28045  28314  28043  0
28308  28043  28314  0
27779  28313  28040  0
28310  28315  28311  0
28314  28045  28316  0
28313  28049  28040  0
28052  28042  28312  0
28316  28045  28054  0
28049  28056  27792  0
28049  28317  28056  0
28310  28047  28050  0
28310  28050  28318  0
28310  28318  28315  0
28054  28055  28319  0
28054  28319  28316  0
28060  28056  28317  0
28055  28059  28319  0
28318  28050  28061  0
28318  28061  28068  0
28318  28068  28320  0
28318  28320  28315  0
28059  28062  28321  0
28059  28321  28322  0
28059  28322  28319  0
28321  28323  28322  0
28060  28324  27823  0
28068  28325  28320  0
28326  28327  28078  0
28326  28078  28328  0
28326  28329  28327  0
28330  28327  28329  0
28327  28331  28076  0
28327  28076  28078  0
28327  28330  28331  0
28332  28331  28330  0
28331  28332  28077  0
28331  28077  28076  0
28333  28077  28332  0
28062  28067  28321  0
28324  28334  27823  0
28082  27823  28334  0
28068  28069  28335  0
28068  28335  28325  0
28072  28336  27813  0
27813  28336  28337  0
27813  28337  27811  0
27811  28337  28074  0
28328  28338  28326  0
28077  28333  28079  0
28079  28339  28081  0
28079  28081  27821  0
28321  28067  28340  0
28321  28340  28323  0
28082  28341  27824  0
27825  28335  28069  0
28073  28336  28072  0
28337  28342  28074  0
28074  28342  28090  0
28074  28090  27833  0
28328  28078  28085  0
28328  28085  28343  0
28079  28344  28339  0
28345  28339  28344  0
28339  28345  28346  0
28339  28346  28081  0
28081  28346  28086  0
28067  28087  28347  0
28067  28347  28348  0
28067  28348  28340  0
28070  28349  28089  0
28336  28073  28350  0
28336  28350  28337  0
28351  28346  28345  0
28352  28346  28351  0
28346  28352  28086  0
28086  28352  28353  0
28086  28353  28087  0
28087  28353  28354  0
28087  28354  28347  0
28348  28347  28355  0
28348  28356  28340  0
28357  28089  28349  0
28358  28073  28084  0
28073  28358  28350  0
28090  28359  27834  0
28085  28360  28343  0
28085  27828  28360  0
28353  28352  28361  0
28347  28354  28355  0
28362  28355  28354  0
28363  28348  28355  0
28364  28363  28355  0
28091  28365  28088  0
28366  28088  28365  0
28091  28089  28367  0
28091  28367  28365  0
28368  28088  28366  0
28088  28368  28084  0
28084  28368  28358  0
27834  28359  28369  0
27834  28369  28092  0
28093  28360  27828  0
28354  28370  28362  0
28355  28362  28364  0
28371  28368  28366  0
28368  28371  28358  0
28358  28371  28372  0
28366  28373  28371  0
28374  27840  27839  0
27839  28092  28374  0
28375  28095  28096  0
28097  27840  28376  0
28374  28376  27840  0
28377  27841  28098  0
27841  28377  27842  0
28378  27842  28377  0
27842  28378  27847  0
28099  27847  28378  0
28099  28379  28380  0
28099  28380  28100  0
28100  28380  28375  0
28375  28096  27843  0
27592  28381  28382  0
27592  28382  28103  0
27592  27844  28381  0
28097  28381  27844  0
28102  28101  28383  0
28384  28383  28101  0
28102  28385  28098  0
28098  28385  28377  0
28377  28385  28386  0
28377  28386  28378  0
28378  28386  28387  0
28378  28387  28099  0
28099  28387  28388  0
28099  28388  28379  0
28104  28384  28101  0
27851  27103  28389  0
27851  28389  28390  0
27851  28390  27598  0
28105  27596  28391  0
28392  28107  28106  0
28393  28392  28106  0
28106  28105  28393  0
28105  28391  28393  0
28394  28393  28391  0
28391  27596  28395  0
28396  28395  27596  0
27596  27597  28396  0
27597  27854  28396  0
28397  28109  27855  0
27600  28108  28110  0
27601  28110  28398  0
27601  28398  27858  0
27859  27858  28399  0
27859  28399  27602  0
27602  28399  28400  0
27602  28400  28111  0
27861  28111  28119  0
28401  27860  28112  0
27869  28114  28115  0
28402  28115  28114  0
28115  28402  27871  0
28116  27871  28402  0
27876  28119  28403  0
28120  28404  28114  0
28114  28404  28405  0
28114  28405  28402  0
28402  28405  28406  0
28402  28406  28116  0
28407  27865  28123  0
27865  28407  28118  0
28118  28407  28408  0
28118  28408  27866  0
27866  28408  28112  0
27876  28403  28124  0
28404  28120  28409  0
28116  28406  28121  0
28410  28121  28406  0
28121  28410  28126  0
28411  28126  28410  0
28412  28407  28123  0
28409  28120  28413  0
28409  28413  28414  0
28409  28414  28415  0
28409  28415  28404  0
28120  28125  28413  0
28126  28411  28127  0
28127  28416  28128  0
28128  28417  28123  0
28414  28413  28418  0
28413  28419  28418  0
28413  28125  28419  0
28414  28418  28420  0
28414  28420  28415  0
28418  28419  28421  0
28418  28421  28422  0
28418  28422  28423  0
28418  28423  28420  0
28419  28125  28133  0
28419  28133  28421  0
27617  27882  28131  0
27882  28424  28131  0
27882  27883  28424  0
27883  27884  28424  0
27885  28425  27884  0
28421  28133  28137  0
28125  27887  28133  0
27885  28132  28425  0
28132  28426  28425  0
28137  28427  28421  0
28428  28135  27888  0
28427  28137  28136  0
28427  28136  28429  0
28137  28133  27891  0
28129  28430  27378  0
28429  28431  28427  0
28432  28138  28135  0
27623  28139  28433  0
27623  28433  28134  0
28140  27378  28430  0
28429  28434  28431  0
28136  28141  28429  0
27895  28138  28432  0
28434  28429  28435  0
28434  28435  28436  0
28434  28436  28437  0
28429  28141  28142  0
28429  28142  28435  0
28438  27895  28439  0
27894  28145  28440  0
27894  28440  28139  0
28139  28440  28433  0
28435  28441  28436  0
27895  28438  28144  0
28145  28146  28440  0
28441  28435  28442  0
28441  28443  28436  0
28435  28142  28442  0
28142  27899  28147  0
28142  28147  28442  0
28444  28144  28438  0
28146  28151  28445  0
28146  28445  28440  0
28442  28147  28446  0
28147  28149  28446  0
28144  28444  28150  0
28151  28447  28445  0
27631  27896  28448  0
27631  28448  28154  0
28446  28149  28449  0
28446  28449  28450  0
28149  28150  28451  0
28149  28451  28449  0
28150  28444  28452  0
28150  28452  28451  0
28152  28453  28151  0
28449  28451  28454  0
28449  28454  28450  0
28453  28152  28153  0
27633  28155  28455  0
27633  28455  28153  0
28455  28155  28456  0
28155  27907  28457  0
28155  28457  28456  0
27903  28458  27906  0
28156  27906  28458  0
27907  28157  28457  0
28157  28158  28459  0
27403  28156  28159  0
28156  28460  28159  0
28158  27909  28461  0
28158  28461  28459  0
27909  28462  28461  0
27909  27638  28462  0
27638  27910  28463  0
27638  28463  28462  0
27910  28161  28463  0
28160  28464  27406  0
27406  28464  28164  0
28165  28162  28163  0
28174  28165  28166  0
28172  28168  28167  0
28167  28169  28465  0
28167  28465  28172  0
28169  28170  28466  0
28164  28467  27916  0
28176  28165  28174  0
28165  28176  28468  0
28182  28468  28176  0
28172  28465  28466  0
28172  28466  28170  0
27415  28173  28469  0
27415  28469  27927  0
28173  27916  28467  0
27927  28469  28470  0
27927  28470  28180  0
27932  28184  28187  0
28187  28184  28471  0
28472  28471  28184  0
28185  28472  28184  0
28185  28186  28473  0
28474  28473  28186  0
28186  28188  28474  0
28470  28475  28180  0
28470  28476  28475  0
28188  28189  28477  0
28478  28477  28189  0
28189  28190  28478  0
28479  28478  28190  0
28191  28190  27937  0
28191  27933  28192  0
28476  28480  28475  0
28190  28191  28481  0
28482  28481  28191  0
28191  28192  28193  0
28191  28193  28482  0
28480  28197  28475  0
28194  28475  28197  0
28193  28195  28482  0
28483  28482  28195  0
28480  28484  28197  0
28197  27946  28194  0
27666  28194  27946  0
28195  28196  28483  0
28485  28483  28196  0
28197  28484  28198  0
28196  27680  28485  0
27672  28199  28486  0
28487  27673  28200  0
27673  28487  28201  0
27680  28198  28488  0
27672  28486  27440  0
28207  28489  28490  0
28490  28491  28492  0
28490  28489  28491  0
28493  28491  28489  0
28490  28494  28207  0
27951  28207  28494  0
28490  28492  28494  0
27951  28494  28209  0
27949  28205  28200  0
28495  28200  28205  0
28206  27954  28202  0
28489  28207  28496  0
28208  28496  28207  0
28489  28496  28493  0
28497  28493  28496  0
28498  27691  27690  0
27691  28498  27952  0
28499  27952  28498  0
27952  28499  28205  0
28495  28205  28499  0
28202  28500  28206  0
28501  28206  28500  0
28496  28208  28214  0
28496  28214  28497  0
28210  28502  27956  0
28210  28503  28502  0
27958  28504  28212  0
28206  28501  28213  0
28214  28216  28497  0
28502  28217  27956  0
27958  28221  28505  0
28506  28507  28213  0
28506  28213  28501  0
28217  28508  28225  0
28217  28225  27705  0
28506  28509  28507  0
28507  28229  28213  0
28219  28218  28510  0
28222  28511  28218  0
28222  27962  28512  0
28222  28512  28511  0
27962  27963  28513  0
27962  28513  28512  0
27963  28223  28513  0
28220  28228  28514  0
28220  28514  28221  0
28230  28515  28223  0
28226  28516  28517  0
28226  28517  28227  0
28227  28518  28228  0
28229  28232  27967  0
28230  28231  28515  0
28519  28227  28517  0
28227  28519  28518  0
28232  28520  27968  0
28231  28521  28515  0
28231  28234  28521  0
27968  28236  27971  0
27968  28520  28236  0
28234  28522  28521  0
28523  27973  28236  0
28234  28237  28524  0
28234  28524  28522  0
28235  27722  28525  0
28235  28525  28238  0
27722  27972  28526  0
27722  28526  28525  0
27976  28527  27972  0
27976  27977  28527  0
27973  28523  28239  0
28237  27978  28241  0
28237  28241  28528  0
28237  28528  28524  0
28529  28240  28238  0
27977  27980  28530  0
27977  28530  28527  0
28239  28531  27981  0
28532  27981  28531  0
28528  28241  28533  0
28241  28534  28533  0
28241  28242  28534  0
28243  28244  28248  0
28243  28248  28535  0
28243  28535  28536  0
28243  28536  28242  0
28535  28248  28537  0
28240  28529  28245  0
28538  28245  28529  0
27980  28246  28539  0
28248  28247  28537  0
28537  28247  28540  0
28537  28540  28541  0
28537  28542  28535  0
28247  28249  28543  0
28247  28543  28540  0
28541  28540  28544  0
28545  28245  28538  0
28540  28543  28544  0
28245  28545  28250  0
28249  28546  28543  0
28543  28547  28544  0
28250  28255  27992  0
28548  28255  28250  0
28251  28549  28249  0
28249  28549  28546  0
28546  28550  28543  0
28547  28543  28550  0
28255  28548  28551  0
28255  28551  28256  0
27997  28261  28549  0
27997  28549  28251  0
28549  28552  28546  0
28253  28254  28266  0
28253  28266  28258  0
28254  28259  28266  0
28261  28262  28549  0
28549  28553  28552  0
28549  28262  28553  0
28262  28008  28271  0
28262  28271  28554  0
28262  28554  28553  0
28258  28266  28265  0
28266  28555  28265  0
28266  28264  28555  0
28264  28267  28555  0
28268  28269  28556  0
28269  28270  28557  0
28269  28557  28556  0
28271  28265  28554  0
28558  28554  28265  0
28265  28555  28558  0
28559  28558  28555  0
28555  28267  28559  0
28560  28559  28267  0
28267  28268  28560  0
28556  28560  28268  0
28280  28273  28013  0
28015  28275  28561  0
28278  28562  28272  0
28015  28561  28281  0
28276  28283  28278  0
28278  28283  28562  0
28279  28272  28562  0
28287  28563  28280  0
28281  28561  28564  0
28281  28564  28023  0
28283  28288  28562  0
28565  28562  28288  0
28562  28565  28279  0
28279  28565  28284  0
28566  28287  28286  0
28287  28566  28567  0
27763  28023  28290  0
28568  28290  28023  0
28564  28568  28023  0
28569  28288  28570  0
28291  28570  28288  0
28569  28571  28572  0
28569  28572  28288  0
28569  28570  28571  0
28573  28571  28570  0
28288  28572  28574  0
28288  28574  28565  0
28284  28565  28575  0
28289  28576  28286  0
28566  28286  28576  0
27765  28290  28293  0
28577  28570  28578  0
28297  28578  28570  0
28577  28573  28570  0
28570  28291  28297  0
28284  28579  28289  0
28576  28289  28579  0
28030  28293  28302  0
28580  28302  28293  0
28290  28581  28293  0
28293  28581  28580  0
28582  28026  28294  0
28026  28582  28027  0
28583  28027  28582  0
28027  28583  28292  0
28295  28292  28583  0
28578  28297  28298  0
28576  28584  28566  0
28302  28580  28585  0
28294  28586  28582  0
28294  28299  28586  0
28582  28586  28587  0
28582  28587  28583  0
28578  28298  28588  0
28301  28588  28298  0
28578  28588  28589  0
28590  28589  28588  0
28295  28583  28591  0
28295  28591  28300  0
28306  28588  28301  0
28034  28303  28592  0
28034  28592  28307  0
28299  28309  28593  0
28300  28591  28038  0
28588  28306  28590  0
28594  28590  28306  0
28306  28311  28594  0
28595  28309  28314  0
28308  28314  28309  0
28595  28593  28309  0
28596  28595  28314  0
28038  28591  28597  0
28038  28597  28313  0
28598  28599  28311  0
28312  28307  28600  0
28049  28313  28317  0
28313  28597  28601  0
28313  28601  28317  0
28314  28316  28596  0
28602  28311  28315  0
28311  28602  28598  0
28603  28598  28602  0
28312  28604  28052  0
28317  28601  28605  0
28316  28319  28606  0
28607  28606  28319  0
28317  28605  28060  0
28608  28060  28605  0
28603  28602  28315  0
28322  28607  28319  0
28609  28060  28608  0
28060  28609  28324  0
28315  28320  28603  0
28610  28603  28320  0
28052  28611  28058  0
28612  28613  28329  0
28330  28329  28613  0
28612  28614  28613  0
28615  28613  28614  0
28613  28615  28330  0
28616  28330  28615  0
28322  28323  28617  0
28618  28324  28609  0
28334  28324  28618  0
28619  28320  28325  0
28058  28611  28070  0
28612  28329  28620  0
28326  28620  28329  0
28612  28620  28621  0
28330  28616  28332  0
28332  28622  28333  0
28332  28616  28622  0
28623  28622  28616  0
28617  28323  28624  0
28334  28341  28082  0
28334  28625  28341  0
28335  28626  28325  0
28619  28325  28626  0
28627  28620  28628  0
28627  28629  28620  0
28621  28620  28629  0
28620  28326  28338  0
28620  28338  28628  0
28622  28623  28333  0
28630  28333  28623  0
28333  28630  28344  0
28333  28344  28079  0
28323  28340  28356  0
28323  28356  28624  0
27824  28341  27825  0
28626  27825  28341  0
27825  28626  28335  0
28070  28611  28349  0
28627  28628  28631  0
28627  28631  28632  0
28627  28632  28629  0
28338  28328  28343  0
28630  28633  28344  0
28344  28634  28345  0
28344  28633  28634  0
28635  28349  28611  0
28337  28350  28636  0
28337  28636  28342  0
28342  28636  28090  0
28628  28338  28637  0
28628  28637  28631  0
28338  28343  28638  0
28338  28638  28637  0
28639  28345  28634  0
28345  28639  28351  0
28356  28348  28363  0
28356  28363  28640  0
28349  28635  28357  0
28641  28357  28635  0
28636  28359  28090  0
28343  28360  28638  0
28352  28351  28361  0
28363  28364  28642  0
28363  28642  28643  0
28363  28643  28640  0
28357  28367  28089  0
28358  28372  28350  0
28350  28372  28644  0
28350  28644  28636  0
28636  28644  28369  0
28636  28369  28359  0
28637  28638  28645  0
28637  28645  28646  0
28638  28360  28093  0
28638  28093  28645  0
28647  28351  28648  0
28351  28647  28361  0
28649  28361  28647  0
28361  28649  28650  0
28361  28650  28353  0
28353  28650  28354  0
28643  28642  28651  0
28372  28652  28644  0
28653  28369  28644  0
28369  28653  28092  0
28645  28093  28654  0
28093  28095  28654  0
28093  28094  28095  0
28354  28650  28655  0
28354  28655  28370  0
28362  28370  28656  0
28362  28656  28364  0
28364  28656  28657  0
28364  28657  28642  0
28642  28657  28658  0
28642  28658  28651  0
28659  28365  28367  0
28365  28659  28366  0
28373  28366  28659  0
28373  28660  28371  0
28661  28371  28660  0
28371  28661  28372  0
28652  28372  28661  0
28092  28653  28662  0
28092  28662  28374  0
28654  28095  28375  0
28654  28375  28380  0
28654  28380  28663  0
28664  28650  28649  0
28650  28664  28655  0
28370  28655  28665  0
28370  28665  28656  0
28658  28666  28651  0
28667  28097  28376  0
28374  28668  28376  0
28374  28662  28668  0
28388  28387  28669  0
28379  28663  28380  0
28375  27843  28100  0
28670  28655  28664  0
28655  28670  28665  0
28657  28656  28671  0
28657  28671  28658  0
28658  28671  28666  0
28097  28667  28381  0
28672  28102  28383  0
28102  28672  28385  0
28673  28385  28672  0
28674  28385  28673  0
28675  28385  28674  0
28385  28675  28386  0
28387  28386  28675  0
28665  28670  28676  0
28665  28676  28656  0
28656  28676  28671  0
28389  27103  28103  0
28107  28677  28104  0
28107  28392  28677  0
28678  28396  27854  0
27598  28390  28679  0
27598  28679  27853  0
28680  28678  27854  0
27854  28109  28680  0
28108  27853  28681  0
28108  28681  28110  0
28682  27858  28398  0
28397  27855  28683  0
28684  28683  27855  0
27855  27856  28684  0
28685  27856  27857  0
27857  27860  28685  0
28686  28685  27860  0
27860  28401  28686  0
28119  28111  28687  0
28400  28687  28111  0
28688  28401  28112  0
28119  28689  28403  0
28403  28689  28690  0
28403  28690  28124  0
28124  28691  27613  0
27878  27613  28691  0
28692  28405  28404  0
28405  28692  28406  0
28693  28406  28692  0
28410  28406  28693  0
28407  28412  28408  0
27878  28691  28694  0
27878  28694  27879  0
28404  28415  28692  0
28411  28695  28127  0
28416  28127  28695  0
28417  28128  28416  0
28123  28417  28696  0
28123  28696  28412  0
28420  28692  28415  0
28692  28420  28693  0
28697  28693  28420  0
28693  28697  28410  0
28410  28697  28411  0
28698  28411  28697  0
28695  28411  28698  0
28416  28699  28417  0
27123  27879  28700  0
27123  28700  28129  0
28420  28701  28697  0
28420  28423  28701  0
28702  28701  28423  0
28697  28701  28698  0
28131  28424  28703  0
28423  28422  28704  0
28421  28704  28422  0
28423  28704  28702  0
28705  28702  28704  0
28130  28131  28706  0
28130  28706  28428  0
28131  28703  28706  0
27884  28425  28707  0
28708  28709  28704  0
28704  28709  28705  0
28704  28421  28708  0
28427  28708  28421  0
27888  28130  28428  0
28134  28426  28132  0
28710  28711  28709  0
28428  28712  28135  0
28430  28713  28714  0
28709  28708  28715  0
28709  28715  28710  0
28716  28710  28715  0
28431  28715  28708  0
28708  28427  28431  0
28717  28718  28135  0
28135  28718  28432  0
28712  28717  28135  0
28134  28433  28719  0
28140  28430  28714  0
28715  28431  28716  0
28720  28716  28431  0
28434  28721  28431  0
28431  28721  28720  0
28722  28720  28721  0
28723  28439  28432  0
27895  28432  28439  0
28724  28723  28432  0
28718  28724  28432  0
28725  28719  28433  0
28437  28721  28434  0
28723  28726  28727  0
28727  28726  28728  0
28727  28729  28439  0
28438  28439  28729  0
28727  28439  28723  0
28433  28440  28725  0
28730  28140  28714  0
28721  28437  28722  0
28731  28722  28437  0
28732  28731  28437  0
28727  28728  28729  0
28440  28733  28725  0
27896  28140  28448  0
28140  28730  28448  0
28437  28436  28443  0
28437  28443  28732  0
28734  28452  28729  0
