#!ascii file
-26.116947  -56.925659   36.665073  0
 -1.860324  -54.998978   37.040905  0
 -3.406363  -54.525787   37.363129  0
 -3.907411  -56.547462   37.214943  0
 -1.120084  -56.185146   36.449879  0
-21.767942  -58.022675   33.191071  0
 -5.432901  -57.070972   36.699722  0
-18.118628  -56.153545   32.075211  0
-20.003061  -54.806824   31.277842  0
-21.362019  -56.676228   32.238052  0
-24.519220  -56.974789   32.866020  0
 -7.902440  -57.792889   34.383171  0
 -1.263577  -55.573799   31.638769  0
 -2.184397  -55.566391   30.046766  0
 -8.992368  -57.066830   34.952492  0
-30.020922  -55.723438   32.685555  0
-34.786839  -55.789986   34.330471  0
-36.711273  -56.364582   33.314339  0
-17.383015  -53.796288   28.910065  0
-29.625282  -54.814808   31.334618  0
-36.909920  -58.154350   32.293854  0
-38.398453  -56.760887   31.895357  0
-29.951378  -53.690151   29.768564  0
-38.535702  -58.287426   30.769678  0
-27.345705  -54.815361   27.989468  0
-29.218508  -54.348278   28.352169  0
-37.783543  -59.518696   29.908928  0
-38.991661  -59.095295   28.551472  0
-39.952999  -58.137463   29.483334  0
-21.589495  -53.360981   28.505430  0
-24.601933  -53.702034   29.142485  0
-28.257215  -54.866970   26.321016  0
-28.523928  -54.613163   27.395277  0
-36.981918  -58.599400   28.406946  0
-35.833778  -57.452034   25.925594  0
-19.259184  -52.273777   26.764343  0
-27.881483  -55.685059   25.282949  0
-28.225481  -54.622738   25.215197  0
-28.483955  -54.552486   25.113029  0
-27.096889  -54.914051   23.586575  0
-35.190586  -56.280693   22.851070  0
-24.353361  -54.843456   22.451122  0
-22.653183  -55.136272   20.924994  0
-28.191919  -53.977783   21.005920  0
-43.099205  -59.446854   21.141998  0
-41.665855  -59.421005   21.300230  0
-42.110554  -59.231014   23.276865  0
-20.646774  -55.070694   18.940723  0
 -1.362361  -54.399250   18.844910  0
 -3.697963  -54.612228   20.299097  0
 -5.015885  -54.006344   20.081121  0
-34.975460  -54.112827   18.350922  0
 -0.910088  -54.815681   17.964500  0
 -3.798900  -53.501842   19.708368  0
 -6.831737  -53.568157   19.169640  0
 -8.542923  -53.427349   18.774811  0
-23.714832  -55.207272   16.566244  0
-23.153099  -54.900944   17.572628  0
-35.186340  -53.434158   16.747190  0
-35.929588  -53.849361   16.810015  0
 -0.828057  -54.724705   17.119108  0
-21.738884  -53.244995   16.321800  0
-20.653801  -54.359482   17.727451  0
-25.008707  -55.848026   16.048260  0
-26.624714  -55.952816   15.004004  0
-37.003132  -53.712708   16.264933  0
-26.807310  -56.564228   14.158761  0
-26.269394  -57.154266   13.141761  0
-39.448982  -53.961319   14.901698  0
-37.187538  -52.980911   15.238483  0
-37.933674  -52.490696   13.842828  0
-14.856548  -55.191662   10.540226  0
-23.285542  -53.079639   13.908362  0
-26.312479  -56.817108   12.238601  0
-42.024265  -54.308258   13.957627  0
-25.111532  -54.134796   12.463268  0
-42.760105  -53.521309   12.756286  0
-46.041912  -54.361687   13.046997  0
 -4.179059  -52.206463   12.713337  0
-12.859116  -56.606110   10.049167  0
-12.989654  -56.948742    8.553376  0
-13.718353  -54.845001    9.597171  0
-13.808636  -55.707516    7.796562  0
-16.049944  -54.689426    9.896171  0
-44.354767  -53.736992   12.809702  0
-47.437084  -54.959473   12.709694  0
 -1.307377  -53.573650   11.644801  0
 -3.741058  -51.664288   12.422477  0
-13.522619  -56.963993    6.749777  0
-26.230112  -54.330360    8.680384  0
-47.732666  -54.121426   11.606340  0
-49.805840  -54.975891   10.430349  0
-49.093098  -54.657463   11.103345  0
 -1.356999  -54.517639    9.739635  0
-13.451424  -56.694729    5.320361  0
-25.598595  -55.261868    8.084646  0
-41.710041  -56.809650    8.063364  0
-49.557461  -54.122791    9.409578  0
 -2.331112  -55.883949    6.497341  0
-26.011051  -56.263496    9.070787  0
-45.955692  -58.939709    7.742602  0
 -2.716345  -56.689331    4.392654  0
-50.044811  -53.414867    7.192167  0
 -2.362465  -56.176430    3.349460  0
-16.679136  -53.732841    4.949862  0
-26.351261  -56.083828    5.286004  0
-51.097363  -53.504391    5.503229  0
 -4.339699  -56.935104    2.258266  0
-10.009377  -55.165421    2.404385  0
-26.702749  -55.527390    4.818135  0
 -6.531347  -56.352753    1.544559  0
-17.739292  -53.449131    3.663177  0
-26.212889  -55.893387    3.855531  0
-40.467270  -50.928761    4.442665  0
-41.480873  -51.551975    4.095425  0
-42.006187  -51.548565    4.355841  0
-42.483364  -51.989124    3.688052  0
-44.180969  -52.899601    3.625216  0
-42.637432  -51.728954    5.203444  0
-45.391525  -52.825130    4.602537  0
-49.059845  -53.133938    4.275552  0
-47.434013  -52.622356    5.914927  0
-49.814548  -53.032360    5.852472  0
-44.159878  -52.876179    3.000331  0
-17.690510  -52.847668    2.902501  0
-10.705429  -53.175797    2.647067  0
-12.685407  -52.972561    3.019571  0
-16.576700  -53.104851    2.530025  0
-45.629528  -53.017773    1.733543  0
-46.798653  -52.400429    0.706171  0
-48.464600  -53.223091   -0.670457  0
-47.542645  -51.665730   -0.348429  0
 -7.327352  -52.664677    0.689439  0
-48.777180  -52.430431   -1.674872  0
-49.823616  -52.968643   -2.831686  0
 -4.652020  -52.475601   -1.185079  0
-37.726284  -54.201626   -3.618403  0
-38.401333  -54.342396   -4.766769  0
-47.533859  -52.233768   -3.689381  0
 -1.331354  -53.814316   -4.108431  0
 -1.064912  -53.537064   -5.365325  0
-11.399210  -53.180645   -4.885992  0
-12.373645  -54.092319   -6.010682  0
-12.198716  -52.016930   -3.163908  0
 -0.827541  -53.935104   -6.625189  0
 -9.908695  -53.140999   -5.831300  0
-10.116640  -52.312187   -4.806776  0
-13.520862  -53.103390   -5.925172  0
 -7.150014  -53.889660   -7.696026  0
 -8.227343  -52.751823   -6.375668  0
 -6.106467  -52.536587   -6.701559  0
-12.591788  -54.310463   -7.190412  0
-13.605474  -52.876148   -8.379128  0
-37.649578  -53.503872   -8.172710  0
-36.760567  -53.510952   -9.035672  0
 -4.200473  -52.313206   -7.851887  0
 -4.960068  -53.105747   -8.034820  0
 -4.474181  -51.697781   -6.750496  0
 -3.335278  -51.729019   -7.595227  0
-31.402287  -54.755173   -9.142758  0
-34.408684  -53.994297   -9.751318  0
-35.711105  -54.419052   -9.802712  0
 -4.985074  -53.864391   -9.667720  0
 -3.295161  -53.035374   -8.732750  0
-12.611089  -53.022961   -9.844502  0
-13.618793  -52.575180  -10.514842  0
-14.451034  -52.384300  -10.350452  0
 -2.045456  -53.424740   -8.694420  0
 -6.469786  -53.968140  -10.579345  0
-11.525373  -52.899643  -10.992591  0
-12.865685  -52.900345  -11.291826  0
-19.913166  -54.527096  -13.068958  0
-19.972773  -54.084377  -12.018309  0
 -8.186323  -53.315254  -11.720740  0
-10.240551  -53.150475  -12.052379  0
-11.348120  -53.789555  -13.315706  0
-14.562237  -53.429951  -11.754391  0
-15.614188  -54.211983  -13.008154  0
-17.283707  -54.012009  -14.000327  0
-18.715321  -54.471382  -14.728057  0
-19.867474  -53.525311  -12.519295  0
-34.940586  -53.996109  -11.457172  0
-38.289413  -53.229771  -13.970545  0
 -2.598205  -54.195160  -14.034304  0
 -5.073204  -54.737610  -12.759241  0
 -5.271365  -53.027359  -13.049321  0
-19.753105  -53.531487  -14.214170  0
-37.026543  -52.705353  -14.686862  0
 -6.767649  -54.991650  -13.420272  0
-35.738434  -52.447670  -16.403120  0
 -7.207081  -55.226673  -14.159903  0
-19.467312  -53.729786  -14.939968  0
 -2.523675  -54.055355  -16.400093  0
 -8.093931  -54.773327  -14.065106  0
 -9.095384  -54.995155  -15.504082  0
-19.441685  -52.982479  -16.914925  0
 -4.041011  -54.075153  -21.420740  0
 -3.245688  -53.755222  -21.493710  0
 -2.417226  -53.125690  -21.280918  0
 -2.402871  -52.966030  -18.867208  0
-11.064407  -55.068230  -16.861935  0
-14.663587  -54.477875  -16.372608  0
-16.762724  -54.219181  -16.399143  0
-18.070490  -54.278355  -17.003300  0
-35.078827  -56.277821  -18.745779  0
 -4.227674  -53.173267  -22.576021  0
-25.123186  -53.228703  -21.572941  0
-25.709450  -53.542831  -21.979918  0
-23.371382  -55.079014  -24.157955  0
-22.499228  -56.221329  -24.957319  0
-37.158970  -54.065628  -22.389313  0
-22.852530  -56.048183  -26.047325  0
-27.913258  -53.258945  -25.035093  0
-27.916899  -53.382896  -26.532820  0
-13.483462  -51.904678  -28.693258  0
-24.351133  -55.278759  -27.533499  0
-27.277691  -54.726490  -27.617867  0
-40.576134  -54.414249  -28.030464  0
-41.940556  -53.252117  -28.045708  0
-14.960126  -52.546612  -30.281961  0
-15.430449  -51.131531  -30.025831  0
-31.388472  -56.374462  -29.658913  0
-36.533657  -57.047150  -30.060072  0
-39.660896  -55.501789  -28.535255  0
-43.415379  -52.942791  -27.930222  0
-44.156494  -52.701618  -27.378870  0
-28.410320  -55.408539  -28.553261  0
-30.384850  -56.276035  -29.516647  0
-17.680420  -53.077862  -31.981459  0
-19.565693  -53.606560  -32.037766  0
-25.002539  -56.109264  -33.023682  0
-25.256783  -56.269142  -32.416065  0
-26.147238  -56.730488  -31.939709  0
-26.877523  -57.509350  -32.496273  0
-27.708879  -57.812515  -31.379948  0
-27.348469  -58.380672  -32.592285  0
-20.975290  -53.391754  -31.366701  0
-27.728230  -57.843403  -33.689312  0
-19.230061  -56.180283   40.861851  0
-12.312106  -56.533699   38.527943  0
-21.492283  -56.109585   38.963154  0
-24.852192  -55.096401   38.852364  0
-26.998352  -55.673527   37.196171  0
 -4.801900  -55.212528   37.668495  0
 -5.798926  -56.209572   37.255119  0
-27.451971  -56.276024   35.186146  0
 -1.362853  -54.430531   36.663708  0
-10.505591  -56.746227   36.588337  0
-26.639664  -56.489075   33.511181  0
 -0.985641  -54.403481   35.655972  0
 -7.561626  -56.637844   36.682850  0
-23.860922  -55.564499   31.830320  0
 -0.966675  -54.560936   33.416218  0
 -1.189370  -54.681419   31.357422  0
-17.873913  -53.401653   29.637743  0
-31.848564  -53.879425   34.043045  0
-34.216633  -54.701118   34.804466  0
-30.315744  -54.406132   32.839939  0
-30.360964  -53.448948   32.157429  0
-35.788410  -54.778442   34.331955  0
-37.167557  -55.148678   33.475277  0
-37.929935  -55.935841   32.900406  0
-38.333076  -54.668922   33.164692  0
-40.155907  -54.771206   31.538774  0
-31.038717  -52.412537   31.491711  0
-40.209301  -56.705933   30.507818  0
-41.737492  -55.873795   29.825840  0
-25.933304  -54.332355   29.026211  0
-30.380102  -52.537197   27.495611  0
-41.815086  -56.818241   29.289314  0
-26.467531  -53.567894   28.450415  0
-27.591425  -53.145065   27.457636  0
-28.267731  -54.264233   27.014494  0
-28.708418  -53.343929   26.081318  0
-29.369032  -53.065445   26.721989  0
-37.549313  -58.235634   27.287529  0
-40.776024  -58.303551   28.426285  0
-42.337780  -55.932663   28.732986  0
-11.952013  -53.555450   22.377428  0
-10.514641  -54.120815   23.258532  0
-20.901443  -51.677540   27.503710  0
-28.671482  -54.353348   26.214308  0
-29.015774  -53.228100   25.538912  0
-36.886353  -57.745007   25.305141  0
-38.898659  -58.582684   26.061735  0
-40.195492  -59.018845   27.118746  0
-41.655899  -58.096409   27.176178  0
-42.509941  -56.669643   27.559633  0
-28.451338  -53.752960   24.088057  0
-36.223698  -56.836609   23.608383  0
-40.830170  -58.866837   25.813890  0
-24.576044  -53.091423   21.952967  0
-28.660334  -53.667675   23.308590  0
-37.609081  -57.763279   23.844059  0
-38.923069  -58.359165   23.905241  0
-42.219986  -58.344967   24.939259  0
-40.804924  -59.089745   24.142918  0
-42.219658  -57.558838   26.281824  0
-23.311346  -53.625996   21.312115  0
-36.013618  -55.434868   21.143021  0
-35.007244  -55.496853   21.218603  0
-39.136242  -58.423691   22.648664  0
-37.567394  -57.019981   22.251617  0
-40.667160  -59.294651   22.371290  0
-12.192540  -52.025162   20.236776  0
-22.731260  -54.201237   20.115370  0
-38.422569  -57.411346   21.674526  0
-39.467075  -58.338898   21.444170  0
-43.796879  -58.147110   23.092388  0
-45.082111  -57.780140   21.408113  0
-44.625755  -58.469749   20.144993  0
-11.999792  -52.037174   18.835720  0
-22.319611  -53.384518   18.802465  0
-27.091625  -53.211937   20.234734  0
-40.916172  -58.053978   19.997469  0
-43.234383  -59.147808   20.076004  0
-24.884653  -53.378056   19.716518  0
-44.007160  -58.043991   18.734585  0
-42.637280  -58.364006   19.263491  0
-23.067125  -54.597771   18.441580  0
-23.470112  -54.038033   19.139986  0
 -5.090637  -52.560020   19.295652  0
-10.485356  -52.682381   18.474022  0
 -2.622057  -52.788700   18.835396  0
 -7.614582  -52.527992   18.472612  0
-24.168507  -53.846851   15.039338  0
 -0.890299  -53.128880   16.484213  0
 -1.716720  -52.613708   14.923551  0
-22.547556  -53.105938   15.012821  0
-35.615208  -52.414158   14.649381  0
 -3.552404  -52.033688   13.316999  0
-26.757290  -55.090080   14.020013  0
-27.081955  -55.809177   13.730058  0
-23.901558  -52.300858   12.967632  0
-26.932531  -55.299828   13.057268  0
-26.462116  -55.726788   11.600352  0
-26.951685  -54.753666   11.955292  0
-40.549137  -52.200405   11.927241  0
-38.064320  -51.235870   12.198354  0
-25.693895  -52.825829   11.122113  0
-26.468878  -54.118515   10.000607  0
-43.054317  -52.574421   11.033789  0
-45.488300  -53.268253   11.473959  0
-14.500057  -54.645340    7.793461  0
 -1.160840  -52.977154   10.879190  0
 -1.135890  -53.823307    9.633469  0
-14.323487  -55.620445    6.268571  0
-44.325714  -52.298000    9.104166  0
-47.419167  -52.975246    9.083083  0
 -1.645929  -54.484390    7.903521  0
-15.237868  -54.152142    6.790216  0
-16.185404  -53.655300    6.977824  0
-45.880363  -52.286758    7.250068  0
-47.881107  -52.669956    7.379015  0
 -1.295941  -54.850464    5.739743  0
-14.593911  -54.751019    5.606580  0
-16.187878  -53.595760    5.908178  0
-25.909193  -53.956738    6.891737  0
-26.291334  -54.508846    8.069834  0
-26.121395  -55.305859    9.058425  0
-14.137805  -53.616367    4.503155  0
-26.199009  -55.162659    5.800099  0
-45.159893  -52.136040    6.454902  0
-12.208646  -53.943050    3.234532  0
-40.391582  -50.989292    5.085576  0
-40.722328  -50.756401    6.013882  0
-43.203041  -51.680820    6.286361  0
 -3.916427  -55.866928    2.050072  0
-17.897596  -52.806152    4.172540  0
-26.497976  -55.371433    4.879108  0
-38.542885  -50.391270    5.187158  0
-26.855072  -55.429089    3.641124  0
-13.734094  -51.546246    3.015997  0
-15.116039  -51.495029    2.884916  0
-42.592823  -51.440617    4.010542  0
 -9.572919  -51.667995    1.637319  0
-45.172668  -51.228302    2.671705  0
 -6.803633  -51.308544    0.277299  0
 -7.329060  -51.003384    0.340292  0
 -6.313489  -51.400204   -0.416499  0
-38.670319  -53.583321   -3.003840  0
-42.132099  -52.271271   -3.170529  0
-47.810974  -51.167225   -1.438257  0
-48.429901  -51.939503   -2.631329  0
 -3.273587  -52.754379   -2.497524  0
 -5.693464  -51.616230   -1.385119  0
 -4.331552  -51.707722   -2.641244  0
-10.772048  -50.231491   -1.432159  0
 -9.944192  -51.000439   -2.641401  0
-12.652020  -50.320324   -1.721716  0
-13.268049  -51.445488   -2.995389  0
-13.290284  -50.423447   -1.973013  0
-44.983337  -51.171986   -3.191183  0
 -3.013253  -52.427235   -3.879020  0
 -8.305034  -51.716579   -5.055346  0
 -7.269599  -50.518417   -2.341418  0
-13.573668  -51.964642   -4.768354  0
 -6.103561  -51.183239   -4.075836  0
 -1.207298  -52.925869   -6.765350  0
 -5.203456  -51.464043   -5.439178  0
 -3.445917  -51.407345   -6.624678  0
-13.928939  -52.282341   -8.132014  0
 -2.213908  -52.207130   -7.535950  0
-15.176508  -52.599300  -10.750890  0
-31.656868  -53.540009   -9.637520  0
-33.144958  -53.182514   -9.479851  0
-16.156118  -53.368694  -12.105651  0
-17.751440  -53.719952  -13.682515  0
-19.316833  -53.901806  -13.956039  0
-20.234713  -53.071041  -12.234693  0
-19.055454  -54.439438  -14.104076  0
-32.015469  -52.965141  -10.808087  0
-20.192863  -52.392967  -12.708047  0
-34.375114  -52.732353  -12.102870  0
-19.643280  -52.956406  -13.368147  0
-36.605110  -52.225601  -13.742568  0
 -3.463460  -53.328770  -13.467630  0
 -2.784491  -52.786655  -14.253277  0
 -5.989800  -54.233234  -12.991366  0
 -7.172790  -53.921421  -13.215725  0
-35.896839  -51.557602  -14.863116  0
 -2.545841  -53.245033  -17.230846  0
 -2.497720  -53.039051  -15.507187  0
 -9.039089  -54.202568  -14.048084  0
-10.214010  -54.481754  -15.142152  0
 -1.954108  -52.815121  -21.069466  0
-11.819383  -54.037720  -15.591430  0
-12.509666  -54.428898  -16.246235  0
-13.203698  -53.223923  -15.477496  0
-15.585045  -53.044209  -15.812295  0
-16.620434  -53.016003  -16.400576  0
-17.612858  -53.205738  -17.069506  0
-41.547310  -57.402264  -18.817665  0
-41.944157  -56.725380  -17.402325  0
-44.350960  -57.306499  -18.710041  0
-44.162495  -56.543839  -17.726374  0
-36.070774  -56.429405  -20.223791  0
-36.218452  -56.386600  -18.938202  0
-41.713051  -57.388618  -19.964739  0
-44.898914  -57.559357  -19.785019  0
-46.694969  -56.839859  -18.114971  0
-48.318924  -57.338341  -18.975529  0
 -2.548875  -52.331211  -21.723959  0
 -6.133722  -52.236725  -23.787655  0
 -4.861315  -52.301743  -23.225231  0
-25.472635  -51.466282  -21.650492  0
-44.752239  -57.416855  -20.777182  0
-47.632755  -57.473976  -21.132526  0
 -7.939893  -52.064224  -24.229963  0
-26.694054  -53.275711  -23.133821  0
 -9.371657  -52.403477  -26.988016  0
-10.016450  -52.057766  -27.623526  0
-23.523003  -55.103710  -25.689825  0
-36.686516  -54.225723  -21.876884  0
-37.464001  -52.954617  -22.858219  0
-11.104728  -51.444950  -27.779083  0
-38.589886  -51.525833  -23.306223  0
-40.449871  -52.099918  -23.706800  0
-41.755390  -51.784988  -24.578691  0
-15.213209  -50.604252  -28.998753  0
-27.937988  -54.396736  -27.291859  0
-44.001381  -52.443855  -26.786196  0
-25.083885  -54.004761  -27.961275  0
-24.600760  -54.079975  -29.468996  0
-37.478405  -56.889072  -30.436958  0
-39.803101  -55.823486  -29.541477  0
-16.274878  -52.253750  -30.892441  0
-17.570457  -50.591068  -30.731596  0
-34.491970  -55.908405  -30.428953  0
-39.263008  -56.520206  -30.460701  0
-17.204952  -52.297192  -31.624031  0
-23.703794  -53.255169  -29.725740  0
-22.494728  -52.534473  -29.983236  0
-28.009121  -56.826283  -29.797255  0
-29.303646  -57.991180  -30.865492  0
-30.067982  -56.920101  -30.092203  0
-26.781136  -56.199856  -30.020454  0
-19.421005  -51.341816  -31.396702  0
-25.066046  -55.966499  -31.267744  0
-24.638136  -55.833126  -31.786652  0
-26.064461  -56.334560  -30.824392  0
-29.597956  -58.121456  -31.639854  0
-28.827845  -58.314857  -32.687222  0
-29.940912  -57.972382  -32.241142  0
-26.551641  -57.032394  -34.309975  0
-29.750385  -57.521725  -33.147121  0
-30.922152  -56.825470  -32.906582  0
-30.237457  -56.892738  -33.986107  0
-12.322097  -55.011707   42.739029  0
-10.906893  -53.458904   43.811054  0
-13.335276  -54.161610   43.669903  0
-13.906966  -52.970379   44.556110  0
-15.150698  -54.059422   43.971874  0
 -9.896064  -54.300289   43.232044  0
 -9.949660  -55.550045   41.871788  0
 -9.124268  -53.904541   43.022018  0
-15.331298  -55.647720   42.382641  0
-17.169493  -55.255619   42.506771  0
-17.184324  -53.645657   43.746067  0
 -8.492436  -54.162510   42.022858  0
 -9.370708  -55.745472   40.445873  0
-13.381882  -55.944977   41.577709  0
-18.844631  -53.976261   42.486156  0
 -8.106253  -54.504715   40.430496  0
 -8.244019  -55.319893   39.847431  0
 -6.368637  -54.020683   39.457607  0
 -7.369950  -53.253647   40.337215  0
-12.347306  -56.214184   39.640530  0
-19.242836  -54.625847   41.801224  0
 -7.077850  -55.542484   38.576069  0
 -8.735831  -55.929588   39.217731  0
 -9.805851  -56.308132   37.720596  0
-21.266741  -54.421021   39.848400  0
 -4.775097  -53.903606   38.100178  0
 -5.731163  -52.826553   39.330772  0
 -3.915469  -53.053001   37.855896  0
 -8.290628  -56.089985   38.023056  0
-22.601749  -55.300125   38.952850  0
-26.464441  -54.637356   38.324432  0
-27.733538  -54.027668   37.215881  0
-28.386047  -54.745827   35.483120  0
 -2.402494  -53.183601   37.080692  0
 -1.456882  -52.887028   35.759483  0
-28.542465  -54.974827   33.557850  0
-22.245789  -54.916977   31.549036  0
-25.706991  -55.583317   31.962605  0
-27.439142  -54.982914   32.095467  0
 -1.085173  -53.637829   31.926504  0
-19.378723  -53.312248   30.404600  0
 -1.569880  -54.643005   29.863300  0
-31.378809  -52.591415   33.189350  0
-32.501781  -52.376461   34.167263  0
-34.211899  -53.287437   34.891773  0
-36.178661  -53.612152   34.558128  0
-36.798973  -52.322659   34.339127  0
-39.070652  -53.094475   33.143795  0
 -2.841983  -55.504566   28.009659  0
-40.017879  -52.525646   32.301300  0
-30.844370  -52.586998   29.464571  0
-32.308990  -51.345085   29.365929  0
-40.282490  -54.034603   30.675842  0
 -2.266707  -55.913448   24.865204  0
 -1.767014  -54.852734   25.893618  0
 -2.501799  -55.769913   25.999445  0
 -1.962996  -55.191975   23.933249  0
 -9.790801  -54.991871   24.124975  0
-41.313171  -54.871849   29.405584  0
 -3.473193  -56.024662   24.028990  0
-18.058247  -51.292023   27.157587  0
-26.147457  -52.493660   28.516184  0
-25.200594  -51.330276   28.290285  0
 -3.903483  -54.800629   21.773983  0
-22.900537  -50.660751   27.798178  0
-29.696882  -52.297115   25.475187  0
-41.872086  -55.374718   27.889378  0
 -2.653232  -54.370853   22.295536  0
-27.583361  -53.175770   23.007292  0
-42.748173  -56.470692   26.803783  0
-42.404438  -55.898609   26.485912  0
-29.289677  -52.363689   23.078180  0
-42.672024  -56.812778   25.460464  0
-43.676640  -57.083008   24.282412  0
-29.308966  -52.091660   21.455294  0
-38.108761  -56.159069   20.685194  0
-45.264732  -56.494011   22.686953  0
-46.501526  -56.023880   21.286911  0
-12.658183  -49.665997   18.654659  0
-28.649141  -51.959431   20.271788  0
-35.142971  -53.984692   19.652843  0
-41.818085  -56.696407   18.304068  0
-46.860970  -56.577087   19.787832  0
-27.696918  -51.310844   19.212715  0
-34.833900  -52.947273   17.553549  0
-45.852913  -57.445217   18.803421  0
-44.857708  -56.612503   17.755234  0
-47.313293  -56.467285   18.658163  0
-21.681324  -53.131413   17.477402  0
-23.522087  -52.659122   18.695473  0
-46.851315  -56.458393   17.578199  0
 -1.094466  -53.580837   17.943687  0
-22.843397  -52.896160   17.565807  0
 -1.481003  -51.785706   17.794832  0
 -3.724363  -51.647755   18.827227  0
 -1.159676  -51.145336   15.966576  0
 -6.501717  -51.260452   18.540462  0
 -9.640036  -51.292263   17.995920  0
-11.665390  -51.145233   18.018047  0
-22.929672  -53.463722   16.153719  0
-34.512882  -51.642807   14.613966  0
-25.782379  -54.329891   14.337753  0
 -2.444290  -50.590351   14.052440  0
-22.360567  -52.120998   15.489487  0
-26.609573  -54.277004   13.396195  0
-36.160152  -51.359013   12.749639  0
 -4.953778  -51.481056   12.326333  0
 -5.749059  -50.659992   12.145454  0
-26.791502  -53.915672   12.206743  0
-24.829311  -52.679272   12.345171  0
-15.676983  -53.430153    9.877882  0
-39.229839  -50.614094   10.780565  0
-16.168337  -53.041862    9.149858  0
-26.642076  -54.836700   10.265396  0
-41.224922  -51.207531    9.371672  0
 -1.412324  -52.246567   11.899718  0
-16.301348  -52.811504    7.380443  0
-26.513290  -53.172848    9.616946  0
 -1.491612  -53.729252    8.836367  0
 -1.314565  -53.470203    8.098045  0
 -0.903531  -53.240108    9.405270  0
-43.154671  -51.570431    7.885196  0
-41.428707  -50.986046    7.294743  0
-15.542768  -53.702045    5.669077  0
 -1.206546  -54.751740    4.391718  0
-16.698057  -52.484810    5.265754  0
-26.282877  -54.160236    6.100335  0
 -2.154117  -54.577896    2.578766  0
 -4.818178  -54.932297    1.896102  0
 -7.681299  -55.013279    1.607276  0
 -6.665638  -53.956196    2.230742  0
 -9.194180  -53.352123    2.445759  0
-18.370441  -51.086983    4.136776  0
-26.463024  -54.746017    4.990707  0
-38.605957  -50.124043    4.235995  0
-18.803709  -49.728981    3.461676  0
-11.283956  -50.705757    2.219288  0
-12.721360  -50.285076    2.492538  0
-16.592516  -50.877892    2.709010  0
-39.764706  -49.498108    4.134261  0
-41.668671  -50.238953    4.220438  0
-43.404846  -50.610279    3.775773  0
 -8.657238  -50.466476    0.543372  0
-10.020384  -50.239822    0.857906  0
-45.982281  -50.545044    1.801584  0
 -7.620318  -50.190800   -0.224702  0
-10.876581  -49.814617   -0.408413  0
-12.897871  -49.527943   -0.732091  0
-13.270444  -49.348644    0.499384  0
-13.475816  -49.172802   -0.299714  0
-14.278975  -48.725567    0.379066  0
-40.133472  -52.150391   -3.173759  0
-41.308681  -52.045547   -3.286069  0
-47.299992  -50.339252   -0.965719  0
-47.177475  -50.528370   -2.016070  0
 -6.330041  -50.960819   -1.435403  0
 -9.097964  -49.937077   -0.392794  0
-39.418617  -53.267231   -3.570818  0
-42.882442  -51.034752   -3.045099  0
-46.120354  -50.240276   -2.441509  0
 -4.348033  -51.419327   -3.934228  0
 -5.552417  -51.133991   -2.917350  0
 -8.290188  -50.007298   -1.292412  0
 -3.201529  -51.603088   -5.299630  0
-38.192547  -54.095005   -6.928437  0
 -2.046461  -51.990276   -6.324080  0
-36.789478  -52.742554   -9.074759  0
-35.199593  -52.645512   -9.458497  0
-45.420643  -55.348312   -7.404003  0
-46.358448  -54.324772   -6.269480  0
-47.374870  -55.324753   -6.931559  0
-48.062523  -53.886837   -5.961025  0
-48.908558  -55.136375   -7.036243  0
-19.531078  -53.213005  -12.898691  0
-20.268866  -52.089336  -12.430558  0
-45.669132  -55.998161   -8.564133  0
-44.308403  -55.759567   -8.444256  0
-44.144310  -55.796562   -9.836314  0
-47.839378  -56.165985   -8.174576  0
-46.429317  -56.658325  -10.028730  0
-45.268929  -56.364449  -11.567941  0
-48.590580  -56.757290   -9.558636  0
-49.228634  -55.420979   -7.710214  0
-50.018391  -55.860882   -8.377466  0
-47.218407  -57.049423  -11.665377  0
-48.816082  -57.046501  -11.515970  0
-45.959648  -56.179966  -13.191006  0
-50.700737  -56.305927  -10.088391  0
-49.912724  -56.590496  -12.205277  0
-51.161354  -55.516773   -8.634562  0
-51.493462  -55.692459  -11.551616  0
-52.469574  -55.379429   -9.415780  0
-52.714539  -55.220272  -10.732754  0
-53.732044  -54.360405  -10.169933  0
-35.468788  -51.603771  -13.707268  0
-48.212200  -56.861156  -13.021755  0
-50.833843  -55.720589  -12.967482  0
-49.894226  -55.982395  -13.608054  0
-48.733143  -56.092796  -14.010786  0
 -3.693105  -52.031960  -13.831180  0
 -8.364043  -53.040909  -13.616676  0
 -6.915935  -52.325455  -13.394546  0
 -9.561499  -52.793056  -14.233081  0
-19.925079  -52.940636  -14.021340  0
-11.058202  -53.187595  -14.793333  0
-11.593633  -51.792259  -14.928888  0
-19.664066  -52.717686  -15.527135  0
 -2.944029  -51.911819  -17.056665  0
 -2.056942  -52.160069  -20.443596  0
-14.026109  -51.663280  -15.230847  0
-19.614161  -52.025105  -16.490271  0
-15.326638  -51.795963  -15.868132  0
-17.398321  -50.845730  -17.861729  0
-35.979134  -53.591949  -17.036572  0
-36.640625  -55.892601  -17.720715  0
-38.761368  -56.466946  -17.641806  0
-39.030304  -57.054340  -18.878645  0
-37.331715  -55.054405  -17.251097  0
-40.132484  -56.862072  -17.519926  0
-39.997536  -55.403206  -16.944281  0
-42.276539  -55.596825  -16.908791  0
-43.706738  -55.442120  -17.264822  0
-37.298363  -56.373882  -20.345552  0
-39.300934  -56.904953  -20.044703  0
-46.032207  -55.766323  -17.603804  0
-49.332405  -56.311512  -17.960644  0
-50.481758  -56.878391  -19.260239  0
-51.576267  -55.973309  -19.066292  0
-51.688705  -55.978958  -20.363562  0
 -4.866760  -51.371799  -22.834379  0
-24.980742  -52.066582  -22.291706  0
-24.134268  -53.569752  -22.976782  0
-26.218189  -51.218372  -21.953337  0
-26.642771  -52.413857  -22.726517  0
-36.996712  -55.290520  -21.299177  0
-39.635017  -55.960175  -20.933277  0
-43.335258  -56.601757  -21.449030  0
-46.659897  -57.065369  -22.102613  0
-50.042747  -57.137123  -20.763058  0
-25.541994  -52.560604  -23.788019  0
-27.990040  -52.265812  -24.326597  0
-48.688736  -57.013065  -22.027153  0
-50.797443  -56.363716  -21.383087  0
 -7.253454  -51.201057  -23.866619  0
 -8.737663  -51.852589  -25.118021  0
-25.240324  -53.651787  -25.767014  0
 -9.213833  -51.005322  -26.129358  0
-10.303150  -50.844543  -27.022507  0
-28.677431  -51.703789  -25.763792  0
-42.211514  -51.087997  -25.841267  0
-13.225045  -50.272514  -27.706625  0
-15.151195  -49.796825  -28.276403  0
-17.043085  -49.140648  -29.692009  0
-25.799059  -52.923145  -26.387907  0
-25.863699  -51.929008  -27.439283  0
-42.586201  -51.473953  -27.053680  0
-24.971207  -53.140320  -28.855101  0
-24.901283  -51.861359  -28.569090  0
-27.616217  -54.354515  -27.506927  0
-40.962029  -53.062080  -28.168398  0
-40.462116  -54.178062  -28.887962  0
-42.278450  -52.056263  -27.613451  0
-17.914682  -51.565529  -31.308130  0
-26.987181  -54.817204  -28.163244  0
-36.608021  -56.320721  -31.113005  0
-38.241207  -56.470039  -31.358519  0
-21.329693  -51.517036  -30.456619  0
-25.138561  -55.854504  -30.134468  0
-26.204731  -55.023743  -29.136179  0
-30.832399  -57.025829  -30.976702  0
-32.889931  -56.210041  -31.190617  0
-35.357513  -56.027039  -32.077621  0
-40.248688  -55.889080  -31.689123  0
-24.574295  -55.678932  -30.749262  0
-31.739628  -56.554680  -32.055325  0
-33.695763  -56.011009  -33.178318  0
-35.735439  -55.839466  -33.309288  0
-38.247005  -55.867374  -33.008781  0
-41.398109  -54.910194  -30.237703  0
-41.864990  -54.981102  -31.776281  0
-43.273758  -53.735981  -31.861439  0
-34.819408  -55.558201  -34.299320  0
-36.872124  -55.288761  -34.214149  0
-39.205105  -54.815292  -34.400238  0
-41.458870  -54.856903  -33.227257  0
-43.019459  -53.699516  -33.348316  0
-25.907318  -55.440521  -34.071465  0
-27.405903  -55.380806  -34.505451  0
-28.789043  -56.829147  -34.534309  0
-29.937990  -55.414494  -34.664101  0
-32.896099  -55.842331  -34.650570  0
-35.275921  -54.703651  -34.883350  0
-37.944210  -54.454231  -34.875729  0
-41.826416  -54.100456  -34.067112  0
-30.625763  -56.180779  -34.596828  0
-10.532741  -52.424404   43.829674  0
-12.296756  -51.711399   44.807743  0
-14.471797  -51.827290   45.260311  0
-16.043259  -52.670227   44.710197  0
-18.351826  -52.861450   43.843880  0
 -9.310252  -52.780781   42.817184  0
 -8.748252  -52.603962   41.743946  0
 -7.916398  -52.692802   40.983536  0
-20.103430  -53.260227   41.365158  0
 -7.511961  -51.737789   40.421612  0
-23.797293  -53.961716   39.788170  0
-24.807964  -52.914425   40.128448  0
-23.224358  -52.844852   40.616249  0
-26.082920  -52.790134   39.199902  0
-27.046236  -52.840656   38.143806  0
 -4.330307  -52.155087   38.279884  0
 -5.596456  -51.606590   38.975109  0
 -3.511182  -51.349758   37.233650  0
-27.981298  -53.016003   36.797482  0
-28.966743  -53.693565   35.075615  0
 -2.307129  -51.743034   36.570221  0
-29.635843  -53.793163   33.432762  0
 -1.882167  -51.285824   34.618725  0
-22.981953  -53.360897   31.055611  0
-24.755020  -53.618229   30.726921  0
-26.336636  -53.940418   30.761372  0
-29.589724  -53.427502   32.257889  0
 -1.446591  -52.208530   33.090538  0
-21.550497  -51.854713   30.535345  0
-27.963444  -52.475365   30.113611  0
 -1.051308  -53.373219   30.025667  0
 -1.119373  -52.390060   30.080246  0
 -1.426440  -54.155090   28.451683  0
-32.285259  -51.386162   32.564926  0
-33.488354  -51.821712   34.726162  0
-34.954636  -51.692200   34.955742  0
-32.753231  -51.217976   33.668056  0
-37.951218  -51.717655   34.059643  0
-39.316921  -51.692795   33.075001  0
 -1.544367  -53.157017   27.125374  0
 -4.116206  -56.289463   25.798311  0
-17.971596  -51.439476   28.230865  0
 -6.081162  -56.201923   25.392704  0
-39.702625  -52.529903   30.291731  0
 -1.692999  -53.985119   24.821959  0
 -5.779532  -55.851933   23.839386  0
 -8.589113  -55.330517   23.993431  0
-40.001743  -53.497303   29.037527  0
 -4.950891  -55.370831   22.451857  0
-40.695194  -54.419273   28.187696  0
 -1.855702  -53.495056   23.166807  0
 -6.269873  -54.309017   21.231743  0
 -8.238605  -53.692360   21.466722  0
-26.998577  -51.126244   27.885916  0
-28.155031  -51.187359   26.921106  0
-29.015310  -51.715504   25.569864  0
-31.606689  -50.975578   25.164572  0
 -5.171154  -54.063091   20.647011  0
-11.076230  -52.551025   21.553059  0
-19.734056  -50.329430   26.302385  0
-28.723480  -52.771255   23.512419  0
-29.094452  -52.409454   24.463211  0
-30.339621  -51.289993   23.431904  0
-40.776714  -53.908730   27.036360  0
-42.018700  -54.916203   25.636021  0
 -2.598218  -52.835579   21.173885  0
 -3.762059  -53.666668   20.649094  0
-11.754135  -52.072186   20.843668  0
-31.838264  -49.941368   23.266178  0
-42.348537  -54.130531   25.139128  0
-43.585567  -55.575401   24.626728  0
-24.292641  -51.562866   21.097694  0
-23.095915  -51.771637   19.983959  0
-30.598639  -50.300751   20.951891  0
-36.069592  -53.160530   19.290939  0
-37.098675  -52.803635   18.808380  0
-44.743198  -54.657494   24.406128  0
-45.934483  -54.338703   23.686974  0
-46.992081  -54.031036   22.438244  0
-48.059299  -53.856541   20.673759  0
-38.884869  -55.001118   19.286488  0
-48.441624  -54.795166   19.367771  0
-42.718914  -55.347050   17.304903  0
-12.777911  -48.909668   17.799013  0
-22.756485  -52.286510   18.177036  0
-22.430506  -52.182621   16.567739  0
-24.049824  -51.580711   18.409437  0
-25.797846  -50.753868   18.363152  0
-35.145058  -52.009140   16.990049  0
-46.034279  -55.966824   17.074436  0
-48.726692  -55.205162   17.590992  0
-34.469246  -51.055168   14.825219  0
 -1.172294  -50.431793   16.835510  0
 -1.738955  -50.006927   17.705448  0
 -2.942424  -50.755779   18.491434  0
 -5.024293  -50.764404   18.780746  0
-11.446968  -49.624058   17.479836  0
-22.702673  -52.118977   16.040035  0
-23.538633  -50.578247   17.318880  0
-22.912428  -52.590576   15.104670  0
-24.585575  -52.726738   13.177957  0
-35.000591  -50.775620   12.649426  0
-22.519442  -51.297974   14.111833  0
-14.893850  -52.898071    9.794243  0
-14.953164  -52.432995    8.830245  0
-14.725426  -53.256107    8.278365  0
-26.954132  -53.790482   11.108082  0
-35.790386  -49.095737   11.027240  0
-37.645905  -49.925579   11.125767  0
 -5.698050  -50.078278   12.070297  0
-24.537027  -51.743301   11.957117  0
-26.724438  -53.408390   10.007339  0
-37.571106  -48.943935    9.881049  0
-38.631828  -49.204693    9.101386  0
-39.540436  -50.059715    9.060376  0
-38.752144  -49.349304    7.937531  0
 -0.613108  -51.863811    9.872801  0
 -0.869175  -51.558758   11.428255  0
 -1.184583  -52.296642    7.664721  0
 -2.926681  -50.338337   12.217523  0
-26.263409  -53.225304    7.929348  0
-39.434635  -49.971886    7.540682  0
 -0.997211  -53.120476    5.261797  0
-36.767975  -49.414238    5.656919  0
 -1.200667  -53.222698    3.251830  0
-15.862854  -52.508659    4.963266  0
-16.937250  -51.128944    4.876001  0
 -1.824049  -53.400314    2.404927  0
 -3.044398  -53.839458    2.173865  0
 -4.953744  -53.679726    2.443787  0
-10.766227  -52.477703    3.033112  0
-36.444302  -49.657276    3.859148  0
-35.286694  -49.270241    4.084394  0
-17.928221  -50.296913    2.851116  0
-14.990017  -49.909935    2.588922  0
-37.873631  -49.009975    3.710894  0
-44.243832  -49.160187    3.367047  0
-45.251858  -48.852768    2.127427  0
-11.579647  -49.809525    1.170225  0
-14.970561  -49.063900    1.599725  0
-46.050129  -49.134388    0.695261  0
-41.588741  -50.360878   -2.945244  0
-43.995136  -49.070522   -1.720829  0
-43.133553  -49.954899   -2.560193  0
-13.259097  -51.421120   -5.426044  0
-38.970913  -54.237953   -5.495960  0
-37.800133  -53.306591   -8.007912  0
-17.981989  -53.678459  -13.748360  0
-32.313656  -52.027294   -9.679564  0
-43.867546  -54.665325   -6.429997  0
-44.894733  -53.575459   -5.723241  0
-46.894375  -52.756126   -5.505827  0
-19.055122  -53.633823  -14.162775  0
-43.007389  -55.149872   -8.063251  0
-42.560890  -54.883057   -6.994956  0
-48.998013  -53.344410   -6.234568  0
-18.938093  -53.024307  -13.619226  0
-19.746763  -52.076096  -13.248965  0
-49.501114  -53.669579   -7.069806  0
-50.128815  -54.094063   -7.879818  0
-20.999733  -49.655842  -12.382054  0
-31.677622  -51.217159  -11.562667  0
-42.094673  -54.310677  -10.933043  0
-43.826534  -55.392937  -11.672170  0
-20.317307  -51.643253  -13.267143  0
-32.907440  -51.159283  -12.565116  0
-43.263950  -54.184719  -13.652599  0
-51.135284  -54.436844   -7.983743  0
-52.154282  -54.603981   -8.134917  0
-53.216778  -54.137226   -8.500325  0
-54.216003  -53.375576   -9.105143  0
-44.948391  -54.773205  -14.565539  0
-46.913910  -55.700047  -14.459835  0
-52.477852  -53.923195  -13.372684  0
-34.521122  -50.676048  -13.569712  0
-35.347351  -50.648434  -14.215622  0
-45.694286  -53.663586  -15.802800  0
-43.413128  -53.162640  -15.575120  0
-47.686256  -54.753044  -15.305838  0
-49.164433  -54.763268  -15.023826  0
-50.572514  -54.384659  -14.475225  0
-20.158491  -51.787636  -14.332816  0
 -3.399892  -51.522976  -14.820637  0
 -5.127453  -51.156864  -13.819942  0
 -6.995544  -50.538898  -14.293633  0
 -9.922704  -50.084129  -15.148879  0
-35.525040  -50.757195  -15.527439  0
-19.681929  -51.466614  -15.712131  0
-19.138285  -50.988155  -15.925129  0
 -3.055164  -50.617496  -18.522511  0
 -3.457387  -50.355125  -16.273447  0
 -3.438443  -50.052399  -19.607187  0
 -3.238847  -49.472420  -17.981495  0
-12.485869  -50.408524  -15.147983  0
-13.556400  -50.328876  -15.458336  0
-14.278264  -50.867474  -15.740900  0
 -3.012050  -51.015053  -20.897028  0
 -5.063163  -50.538269  -21.992500  0
 -4.830374  -49.612411  -19.582863  0
-15.691998  -51.057175  -16.955547  0
-16.500868  -51.207672  -17.581602  0
-18.039564  -50.055222  -17.790970  0
-37.517689  -52.458168  -17.050110  0
-38.614140  -51.339664  -16.934057  0
-41.744541  -53.843544  -16.778057  0
-44.344948  -53.973885  -17.402369  0
-46.316952  -54.277195  -17.514116  0
-48.331799  -55.078426  -17.491386  0
-50.476429  -55.404457  -17.892096  0
-26.765949  -51.315037  -23.137104  0
-37.469933  -53.738468  -21.660452  0
-39.584984  -53.854408  -21.477926  0
-41.699089  -54.695126  -21.769073  0
-43.523369  -55.483719  -22.215952  0
-45.361248  -55.891140  -22.683578  0
-27.263706  -50.484718  -24.000410  0
-47.451031  -56.172459  -23.080109  0
-49.462181  -55.863731  -22.613081  0
-51.057552  -55.506565  -21.638924  0
 -8.613830  -50.878006  -24.757908  0
-25.838255  -52.595787  -24.846628  0
-26.570944  -51.270958  -24.223576  0
-28.300415  -51.077183  -25.021248  0
-36.817726  -52.621334  -22.445072  0
-26.139803  -51.607635  -25.485323  0
-11.133248  -50.293407  -27.477190  0
-16.266640  -48.433022  -28.499466  0
-26.146517  -50.600365  -25.880571  0
-17.636480  -47.782856  -29.561369  0
-25.476730  -49.965313  -26.273481  0
-24.590340  -50.960625  -27.743931  0
-28.145334  -50.346943  -26.913998  0
-27.589304  -52.823013  -27.146358  0
-40.641155  -51.875057  -28.610832  0
-41.124619  -51.337566  -27.768150  0
-18.102449  -49.346287  -30.577969  0
-23.741592  -51.883682  -28.969334  0
-22.556599  -50.763939  -28.927357  0
-26.482477  -53.404995  -28.135298  0
-41.171009  -53.021423  -29.245195  0
-19.682369  -49.123070  -30.836300  0
-20.496624  -50.083199  -30.895357  0
-21.557516  -49.766720  -29.864479  0
-25.567442  -54.410069  -29.199602  0
-25.029182  -54.538383  -30.136192  0
-42.010410  -53.543915  -29.729576  0
-43.016445  -53.306183  -30.497166  0
-44.283051  -52.382259  -32.002155  0
-24.924273  -54.424503  -31.441013  0
-25.369926  -53.113983  -32.463684  0
-44.097942  -52.624012  -32.955181  0
-25.858267  -53.167095  -33.359028  0
-26.969349  -53.864155  -34.125950  0
-29.430435  -53.673691  -34.289921  0
-33.071789  -54.831219  -35.021011  0
-31.951380  -52.806675  -34.414482  0
-34.927242  -53.312164  -34.804916  0
-37.530178  -53.209610  -34.952839  0
-39.539436  -53.181847  -35.221889  0
-41.104973  -53.328926  -34.881104  0
-13.717275  -50.658283   45.377682  0
-14.843586  -50.379402   45.847885  0
-12.050668  -50.362106   43.319466  0
-11.108568  -50.607864   42.291729  0
-11.933799  -49.585983   41.369144  0
 -9.817674  -51.208080   41.548893  0
-10.843987  -49.975723   41.149189  0
-19.726847  -52.728897   42.523151  0
 -9.019744  -50.579144   40.253567  0
-10.430171  -50.047253   40.183548  0
-11.833759  -49.512177   39.700050  0
-12.719612  -49.080517   40.520306  0
-21.673515  -53.069237   40.609791  0
-21.116917  -52.238098   41.668171  0
-24.002016  -51.618572   41.393528  0
-25.486788  -51.776436   40.053902  0
 -7.017984  -50.682968   39.330799  0
 -8.270282  -50.152740   39.410122  0
-11.306100  -49.544262   38.773827  0
-13.308921  -49.051041   39.447132  0
-12.570367  -49.158367   37.908840  0
-25.826214  -50.870689   38.683796  0
 -6.004542  -50.443905   38.093040  0
 -7.759181  -49.632305   38.016228  0
 -9.753964  -49.342812   38.051132  0
-26.452312  -51.164093   37.254066  0
 -4.950622  -50.086639   36.577263  0
 -6.846653  -49.679508   37.037872  0
 -9.633478  -49.107056   35.937218  0
-12.539078  -49.265728   36.026527  0
-28.467979  -52.433006   35.828255  0
-27.494785  -51.495800   36.283577  0
 -3.315746  -50.337112   35.447933  0
 -4.618051  -49.581642   35.005318  0
 -6.541494  -49.359257   35.447601  0
-29.336561  -52.629166   34.627354  0
 -3.484726  -49.540527   33.203247  0
-30.081814  -52.389957   33.456421  0
-30.524389  -51.968498   32.359947  0
-30.136929  -52.260109   31.404600  0
 -1.815717  -50.917969   31.695919  0
 -2.817992  -49.668331   31.219450  0
 -3.711782  -49.100239   31.809820  0
-26.199169  -52.673817   29.883850  0
-29.235785  -52.350929   30.642063  0
-19.117405  -50.763115   29.022778  0
-30.108105  -51.174248   30.559250  0
 -2.019671  -50.982304   28.821173  0
 -3.703752  -49.265354   30.264618  0
-33.561565  -50.699459   34.305763  0
-36.377247  -50.349159   34.780045  0
-34.588375  -49.538826   34.660980  0
-38.120968  -50.339676   33.789364  0
-39.427074  -50.756165   32.591213  0
 -3.340677  -49.746799   28.839588  0
-33.008682  -50.374302   32.629101  0
-33.360771  -49.393841   33.631813  0
-39.973278  -51.225750   31.314804  0
 -2.020985  -51.985764   26.500311  0
 -2.803252  -50.709393   27.535238  0
-33.016602  -50.578800   29.918110  0
-33.310570  -49.526546   30.376440  0
 -2.327504  -52.050335   24.765879  0
 -3.212108  -50.450375   26.684595  0
-32.742535  -50.079273   26.762926  0
-40.151379  -51.965538   29.299706  0
-40.339355  -52.306931   27.605766  0
-19.472387  -48.300472   25.800652  0
-29.312603  -49.933128   25.691357  0
-40.456959  -52.405273   26.450748  0
-21.607647  -49.119831   26.886936  0
-29.641260  -50.372215   24.286959  0
-41.042801  -52.942463   25.715338  0
 -1.863951  -52.178574   22.505716  0
 -7.136754  -52.668510   20.253973  0
-28.951385  -50.902287   22.778111  0
-29.279543  -51.533260   23.563511  0
-26.834984  -51.554585   21.965958  0
 -3.664314  -52.103058   20.165995  0
 -5.156510  -52.554638   19.950539  0
-31.404490  -49.492119   21.709381  0
-43.760170  -54.113609   24.896828  0
-46.836369  -52.418751   25.319109  0
-47.779320  -52.581703   23.502729  0
-48.921162  -51.565273   22.011909  0
-23.600056  -50.340900   19.150770  0
-37.899075  -52.829227   18.406536  0
-49.188889  -53.117764   19.677691  0
-23.314022  -51.036186   17.809420  0
-29.587048  -49.971249   19.125578  0
-36.032658  -51.714226   16.854427  0
-39.244305  -53.785034   18.044472  0
-40.583981  -54.447201   17.643206  0
-49.508099  -53.940353   18.207251  0
-22.920389  -50.648907   16.424046  0
-41.296131  -53.403763   16.616722  0
-43.611633  -53.407509   16.344398  0
-45.357883  -54.609474   16.636850  0
-47.228233  -54.853638   15.758825  0
-48.675282  -55.054993   15.836161  0
-50.058880  -53.882988   16.175909  0
 -3.074049  -49.037369   18.586475  0
 -4.449985  -49.604893   19.080742  0
 -5.438964  -50.000210   19.041948  0
 -6.893110  -50.119392   18.670694  0
 -8.447190  -49.825283   18.389725  0
-10.034897  -48.862438   17.879940  0
-22.706717  -51.384197   14.799183  0
 -1.632003  -49.008850   15.533305  0
 -4.648748  -49.865643   12.603758  0
-34.518673  -49.702385   12.654171  0
-24.500938  -51.355331   12.032964  0
 -5.742182  -48.175777   12.343691  0
 -6.694934  -49.124561   11.535369  0
-22.990738  -51.077362   12.944885  0
-26.182055  -52.692348   11.097741  0
-16.016884  -52.457767    8.472636  0
-15.909369  -52.774433    7.156616  0
-26.265467  -52.243679    9.860733  0
 -0.508804  -50.668369   10.987883  0
 -0.421755  -50.624290    9.126024  0
 -1.419805  -49.887074   11.795472  0
 -4.951993  -49.536678   12.250891  0
-16.350664  -52.487255    5.465281  0
-37.796173  -48.526638    8.735139  0
 -1.224180  -51.063728    7.838846  0
 -1.305208  -51.794952    6.178450  0
-37.375301  -48.679035    7.360504  0
 -1.029874  -52.504181    4.176258  0
-16.388760  -50.954578    4.757829  0
-15.514376  -50.556789    4.189859  0
 -3.852572  -53.041862    2.344012  0
 -6.450686  -52.330746    3.087967  0
 -8.950180  -52.215122    3.075983  0
-12.333290  -50.650089    3.101333  0
-14.242291  -50.575455    3.406259  0
-34.316887  -48.266613    4.725237  0
-18.298651  -48.616028    2.530443  0
-34.921432  -48.027138    3.279482  0
-41.817558  -48.729282    4.387553  0
-16.407431  -49.209881    2.273556  0
-46.340164  -49.319889   -1.007148  0
-42.541389  -48.606167   -1.734502  0
-45.261982  -48.493183   -0.617806  0
-13.114814  -50.063683   -2.432924  0
-39.206463  -53.963760   -4.518145  0
-39.811523  -53.232155   -4.089695  0
-14.233703  -52.247971   -9.700851  0
-15.973843  -52.616936  -11.809694  0
-40.596222  -54.161953   -5.870146  0
-41.595547  -53.159672   -4.634928  0
-42.239887  -54.242027   -5.807741  0
-43.443329  -53.174618   -5.215377  0
-45.558235  -52.245750   -5.336345  0
-17.376743  -53.428276  -13.803183  0
-40.825665  -54.354385   -7.158166  0
-48.029228  -51.597782   -5.301904  0
-18.538994  -53.450245  -14.682784  0
-31.511843  -50.788548  -11.026121  0
-49.219864  -52.317646   -6.368602  0
-49.296673  -51.435478   -7.045684  0
-19.578482  -52.153873  -14.187971  0
-20.055130  -50.765465  -13.822796  0
-20.707640  -49.801682  -13.035527  0
-40.487289  -53.804634   -9.247077  0
-49.457806  -52.054115   -7.895767  0
-49.275070  -51.781723   -8.693590  0
-39.752205  -53.022648  -11.602846  0
-41.545887  -53.384953  -12.910340  0
-50.222908  -52.888481   -8.288161  0
-51.102283  -52.960506   -8.184185  0
-52.631073  -52.924088   -7.810430  0
-54.262974  -52.807995  -12.210657  0
-55.108971  -51.459957  -10.693732  0
-41.434696  -52.904202  -14.559573  0
-39.121231  -52.210827  -14.108400  0
-53.094250  -52.716698  -14.267705  0
-20.603277  -49.541588  -13.388890  0
-49.126057  -52.972263  -15.555923  0
-51.279160  -52.994865  -15.036101  0
-19.952415  -50.471603  -14.313068  0
-45.696125  -51.914246  -16.045271  0
-43.829700  -52.153973  -16.285526  0
 -4.174483  -50.291069  -14.753422  0
 -4.887585  -49.447529  -14.732621  0
 -7.719152  -49.197021  -14.764157  0
-19.674982  -50.590012  -15.331263  0
 -3.597574  -48.845394  -16.257462  0
 -3.459172  -48.507721  -17.852251  0
-18.952614  -50.054790  -16.785917  0
 -6.726050  -49.758308  -21.338985  0
 -7.857544  -49.277336  -20.770966  0
 -6.127964  -48.234451  -19.474133  0
-14.922585  -50.400314  -16.056494  0
-18.582525  -50.017590  -17.461231  0
 -7.343521  -50.221054  -23.075869  0
 -8.780015  -49.457733  -22.683701  0
-10.236758  -49.172710  -22.046474  0
-10.322871  -48.884075  -21.514563  0
-26.696510  -48.944450  -22.273275  0
-42.016483  -52.437199  -17.029673  0
-45.390026  -51.659161  -18.032305  0
-47.777443  -52.979885  -17.681194  0
-49.745663  -54.350098  -17.864788  0
-51.587322  -55.053638  -19.085884  0
 -9.202269  -49.659920  -24.038300  0
-10.407188  -49.112232  -23.599340  0
-26.438444  -50.229412  -22.355555  0
-26.040394  -51.171707  -22.779493  0
-27.035686  -49.526672  -23.139301  0
-37.003696  -52.023430  -21.885670  0
-37.618385  -50.987640  -21.705999  0
-43.161667  -53.985661  -22.376642  0
-44.904583  -54.247562  -23.205370  0
-10.175735  -49.775520  -25.431702  0
-46.802418  -54.959156  -23.916706  0
-48.616798  -54.983631  -23.935043  0
-50.437675  -54.479034  -22.996305  0
-51.379524  -54.567482  -20.731697  0
