#!ascii file
 51.270638   14.109921   20.954290  0
 48.786560   13.964700   19.722994  0
 45.846592   13.598276   18.972237  0
 40.366188   14.656182   17.514963  0
 12.938311   14.148927   19.565762  0
  4.272054   15.865883   21.827904  0
  3.077271   15.290252   21.928097  0
 40.579849   14.323115   16.668447  0
 10.580379   14.813260   20.633638  0
 11.956543   14.516411   19.630220  0
  8.763565   15.424509   21.263168  0
  2.825511   15.470773   20.843975  0
  2.464396   14.796758   19.437529  0
  3.071887   14.962587   17.740030  0
  3.910410   13.700798   16.680510  0
  4.073068   13.461102   14.843769  0
  6.484189   14.374447   11.590052  0
  4.637431   13.505105    9.907136  0
 47.380207   12.001364   10.171766  0
  6.134750   15.394508   10.865665  0
 29.809795   15.344311    3.181083  0
 53.641438   14.974793    5.923244  0
 54.543377   15.887918    4.479333  0
 29.093929   14.072151    2.741420  0
 54.983952   15.008399    3.212562  0
 54.551018   15.481587    1.751645  0
 32.252468   13.805480    1.560545  0
 32.872784   12.785199    1.072207  0
 33.043709   13.682110    0.752142  0
 54.293827   14.007129   -0.036935  0
 33.598942   12.639555    0.213109  0
 29.018692   15.709776    2.426083  0
 53.889637   12.920664   -1.371082  0
 34.712654   12.571253   -0.950946  0
 34.663261   14.006646   -1.132437  0
 33.893524   14.150140    0.141970  0
 34.341564   14.802996   -0.361265  0
 53.538410   14.253367   -2.195912  0
 52.770344   12.406431   -2.820763  0
 35.584232   12.702157   -2.353470  0
  1.085201   13.945259    0.309727  0
 52.926804   13.552943   -3.594264  0
 51.038918   11.957388   -3.436266  0
 51.893730   13.378341   -4.474210  0
 35.546021   14.169238   -2.745638  0
 49.752960   12.192693   -4.542082  0
 50.692432   13.606339   -5.411247  0
 36.417225   13.463676   -4.014649  0
 30.249773   14.549443   -0.785390  0
 48.814289   12.428735   -5.653233  0
 37.091507   14.209348   -5.565103  0
 35.822601   14.999199   -4.177418  0
 31.350954   14.201531   -3.092299  0
 47.764225   12.983895   -7.041066  0
 49.442417   13.796887   -6.339679  0
 45.617718   13.312740   -8.627495  0
 36.545113   15.319529   -5.796440  0
  0.949595   14.780927   -1.335736  0
  1.217106   14.917643   -2.487156  0
 45.591682   14.280234   -8.764616  0
 48.500145   15.031389   -7.376570  0
 38.313488   13.659231   -7.613466  0
 37.499607   15.301546   -7.376257  0
  3.361911   13.674889   -4.692505  0
 38.561729   15.400553   -8.899574  0
 39.069199   13.634000   -9.159176  0
 39.817932   12.863142   -9.996921  0
 39.048595   12.148838   -8.754396  0
 39.810112   15.408264  -10.176681  0
 33.445343   13.888484   -5.615327  0
  6.950358   13.400570   -6.316639  0
 40.861595   13.335473  -10.956392  0
 35.540218   14.633954   -7.509056  0
 43.811741   13.408450  -10.214211  0
 42.140076   13.311863  -11.150098  0
 43.016846   14.460660  -10.411864  0
 41.335587   14.942382  -10.898452  0
 37.680584   14.935546   -8.966693  0
 38.469337   14.701737  -10.211911  0
  5.759572   13.995076   -8.705356  0
 39.384510   14.628408  -11.579217  0
 39.603214   15.684284  -12.305298  0
 39.467213   16.265007  -13.394957  0
 38.178726   16.216187  -15.235333  0
  4.703604   14.380417  -13.298064  0
 36.046856   15.836278  -17.158434  0
 32.953831   15.811238  -17.336008  0
 30.793613   15.680409  -20.347290  0
  5.711228   13.894467  -15.924757  0
 30.255585   15.590926  -22.033985  0
 30.184616   15.452618  -23.340961  0
  5.041566   12.951524  -18.776470  0
 29.273048   15.399371  -23.262070  0
 28.120960   14.677491  -24.250811  0
  3.766050   12.934462  -19.998327  0
  3.163515   11.991004  -21.339201  0
 27.796633   13.741868  -25.146732  0
 27.520596   14.387194  -24.884968  0
  2.320846   11.882371  -23.169718  0
  1.624538   13.340651  -22.449564  0
 25.796852   13.177788  -25.733616  0
 23.751629   12.458394  -26.678396  0
 19.308783    9.548301  -27.454868  0
 17.164869    9.498837  -27.119844  0
 11.858945   14.131848  -24.053955  0
 12.241677   14.056853  -24.587645  0
 10.735998   13.569773  -24.485558  0
 10.031437   14.428044  -23.830601  0
  9.255369   13.475625  -24.219198  0
  3.013562   11.683492  -24.108818  0
  1.339134   12.840407  -24.047350  0
 17.743025   10.092838  -28.415228  0
 20.065567   11.396086  -28.824583  0
 21.151604   11.170176  -27.830280  0
 16.186737   10.994431  -28.150291  0
 13.413766   13.102218  -25.932961  0
 14.097222   13.078058  -27.327621  0
  5.796612   13.356824  -24.968557  0
  4.657650   12.323436  -24.850729  0
  3.067378   12.639353  -25.214931  0
  1.870733   12.522243  -24.938871  0
 17.782204   11.382139  -29.284716  0
 20.773897   13.174215  -29.362709  0
 15.166539   13.364635  -28.896246  0
 22.551270   15.296623  -29.566217  0
 20.993343   14.679361  -29.473398  0
 23.521217   14.766574  -28.969667  0
 19.653791   13.658946  -29.535530  0
 18.193251   12.739473  -29.631847  0
 16.411108   13.907052  -29.510773  0
 47.290970   13.455801  -20.054661  0
 48.465260   14.455558  -21.306734  0
 46.824112   15.196616  -18.806505  0
 42.495262   14.341500  -17.866165  0
 42.775894   15.623049  -17.427231  0
 41.857643   14.107325  -18.640339  0
 41.196476   15.701388  -18.169912  0
 48.948002   15.020235  -25.587416  0
 49.389263   14.283772  -23.157946  0
 39.238384   15.191473  -21.826990  0
 37.604412   15.062715  -25.902256  0
 48.629799   15.552634  -28.599180  0
 47.638863   16.346231  -30.914957  0
 46.069466   16.609497  -33.634995  0
 35.064419   16.007914  -28.414143  0
 36.027039   15.758516  -27.603603  0
 34.229229   17.203245  -29.212769  0
 43.902500   17.060795  -34.849716  0
 33.235363   16.537882  -29.501621  0
 20.409607   14.828069  -31.058342  0
 29.923916   16.589096  -29.650826  0
 28.205154   16.820087  -29.954330  0
 17.509418   13.988330  -33.009193  0
 16.920519   13.520658  -34.067062  0
 16.483814   13.062612  -34.893646  0
 42.640102   14.759402  -37.788006  0
 16.246658   13.094097  -35.733833  0
 43.008564   14.466807  -38.694183  0
 16.260279   13.235644  -36.540668  0
 42.502270   13.765769  -39.707943  0
 41.115997   12.859684  -41.074371  0
 38.329845   12.852925  -41.336281  0
 40.185555   13.134065  -41.688614  0
 37.055843   13.438326  -41.375538  0
 35.034855   14.222967  -40.373367  0
 20.499069   12.308233  -39.979630  0
 17.310385   13.550460  -38.137463  0
 31.568556   15.600178  -39.293072  0
 33.290787   15.348426  -39.143822  0
 33.855911   14.916380  -39.681362  0
 32.037872   15.190368  -40.311195  0
 33.437084   15.204078  -40.855446  0
 21.075264   12.278296  -40.134399  0
 32.047920   15.582644  -41.610065  0
 18.211264   13.689955  -40.390865  0
 16.978046   14.161737  -40.900215  0
 33.515583   15.713904  -42.135860  0
 31.933512   16.331852  -42.812691  0
 16.677635   12.624664  -42.978916  0
 16.811926   13.736813  -42.686863  0
 33.770874   16.355453  -43.696735  0
 34.383839   17.488850  -45.564030  0
 17.033915   13.752885  -43.809654  0
 37.533504   17.015591  -46.281837  0
 36.319656   17.484562  -46.028923  0
 37.438198   16.609848  -47.853508  0
 36.499336   17.836899  -47.021744  0
 30.748711   12.225609  -51.188980  0
 29.903519   12.027093  -51.062977  0
 28.279287   10.532913  -50.390366  0
 32.096748   14.124351  -51.299877  0
 28.291204   12.022956  -51.250011  0
 20.727091   14.368499  -48.571190  0
 34.879066   15.275163  -50.455868  0
 32.956635   15.415595  -51.096367  0
 27.259462   11.511848  -51.385395  0
 27.154068   13.543870  -51.984608  0
 21.207035   13.494749  -49.669849  0
 21.489779   15.164566  -49.855892  0
 24.697191   13.788125  -52.026772  0
 23.423574   13.159479  -51.910793  0
 22.307978   13.381344  -51.390423  0
 21.508471   14.031833  -50.816715  0
  8.164933   17.928257   46.542099  0
  6.668203   16.706528   46.350441  0
 10.232617   18.377937   43.718536  0
  5.209068   15.828532   44.517841  0
 11.909477   17.822151   41.952984  0
 33.794621   16.651447   43.860401  0
  4.291075   14.974353   42.309902  0
 24.211384   15.777990   42.301346  0
 23.199623   14.312922   42.731472  0
 21.809769   13.024211   42.620804  0
 20.505045   12.526363   41.651215  0
  3.839345   14.478166   39.505844  0
 29.914194   16.123339   41.919411  0
 26.161644   17.028978   39.594303  0
 25.401953   16.541601   41.090870  0
 26.474585   16.822617   38.587559  0
 18.383192   12.763483   41.588680  0
 37.235134   15.120756   39.806229  0
 26.225508   16.489826   37.126930  0
 16.448124   14.030891   41.507175  0
 15.059830   15.206032   41.178986  0
  3.483917   14.452772   36.993477  0
 37.585854   14.405563   38.371742  0
 28.147606   15.485339   38.340843  0
  3.318209   13.687971   35.257046  0
 22.525368   15.640427   34.525696  0
 24.115883   17.052546   36.550156  0
 28.002052   15.853458   33.879868  0
 21.247253   15.889331   34.311539  0
 28.098476   15.731995   32.364147  0
 27.349566   15.230240   31.487625  0
  4.808111   15.342892   30.666050  0
  4.332383   14.428410   29.760860  0
 39.610794   13.324073   33.382950  0
 42.535332   15.158658   31.489555  0
 42.628170   15.882332   30.087492  0
  3.284068   14.818753   26.419935  0
 41.941589   16.900700   28.352158  0
 25.921654   14.499638   30.845402  0
 38.317917   16.195906   25.884909  0
 39.681511   17.018957   27.087572  0
  5.220530   14.188238   24.499115  0
  7.508371   13.848631   23.903662  0
 49.782093   15.707544   27.344353  0
 48.850910   16.371130   28.729992  0
 50.299953   16.081360   25.608133  0
 37.403244   15.480487   24.878880  0
 35.054646   15.250717   24.311380  0
 34.764576   15.765098   25.033133  0
 33.250237   15.867233   24.512032  0
 46.397625   17.215347   29.661949  0
 45.201080   17.477659   29.036459  0
 32.125317   15.901139   23.221233  0
 32.149479   16.214327   23.850725  0
 42.520119   16.698324   26.636650  0
 41.949463   15.859100   24.785645  0
 40.125038   15.043427   23.992426  0
 34.793076   15.320858   23.562565  0
 32.163044   15.945303   22.597342  0
 51.581135   14.963908   21.681955  0
 40.748711   15.979422   23.957500  0
 38.665379   15.314504   23.453777  0
 49.504662   16.068453   20.469540  0
 46.992554   16.769001   19.839994  0
 35.623665   15.993794   23.645874  0
 33.464458   16.043892   23.057878  0
 44.501740   15.717512   19.298428  0
 11.961798   14.606607   20.930908  0
 41.725895   14.636788   18.204010  0
 39.641430   15.535891   17.082151  0
  6.410919   16.988951   21.479330  0
  3.316993   16.473682   20.935209  0
  2.659139   16.018158   19.482960  0
 39.885666   16.676764   16.354973  0
  3.943769   14.858904   15.799010  0
 41.245445   14.045269   16.490204  0
 42.373180   13.002520   15.801156  0
 44.379993   12.616799   14.844256  0
  4.815876   14.171073   12.901601  0
  4.079376   14.474951   14.173283  0
 46.045670   12.498487   12.955129  0
 47.891365   12.234910   11.323024  0
 49.307777   12.279734   13.012399  0
 51.114502   12.584664   11.564302  0
 49.459511   12.332546   10.435471  0
 50.978130   13.000515    9.447524  0
 52.340366   13.118509   12.146012  0
 53.221508   14.124192   10.713328  0
  6.628159   16.239702   10.742877  0
 52.545147   14.374243    8.771609  0
  5.463764   15.794648   10.425377  0
  3.828813   14.579183    8.906939  0
 51.778069   13.853466    7.981997  0
 53.660049   16.034540    6.580659  0
 53.946411   16.859556    4.886007  0
 30.587566   15.539587    3.395735  0
 53.866013   17.143721    3.046668  0
 31.569033   15.479801    2.483803  0
 32.627430   15.497342    1.954926  0
 33.644287   15.270016    1.219277  0
  1.635653   15.090425    3.004269  0
 54.064404   15.385136    0.255320  0
 28.870184   17.026226    2.040829  0
  1.746989   14.797209    2.653979  0
 51.683716   17.657890   -0.067567  0
 51.175354   17.818216    1.277353  0
 52.657303   17.691236    1.168863  0
 52.562851   17.039070   -1.176265  0
 48.931705   17.430382    0.686682  0
 34.636314   16.248531    0.030014  0
 29.175432   15.590514    0.941614  0
 50.806412   17.167845   -2.405407  0
  1.345061   15.259665    1.976506  0
 53.381470   15.957622   -1.236796  0
 52.527966   15.485785   -3.954570  0
 34.893982   15.323338   -2.155594  0
 34.601368   15.708338   -1.138384  0
 51.727005   15.300333   -5.165699  0
 35.350460   15.583906   -3.117796  0
 29.725250   16.017736   -0.013471  0
 51.766563   16.473528   -4.202542  0
 50.474773   15.503512   -6.266350  0
 51.154942   16.227194   -5.635393  0
 30.382013   15.689075   -0.984926  0
 50.206535   16.522978   -5.802758  0
 49.414532   16.379612   -6.892463  0
 36.238426   16.069382   -4.612658  0
 36.926468   16.027660   -6.329604  0
 47.842716   16.096533   -7.760026  0
 46.313347   15.658710   -8.627432  0
 45.554821   16.816357   -8.818271  0
 37.981300   16.621689   -7.439905  0
 43.672150   16.018873   -9.780881  0
 39.384975   16.708454   -8.926466  0
 41.586174   16.501881   -9.816978  0
 38.362934   16.305908   -8.565013  0
 33.434704   15.605102   -3.994826  0
  6.047714   13.323430   -5.784085  0
  5.167111   13.102274   -5.669949  0
  3.736139   14.086333   -5.053448  0
 35.385452   15.190935   -6.472746  0
 37.347736   15.768432   -7.974010  0
 39.512859   15.683003  -11.050822  0
 39.002441   16.315069   -9.858659  0
 39.240391   16.933994  -12.055746  0
  5.672018   14.935722  -10.764198  0
 38.703667   17.013691  -13.756664  0
 35.619831   16.262266  -15.303146  0
 36.820084   16.949236  -14.027302  0
 33.055138   15.995430  -15.540906  0
 33.638031   16.370489  -14.395447  0
 31.588764   16.155783  -16.256168  0
  5.273198   14.758421  -13.584112  0
  5.582103   14.971117  -14.555568  0
 30.482386   15.781128  -17.468620  0
 29.702665   15.728596  -18.984245  0
 28.788292   15.999934  -20.885756  0
  5.625229   14.657688  -16.259829  0
  4.901034   14.872222  -18.071972  0
 27.459169   15.605817  -22.112629  0
 11.723373   15.373783  -22.339466  0
 12.597965   15.987030  -20.377272  0
 12.808002   15.955638  -22.108704  0
 12.070142   14.939891  -23.443668  0
 10.594625   15.894449  -21.746302  0
 11.963751   16.122004  -19.953022  0
  9.729141   15.295905  -23.341932  0
 12.240814   15.344593  -23.909998  0
  9.289838   16.234921  -23.073673  0
  8.236144   16.062595  -24.413765  0
  3.910216   14.813416  -19.326820  0
 27.200178   14.881821  -25.369226  0
 25.881973   14.416759  -26.223595  0
 12.332705   14.426175  -25.659300  0
  6.359262   14.859732  -25.284609  0
  0.972289   14.084087  -23.788336  0
  1.064934   13.909537  -25.281996  0
 23.820745   13.923353  -28.066046  0
  4.496121   13.613811  -25.796316  0
  1.754102   13.765841  -26.154062  0
 24.820215   16.017113  -28.259514  0
 13.779990   14.509665  -28.252520  0
  3.337688   14.073876  -26.489332  0
 23.706413   16.534126  -29.009342  0
 21.453804   16.556942  -29.213140  0
 19.779152   15.323441  -29.291845  0
 17.598038   13.845342  -29.667858  0
 47.453915   15.956865  -20.043594  0
 48.398701   15.336552  -22.979767  0
 43.098713   17.523434  -18.190382  0
 41.100525   17.287151  -18.551315  0
 39.568344   16.749056  -19.281870  0
 47.625080   16.009916  -24.950369  0
 47.330963   16.831821  -28.531975  0
 38.673786   16.560541  -20.636545  0
 37.952427   16.161909  -22.600283  0
 37.170975   15.966900  -24.394617  0
 36.666142   15.843233  -26.606434  0
 46.856827   16.545382  -32.436096  0
 47.030159   17.412910  -30.985790  0
 35.091022   17.465754  -27.917952  0
 46.461159   17.896404  -32.305012  0
 45.454315   18.229971  -33.385841  0
 44.303055   18.268883  -34.074081  0
 42.850182   18.876108  -33.807159  0
 41.087868   17.686224  -34.853657  0
 40.575397   17.452253  -34.635941  0
 40.653244   16.457705  -35.228600  0
 40.843002   16.341139  -36.318760  0
 32.286987   17.947767  -30.042221  0
 26.628057   16.204378  -29.582340  0
 24.405441   15.760953  -29.296518  0
 23.544531   18.319849  -29.785263  0
 20.792852   18.138290  -31.132748  0
 22.532532   17.180449  -29.685934  0
 41.717014   15.821467  -37.515728  0
 27.227533   17.459562  -30.194958  0
 25.684172   17.650253  -29.670698  0
 16.232086   13.872324  -35.293827  0
 43.012161   15.308058  -38.890816  0
 42.589725   14.821486  -40.188496  0
 35.508560   13.901596  -41.537029  0
 18.840174   13.341043  -39.343838  0
 16.291426   14.215792  -36.420914  0
 40.921406   14.338711  -41.598629  0
 38.697182   14.409690  -42.043606  0
 34.283112   15.105816  -40.501953  0
 32.918385   16.017151  -39.315819  0
 41.800213   15.617331  -40.954742  0
 29.477680   15.725029  -40.410561  0
 29.326500   16.195608  -39.903408  0
 28.589390   15.974096  -41.689556  0
 27.243744   16.537207  -41.515709  0
 26.619776   16.649397  -43.334747  0
 18.672344   13.657207  -39.704906  0
 29.705725   16.058378  -42.230659  0
 17.014584   15.169185  -40.330242  0
 29.933716   16.796965  -43.224319  0
 27.303354   17.051298  -44.232540  0
 24.946037   18.271603  -45.647495  0
 17.007259   15.417041  -42.303413  0
 16.759047   16.158409  -43.915836  0
 31.449566   17.444031  -44.058716  0
 29.211782   17.914078  -44.289177  0
 27.468502   18.200199  -45.559662  0
 25.941933   18.125265  -46.189594  0
 23.434855   18.360647  -47.543396  0
 22.495434   19.176306  -47.947224  0
 34.884659   18.260929  -46.833458  0
 32.102859   18.525902  -45.445881  0
 30.499199   18.795853  -45.425056  0
 28.713713   18.667591  -45.342827  0
 24.659067   18.205202  -47.161930  0
 25.205458   18.415705  -47.658100  0
 21.561163   17.855696  -48.363625  0
 35.503361   17.235012  -48.805679  0
 35.411835   18.136780  -47.697510  0
 22.938257   17.826914  -48.807812  0
 30.390003   14.024815  -51.533524  0
 28.843426   13.714664  -51.938282  0
 32.928413   17.761322  -50.062664  0
 28.582378   15.733087  -52.154430  0
 22.168249   17.309134  -50.369629  0
 22.899019   17.996719  -49.669781  0
 21.200281   16.634743  -49.284512  0
 21.340954   16.427210  -50.316616  0
 21.585966   15.330691  -51.197342  0
 26.186792   14.903277  -52.260616  0
 26.568638   16.516941  -52.011703  0
 24.058247   15.750241  -51.794662  0
  5.823635   16.888222   44.442753  0
  8.901274   18.559431   44.462730  0
  5.552180   16.875912   42.229702  0
 32.730553   17.260693   43.855106  0
 22.641769   14.941796   43.799541  0
 21.832035   13.439452   43.506104  0
 21.158735   13.605011   44.187492  0
 20.368567   12.944857   43.222607  0
 19.258486   13.302131   43.603775  0
 10.174013   18.105145   41.587265  0
  8.310701   18.335752   43.240349  0
  4.482130   15.918502   41.099602  0
 33.430706   18.187374   42.855377  0
 31.866240   17.646299   43.246323  0
 24.309965   17.095177   41.647511  0
 17.364004   13.590989   42.727077  0
  5.141055   16.555515   40.611382  0
 35.259888   17.454395   42.331219  0
 25.233536   17.351698   40.283463  0
 12.609314   18.038530   40.918549  0
 11.176955   18.117867   40.669876  0
  4.649578   16.320040   39.479042  0
 37.523930   16.351206   40.237991  0
 36.329460   17.371611   41.286224  0
 30.404696   17.846128   41.149891  0
 29.137812   16.898254   39.430508  0
 25.539358   17.236181   37.611832  0
 24.940262   17.641798   38.560036  0
  3.675672   15.713250   37.943783  0
 38.481098   15.542807   38.918282  0
  4.588225   16.855143   38.439365  0
 39.361000   14.828410   37.409832  0
 28.983160   17.002235   37.855984  0
 21.739826   17.296783   36.601337  0
  3.276610   15.160122   33.464821  0
 39.091152   13.927642   35.862114  0
 29.040937   17.159058   36.179657  0
 40.702644   14.944345   36.567131  0
 41.245739   14.251335   34.320736  0
 29.294704   17.279341   35.026718  0
 29.079723   16.822561   33.408249  0
 20.771879   16.002808   33.503906  0
  4.012800   16.062366   32.008511  0
 42.884079   16.250332   32.307190  0
 42.394726   14.957230   33.307419  0
 42.773884   16.382713   31.111832  0
 30.048449   17.105839   32.305168  0
 21.383911   15.839094   32.388840  0
  5.328042   16.534796   29.998699  0
 42.432419   17.229750   30.020100  0
 28.799206   16.322775   31.485458  0
  3.627534   14.666520   28.733740  0
 26.813194   15.684109   31.303726  0
  3.263239   15.575117   28.168491  0
 36.195728   16.801920   26.518339  0
  3.807341   15.147202   25.345543  0
 34.621586   17.281033   26.316761  0
 32.904198   16.906746   24.661501  0
  5.796040   16.333338   23.952919  0
 49.265881   17.606241   26.851809  0
 48.111206   18.415037   28.067764  0
 50.808308   16.679688   23.737530  0
 46.677967   17.972694   29.319050  0
 32.260174   17.240639   23.350794  0
 31.595337   17.107525   21.605597  0
 11.350731   15.692126   22.474537  0
 51.078072   16.548410   22.094620  0
 43.081509   17.611998   27.937172  0
 41.720154   16.766590   25.077835  0
 50.705101   16.140144   21.238401  0
 38.884789   16.218706   23.776690  0
 33.716614   17.111532   23.424717  0
 32.128059   17.115711   22.259436  0
 11.370013   15.480352   21.626551  0
 40.682102   15.815221   18.223438  0
 11.763166   15.002411   20.565193  0
  7.776378   17.740593   21.649330  0
  4.285743   17.269842   21.002253  0
  3.064420   17.139051   19.901640  0
  3.037976   17.009724   18.042927  0
  3.442817   16.146574   16.634905  0
 52.346268   13.803094   16.976032  0
 51.440426   15.312784   18.303627  0
 49.853703   13.335453   16.955706  0
 49.119179   14.379784   17.811613  0
 52.833683   15.011533   17.821753  0
 47.207226   13.711082   17.206488  0
  3.782597   15.940837   14.892276  0
 51.934528   12.902884   15.528947  0
 53.321152   13.780467   14.576147  0
 53.501217   15.260536   16.760689  0
 50.150784   12.655899   15.856449  0
 47.229549   12.736861   16.006918  0
 44.561756   13.137263   16.206182  0
 44.348465   14.772047   17.460106  0
 42.642269   14.014185   16.703396  0
 42.837318   15.153857   17.112640  0
 41.319061   15.344632   16.517372  0
  4.165071   16.117580   12.850725  0
 52.352669   12.908752   14.254011  0
 53.997074   15.492549   14.331226  0
 50.875294   12.472501   14.185667  0
 48.137959   12.362284   14.723481  0
  5.073186   15.512383   11.921590  0
 54.071255   14.882778   12.245681  0
 53.947308   15.781120    9.236057  0
 54.217861   16.162949   11.734970  0
 53.991695   17.342287    7.947602  0
  6.010449   17.458303   10.168747  0
  5.565195   16.813095   10.315301  0
 45.884281   16.700506    6.334426  0
 43.926441   16.530336    6.941810  0
 45.383610   17.073904    7.457648  0
 42.681454   17.008465    7.041955  0
 43.722622   17.239908    7.711299  0
  4.319907   15.792258    8.714463  0
  3.032070   17.616354    7.123540  0
 53.377880   17.821178    5.595675  0
 48.208355   17.702379    5.007796  0
 46.527786   16.677528    4.864648  0
 48.451885   18.361355    6.391505  0
 45.472023   16.553595    4.895263  0
 44.051216   16.573040    5.467114  0
 42.819572   17.030085    6.041730  0
 42.409336   17.601830    6.678998  0
 42.677357   18.070780    6.066821  0
 49.814796   18.051291    3.587989  0
 47.702919   17.199467    3.122123  0
 50.233334   18.447834    5.195897  0
 43.346809   17.501348    5.174328  0
 31.272902   17.078485    3.877439  0
 32.196114   16.423948    2.702510  0
 30.146423   16.739182    4.031469  0
 29.337267   16.759525    3.746784  0
 53.223129   17.948750    3.937356  0
 51.972298   18.310051    4.416826  0
 52.045258   18.143719    2.984958  0
 44.843266   17.337200    4.033232  0
 44.397953   18.772211    3.920267  0
 36.558258   17.422886    2.227856  0
 34.990097   16.645441    1.541998  0
 34.711823   16.976954    2.464530  0
 53.609520   16.819307    0.912134  0
 47.028130   17.290726    1.795296  0
 45.705902   17.622631    2.415011  0
 44.896370   18.888496    2.465742  0
 38.637833   18.074400    1.414475  0
 37.382900   17.372267    1.188762  0
 37.663292   18.106743    2.275735  0
 40.710651   19.415569    0.958539  0
 40.494415   18.598352    0.140256  0
 35.351803   17.088589    0.574697  0
 46.842464   17.762716   -0.162173  0
 45.163124   18.657677    0.998919  0
 44.373680   19.221558   -0.391527  0
 42.416904   19.434658   -0.050864  0
 40.434906   17.752857   -1.345213  0
 36.231644   17.263113   -0.344637  0
 48.205051   17.467510   -2.523870  0
 46.338051   18.061787   -1.721947  0
 41.952793   18.852451   -0.719550  0
 38.734276   17.380623   -1.786345  0
 36.818554   17.448925   -1.685363  0
 35.326824   16.899391   -1.585153  0
  1.103405   16.429543    1.163718  0
 45.767387   18.118290   -3.443900  0
 44.650631   18.738815   -1.957035  0
 43.283295   19.184067   -1.116545  0
 42.982388   18.561523   -1.887990  0
 36.580452   17.485695   -2.722139  0
 49.912243   16.983932   -4.562197  0
 47.474403   17.654366   -4.697108  0
 42.207623   18.169809   -3.045177  0
 40.217659   17.676485   -2.856254  0
 38.190998   17.714012   -3.677885  0
 36.619377   17.066439   -3.646664  0
 47.894711   17.279755   -6.063803  0
 40.393993   18.135555   -4.168811  0
 47.918972   16.771940   -7.186584  0
 37.373840   17.195290   -5.012301  0
 30.926947   16.780878   -1.087193  0
 32.001419   16.654966   -2.297817  0
  3.618425   15.189537   -5.128869  0
 46.238087   17.521759   -7.631734  0
 39.337620   17.423374   -7.979669  0
 39.363213   17.934275   -5.802042  0
 44.235989   17.676825   -8.482729  0
 41.027843   17.972181   -7.758762  0
  5.208486   14.661702   -6.989476  0
  4.383126   15.315604   -5.897114  0
  4.701873   15.712866   -6.871501  0
 35.751560   16.220867   -6.018079  0
  5.275280   15.174075   -8.262876  0
 37.567234   16.997175   -7.468897  0
 38.625786   17.742065   -9.309601  0
 38.727436   17.986563  -11.054852  0
 37.642757   18.173761  -12.611941  0
  5.347574   15.767108  -12.905404  0
 35.915169   17.321375  -13.258398  0
 34.545704   17.728640  -12.656262  0
 32.468605   17.734072  -12.900346  0
 31.063488   17.265913  -14.163021  0
 29.597742   16.355841  -16.597975  0
 28.949696   15.847349  -17.724365  0
  5.366696   15.967327  -14.382372  0
  4.966074   16.460768  -15.355844  0
 27.964695   16.082947  -19.005472  0
 27.231091   16.247833  -20.379274  0
 27.278719   15.607380  -22.857885  0
 13.069653   16.537506  -20.297239  0
 10.813848   16.449167  -20.217497  0
  9.690262   16.888111  -21.699503  0
  9.064461   16.947107  -23.556559  0
  9.672521   17.689255  -22.365808  0
 27.818190   16.052608  -23.899742  0
 12.587214   16.532089  -23.390894  0
 11.850262   15.873536  -25.287582  0
  2.371211   15.560610  -20.681238  0
  1.631569   16.547230  -22.357283  0
 27.737375   15.990449  -24.955263  0
 12.316869   15.143748  -27.121161  0
  7.022738   17.607027  -26.361042  0
  1.029445   15.502960  -24.985043  0
 26.595957   16.063499  -26.627750  0
  1.777168   15.910883  -26.799250  0
 25.517607   17.739796  -27.915136  0
  4.546137   15.953972  -26.796688  0
  2.757675   15.165630  -27.078218  0
 15.588708   15.530761  -29.119570  0
 20.587578   17.490332  -29.178610  0
 46.237503   16.788269  -18.631588  0
 46.966946   17.186094  -20.679659  0
 45.519638   18.103170  -19.431768  0
 44.599957   16.696402  -17.643574  0
 46.946194   17.069332  -23.162762  0
 46.292210   18.087217  -21.666605  0
 44.429035   19.146444  -19.475277  0
 42.802578   19.142372  -19.172045  0
 45.256245   18.845606  -21.634159  0
 40.782646   18.947582  -19.374203  0
 39.118870   17.949314  -19.540432  0
 46.779926   16.883499  -25.892609  0
 45.645054   17.932272  -24.583414  0
 38.122746   18.230307  -20.840017  0
 36.865948   17.690788  -22.711874  0
 36.190468   17.467188  -24.259825  0
 46.149963   17.705990  -27.299004  0
 46.188301   18.709166  -30.289335  0
 33.794685   19.675697  -28.783392  0
 33.911831   19.797581  -27.187311  0
 34.234024   19.293570  -29.634813  0
 45.438881   19.742367  -31.628792  0
 44.004162   20.199711  -32.509068  0
 40.973598   19.257898  -33.642818  0
 34.483799   18.873146  -29.680353  0
 40.495213   18.506628  -33.621014  0
 39.935139   18.069693  -33.484829  0
 40.183968   17.672380  -34.319923  0
 22.806877   19.959909  -30.579288  0
 17.261175   14.204927  -33.893730  0
 17.562546   15.034994  -33.607803  0
 29.575899   18.005476  -30.508276  0
 28.346519   19.223110  -31.396374  0
 24.490963   20.360790  -30.799248  0
 17.572277   15.646244  -34.452888  0
 41.975643   16.495810  -37.989220  0
 26.679846   19.638744  -31.359375  0
 16.934160   15.172082  -37.210251  0
 36.703320   14.740484  -42.594975  0
 17.365906   14.576483  -38.506641  0
 42.448040   16.179596  -39.531879  0
 30.773855   16.539450  -39.546616  0
 17.857607   14.500791  -39.041214  0
 39.914734   16.195448  -42.301384  0
 26.866703   17.270767  -41.546955  0
 17.694752   15.242324  -39.208588  0
 25.906425   17.188110  -42.966351  0
 17.482203   14.588630  -39.853535  0
 16.632708   15.940166  -41.615604  0
 17.210421   16.941423  -41.113884  0
 16.865429   18.125284  -42.979969  0
 21.283440   19.009272  -48.285690  0
 32.935619   19.025078  -46.993706  0
 28.442661   19.132671  -46.846439  0
 34.053448   18.622929  -48.372692  0
 32.755310   19.265419  -48.576584  0
 31.267149   19.727146  -47.851269  0
 26.693310   19.225899  -47.984283  0
 28.213388   19.707531  -48.301064  0
 24.754576   18.636187  -49.467873  0
 31.212414   16.047670  -51.496624  0
 30.897209   17.445597  -51.237976  0
 28.325451   17.551464  -51.684189  0
 24.963804   17.728485  -50.899483  0
  7.461052   18.102999   44.578358  0
 21.564766   14.536760   44.953899  0
 22.496086   16.384768   44.281029  0
 21.235348   16.336908   45.873627  0
 20.144547   13.704072   44.923855  0
 20.664890   14.491134   45.722595  0
 19.009892   14.445521   46.236843  0
 17.444128   14.020172   44.291382  0
 23.373640   16.831913   43.010445  0
  7.175325   17.336365   41.109753  0
 23.880564   17.921267   40.096157  0
 16.094461   14.727061   43.007671  0
 15.389077   15.640068   41.773705  0
 34.449032   18.566069   41.821239  0
 22.544107   17.992493   38.547016  0
  9.302165   17.692797   39.385765  0
  7.419066   17.295294   39.594162  0
 36.458885   18.396894   40.332020  0
 38.650990   17.033285   39.019051  0
 14.093637   17.358028   41.158714  0
 11.269978   18.548283   39.534283  0
 39.650345   15.907587   38.143837  0
 29.962498   18.592733   39.146915  0
  6.672032   17.597519   38.863880  0
  3.414147   16.883471   37.301567  0
 40.816547   16.382471   37.192318  0
 40.150772   18.195019   37.266762  0
 29.789894   18.787174   37.528107  0
  3.080333   17.357224   35.480927  0
 42.036476   15.645507   35.952999  0
 41.770962   17.294426   36.275852  0
 30.135372   18.566143   36.037838  0
 20.333006   17.142979   35.470322  0
 42.610241   16.966125   35.162449  0
 42.529930   15.352921   34.784931  0
 43.099949   16.118414   33.909683  0
 43.107021   17.159203   33.204708  0
 30.623390   18.227364   34.610737  0
  3.237195   17.054928   33.589325  0
 42.822289   17.647865   32.040123  0
 30.649603   17.732038   33.556091  0
  5.979322   17.522165   30.982395  0
  5.019526   18.115776   32.061745  0
  6.330354   18.995495   31.507980  0
 31.553131   18.875219   33.275829  0
 30.832796   18.344748   31.872112  0
 40.763306   17.831041   28.659500  0
 41.609089   18.141241   29.857462  0
 38.548164   18.322508   28.489090  0
 40.091713   18.580799   29.481289  0
 29.187933   17.318893   31.166016  0
 22.781570   15.532938   31.561567  0
 25.450893   14.928375   30.989729  0
 35.731525   18.161133   27.530027  0
 37.084888   18.878107   28.572037  0
  2.932081   16.353590   27.316479  0
  2.932174   16.199993   25.928722  0
 34.148449   17.969351   26.115635  0
 33.582275   18.057802   24.981874  0
  8.553033   17.087486   23.737309  0
  4.118950   16.176882   24.760386  0
  9.799910   15.944901   23.472595  0
 11.088648   16.378622   23.055340  0
 46.806091   19.476942   28.438778  0
 45.336021   18.913818   28.922461  0
 32.449043   18.332842   21.818829  0
 41.572598   17.643568   26.295082  0
 31.856281   18.214533   20.502859  0
 40.658276   17.212059   24.966888  0
 49.752224   17.985243   21.009260  0
 48.442616   18.096947   20.363483  0
 43.922955   17.263582   19.359543  0
 36.861980   16.947777   24.402290  0
 35.819157   17.857351   24.623800  0
 31.213392   17.933159   18.879501  0
 31.610870   18.817856   19.118877  0
 30.787462   18.928860   18.076727  0
 33.559097   18.100101   23.194925  0
 32.240108   18.128933   21.507277  0
 40.617287   16.846212   18.163887  0
 30.106857   18.883842   17.697651  0
 11.023396   15.816232   21.303295  0
 39.726646   16.939734   17.140162  0
 31.734966   18.067440   19.562029  0
  9.647469   17.106285   21.756916  0
  5.735875   18.253891   21.095333  0
  3.962296   18.425587   20.122610  0
  3.142370   17.919720   19.011721  0
  3.690408   17.043118   15.969899  0
 46.795074   15.655969   18.079136  0
  3.829211   17.509613   14.119865  0
 44.573063   16.830650   17.673471  0
 41.954269   16.616180   16.426647  0
 40.532700   17.813879   15.700989  0
 53.790024   16.047274   16.218586  0
 53.771172   16.528465   15.198813  0
  4.872393   16.794714   11.077461  0
 53.837105   16.727938   12.922141  0
 53.285912   16.854570   14.001704  0
  6.503704   15.714399   11.023651  0
 53.973930   17.191090   11.449257  0
 53.697876   18.101927    8.967413  0
 47.626923   18.655445    9.708423  0
 50.183224   19.234928    9.549892  0
 49.563416   19.163918    8.556760  0
 46.878094   18.187487    8.164340  0
 45.651165   17.943525    8.460918  0
 44.809742   17.966295    8.233739  0
 43.269974   18.120277    7.103736  0
 53.058758   18.651537    7.107757  0
 52.113552   19.136404    8.783148  0
 51.116943   19.000668    6.773485  0
 53.130024   18.603085    9.825649  0
  5.507790   18.626507    9.729417  0
  4.533245   17.175924    8.251415  0
 52.265163   18.646103    5.735451  0
 30.589972   17.843386    5.363537  0
 29.118143   17.618267    5.320499  0
 43.184177   18.592028    5.530637  0
 43.731361   19.794100    4.202998  0
 36.481571   18.038120    2.882195  0
 34.943008   18.074585    3.200015  0
 33.151016   17.796976    3.311486  0
 31.669512   17.993702    4.115238  0
  1.469172   19.353813    3.997253  0
 28.543892   17.462036    3.264530  0
 44.579872   19.774738    2.732322  0
 44.249401   19.997065    3.351437  0
 39.383820   19.603506    1.763023  0
  1.315870   16.428213    2.937968  0
 43.925137   19.711977    1.066524  0
 43.471638   20.304262    2.025720  0
 42.504002   19.991110    0.888078  0
 41.382660   20.173008    1.478230  0
 29.396088   17.889631    1.303435  0
 44.049973   18.432816   -2.743785  0
 29.898895   17.670788    0.428746  0
  1.225374   16.738970   -0.435431  0
 43.975994   18.421122   -3.950335  0
 30.277735   17.905849   -0.194048  0
 45.280399   18.450987   -5.837443  0
 42.419216   18.651884   -4.835079  0
 44.091980   18.464308   -7.250348  0
 42.665688   18.734198   -6.412565  0
 40.899082   18.520634   -5.835136  0
 31.145205   18.116962   -1.147235  0
  1.789050   16.225811   -2.834560  0
  3.401682   17.353827   -4.273078  0
 32.763157   17.365139   -3.179283  0
 34.294239   16.709860   -4.554352  0
  4.194612   17.541182   -5.889632  0
 35.615929   17.387386   -5.756804  0
 37.807892   18.277996   -8.255915  0
 37.402405   19.500050   -8.040196  0
 36.771030   18.435471   -7.046872  0
 37.828888   19.322908   -9.350777  0
 37.747028   19.247147  -10.971680  0
  4.961914   17.202728   -8.749098  0
  5.514919   16.622898  -10.403885  0
 36.477386   18.940273  -11.968583  0
 34.412544   18.794474  -11.853603  0
  5.755100   16.156031  -11.165833  0
  4.688694   18.116905  -11.983830  0
 30.590689   16.882090  -15.563083  0
 29.435989   17.291456  -15.732775  0
 27.905132   16.884293  -16.858583  0
 27.463284   16.492514  -17.752346  0
 27.232084   18.192627  -15.866459  0
  3.988353   17.274141  -16.632334  0
 26.322077   16.718981  -20.114534  0
 26.053049   17.322605  -18.434435  0
  3.358935   17.387300  -18.105387  0
 12.527932   17.220171  -19.654728  0
 13.200270   17.492846  -21.280243  0
 11.073108   17.675364  -19.587254  0
 10.052948   17.462626  -20.732416  0
 10.509447   18.429245  -20.581011  0
  2.912053   16.794067  -19.428228  0
 27.160141   16.331474  -22.055454  0
  9.445941   17.848034  -24.549969  0
  2.227934   17.844564  -19.965172  0
  8.653484   17.633278  -25.273592  0
 12.032005   16.791416  -27.397923  0
  1.558632   16.999969  -24.355242  0
  1.832808   17.131128  -26.290165  0
  3.536715   16.504829  -27.309183  0
 18.888029   17.629696  -29.309507  0
 44.135429   19.795315  -20.614634  0
 42.842113   20.585875  -20.861950  0
 44.285084   19.840567  -22.788885  0
 40.798885   20.841848  -20.776031  0
 39.466766   19.402996  -19.962559  0
 38.763660   20.819920  -21.005386  0
 37.339981   19.460518  -21.763706  0
 44.240074   19.799757  -25.591516  0
 36.030895   19.626282  -22.988060  0
 35.474697   18.291317  -25.732538  0
 45.152279   19.141775  -27.771721  0
 33.213589   21.798212  -27.843157  0
 33.713440   21.892895  -28.869802  0
 34.196983   20.713835  -29.702841  0
 44.335835   21.169926  -29.331188  0
 43.236671   22.202707  -30.407244  0
 35.193439   20.156364  -30.255114  0
 42.366806   21.542477  -31.618513  0
 40.509888   21.282612  -31.759722  0
 39.665630   20.087442  -32.459358  0
 36.202133   19.527712  -30.559536  0
 38.559673   19.109945  -32.177074  0
 40.817703   17.937332  -36.221546  0
 30.411261   19.090117  -30.753017  0
 41.963089   17.811666  -38.047932  0
 18.358564   16.673693  -34.090309  0
 17.616014   16.228552  -35.895638  0
 41.617302   17.974850  -39.841995  0
 35.129673   14.824862  -41.895458  0
 40.936317   17.037653  -41.435425  0
 37.910885   16.153854  -42.940403  0
 36.011292   15.391841  -42.756527  0
 33.715309   15.598466  -41.285389  0
 32.659584   16.447104  -40.747982  0
 31.439838   16.902981  -40.315556  0
 17.443607   15.559998  -38.041664  0
 28.085070   17.401312  -40.919899  0
 25.598524   17.981344  -43.614605  0
 25.380865   18.788530  -44.900230  0
 23.113474   19.925585  -47.796597  0
 17.506010   17.005289  -38.895153  0
 17.454847   17.939011  -39.976692  0
 21.187202   19.788242  -47.906227  0
 17.332642   18.326422  -41.271896  0
 20.280058   18.945744  -47.745399  0
 30.770618   19.754272  -49.035107  0
 29.315672   19.886126  -48.633415  0
 30.444679   18.729118  -50.398430  0
 27.294769   19.740017  -49.077957  0
 28.653049   19.640596  -49.554905  0
 26.706417   19.329842  -49.888832  0
 26.426291   18.356579  -50.911774  0
 27.853897   18.866325  -50.690781  0
 19.907379   16.085855   46.961735  0
 18.612921   16.498302   47.695618  0
 17.500450   15.129693   46.833450  0
 16.834656   14.718437   45.861931  0
 22.361780   17.698265   43.617290  0
 22.760094   17.961409   41.899410  0
 16.227274   14.744123   44.601185  0
 21.774038   18.490158   40.261829  0
 15.103059   16.742586   42.361893  0
 32.424904   19.093863   41.763443  0
 36.131351   20.248539   39.746460  0
 34.181843   19.665878   41.124336  0
 31.437311   19.568596   40.180126  0
 33.060806   20.116610   40.735561  0
 20.648504   18.125237   37.480568  0
 12.677319   18.438725   40.176907  0
  9.476448   18.077930   38.789501  0
 38.469448   18.936844   38.299328  0
 30.872252   20.047064   38.588364  0
 32.678917   20.838587   39.447681  0
 30.874817   20.389742   36.872055  0
 32.629036   21.760189   37.722858  0
  5.770117   18.059546   38.699875  0
  4.289088   18.176855   37.773602  0
  3.519794   18.323309   36.615597  0
 40.598370   20.129589   36.216007  0
 31.321556   19.960409   35.207821  0
 41.937855   19.520292   34.136143  0
 20.239758   17.900764   35.085087  0
  3.805991   17.821800   33.036625  0
 42.260891   18.603439   32.554016  0
 32.465256   21.847742   34.497501  0
 41.324253   18.777418   31.084394  0
 32.087891   20.387327   32.883732  0
 39.260147   19.158361   29.733614  0
 37.626728   19.776505   28.954958  0
 39.441399   19.941389   30.548452  0
  6.233977   18.533239   30.967218  0
 24.988249   15.805736   31.940321  0
 36.430107   19.260288   28.161079  0
 35.434341   19.400469   26.776091  0
 28.242029   17.553453   31.231947  0
  4.440503   17.826927   29.263588  0
  3.763077   17.984526   28.251699  0
  3.432458   18.023485   26.805756  0
  3.446816   17.200283   25.269199  0
  6.681785   17.810392   23.746693  0
  4.352770   18.266802   24.587755  0
 33.403793   18.412384   23.164742  0
 11.573536   16.678925   22.741623  0
 12.489178   18.337820   23.348116  0
 10.625119   17.337990   23.603222  0
 49.881603   18.922413   24.123344  0
 43.145504   19.222094   28.405939  0
 42.256321   18.246174   27.582483  0
 12.560267   18.114538   22.686260  0
 50.131756   19.131516   22.284321  0
 32.412876   19.457493   20.677223  0
 11.646519   17.083040   22.570614  0
 50.112244   18.673359   21.564272  0
 39.642494   17.707249   25.392073  0
 38.311028   17.512867   25.021843  0
 37.580288   18.065426   25.305321  0
 11.411819   17.325563   22.415567  0
 45.953022   19.376190   19.494274  0
 34.775368   18.388262   24.247169  0
 30.943838   19.667070   18.520784  0
 10.973991   17.516260   22.289495  0
 42.421928   18.273870   18.411997  0
 44.066761   18.691183   19.126661  0
 40.447567   17.563387   17.621395  0
 32.218990   19.149284   20.269115  0
 28.969715   20.074509   17.934317  0
 10.189965   18.178610   22.293777  0
 28.832129   20.198000   17.532291  0
 40.364212   18.500273   15.908625  0
 31.067743   18.899164   18.246063  0
  3.636225   19.108723   19.199091  0
  3.475075   18.989689   17.525015  0
 52.995419   16.849619   17.685568  0
 48.109463   17.321774   18.604385  0
 49.649734   18.052212   19.018276  0
  3.602128   17.987505   16.199465  0
 53.386387   17.430582   16.261856  0
 52.950542   17.445473   14.906163  0
 44.637173   18.324844   17.288816  0
 42.717278   18.244617   16.017569  0
 41.454838   18.672888   15.280634  0
 51.422241   17.934196   13.713366  0
  4.184114   17.850498   12.226892  0
 52.131214   17.773151   12.597505  0
 50.307880   18.338408   12.258876  0
 49.998524   18.290565   13.090384  0
 48.696880   18.661612   11.276387  0
 48.183990   18.951628   12.157048  0
 46.460587   18.609228    9.920959  0
  5.926914   17.223034   10.593848  0
 52.902679   18.061926   11.464451  0
 51.507748   18.875872   10.659270  0
 45.372524   18.795483    8.642078  0
 46.018127   19.093094   10.299123  0
  6.395250   18.611149    9.983619  0
  5.069659   19.131746    9.054636  0
  4.011508   17.742964    7.655299  0
  2.059460   18.369553    5.802380  0
 28.292305   17.942642    5.091511  0
 43.811970   20.568113    3.098687  0
  1.085884   18.477812    2.520670  0
 42.693905   20.694818    2.235012  0
  1.308283   18.344183    0.792566  0
  1.633852   17.312500   -2.262687  0
  1.776326   17.749397   -1.166520  0
 31.660395   18.370029   -2.271006  0
  2.504578   17.723215   -3.466819  0
 32.417557   18.476004   -3.432282  0
 33.809044   17.966791   -4.537299  0
 34.938164   18.976088   -5.537077  0
  4.552667   17.761328   -7.252121  0
 36.487320   19.838774   -6.661355  0
 37.012066   20.910465   -7.671208  0
 36.968250   20.538988   -8.984989  0
 35.820717   19.792919  -11.443750  0
 36.578182   20.376457  -10.562194  0
 34.735714   20.454346  -10.983835  0
  4.210652   19.859499  -10.091644  0
  4.538457   19.174561  -10.935122  0
 32.726604   19.866003  -11.327034  0
 30.893620   18.842232  -12.619958  0
 28.950680   18.299641  -14.620109  0
 29.192976   18.923792  -13.589422  0
  4.600695   17.147194  -13.775273  0
  4.166666   18.000223  -14.876919  0
 25.860134   17.886686  -17.520933  0
 25.984118   18.542688  -16.764769  0
  3.484925   18.835299  -16.212429  0
  2.648887   19.334536  -17.348837  0
 12.206717   19.131653  -20.270855  0
 11.802149   18.705515  -19.603207  0
 11.097673   19.426388  -19.947092  0
  2.339955   18.543320  -18.352800  0
 12.170345   17.564093  -22.973433  0
 12.457980   18.199314  -21.810095  0
 10.553271   19.071302  -22.010635  0
 26.925196   16.844301  -22.444387  0
 11.860646   17.017771  -24.938837  0
 10.246286   19.377115  -23.798964  0
  9.502386   19.245785  -25.651085  0
  2.149938   18.078817  -21.244097  0
  2.590472   18.408445  -23.530912  0
 27.594357   16.729702  -23.740330  0
  2.674991   18.560623  -25.635967  0
 11.661843   17.954380  -26.324106  0
  8.958743   19.234114  -26.168306  0
 12.303486   18.021013  -27.935356  0
 12.072981   18.725691  -27.412853  0
 13.669594   17.720676  -28.464745  0
 13.373321   18.640806  -28.175510  0
  8.135750   19.495743  -26.263023  0
  6.210520   19.069824  -26.309288  0
  4.933408   17.724606  -27.056606  0
  4.474185   18.560131  -26.756891  0
  3.210668   17.552523  -27.130236  0
  3.040800   18.435638  -26.574297  0
 19.406406   18.942709  -28.988899  0
 15.916357   17.741371  -29.120962  0
 15.791464   18.806894  -28.428072  0
  8.621428    7.606258  -24.279142  0
  8.451712    8.346398  -23.880341  0
  7.930330    9.286081  -25.091673  0
 43.350040   21.111757  -23.674881  0
 42.148788   21.779682  -22.214460  0
 40.402332   23.078663  -22.575148  0
 42.559765   22.558983  -24.281784  0
 37.957092   23.017128  -21.629238  0
 37.280190   21.136770  -21.942162  0
 36.015358   22.823647  -22.700670  0
 35.275787   20.784781  -24.120344  0
 43.260410   22.199419  -26.904387  0
 43.271381   22.724255  -29.005537  0
 40.928905   23.695421  -30.239557  0
 39.645100   22.979244  -30.885328  0
 39.146133   21.763100  -31.422836  0
 35.534145   21.534698  -30.404928  0
 36.337944   23.287224  -30.490856  0
 36.982014   21.674971  -31.055841  0
 38.023342   21.768232  -31.365150  0
 37.552750   20.400108  -31.201002  0
 36.863091   19.779636  -31.073807  0
 40.216526   19.335997  -34.018532  0
 35.450146   19.489054  -30.632202  0
 33.405212   19.301676  -29.945660  0
 41.323437   19.403006  -36.266731  0
 34.262825   19.536367  -30.214064  0
 32.135220   19.844629  -30.347675  0
 30.738556   20.245995  -30.842918  0
 28.656313   21.189362  -31.993736  0
 41.755219   19.255253  -38.106861  0
 27.389978   21.140514  -32.468346  0
 26.155848   20.968952  -31.951223  0
 23.422186   21.755228  -31.501831  0
 17.896133   16.949118  -35.043427  0
 26.106947   22.055458  -33.206844  0
 17.953367   17.610956  -36.078678  0
 40.175568   18.330128  -41.909298  0
 36.426846   16.662579  -43.227997  0
 34.502956   16.143738  -42.626186  0
 35.485943   18.658352  -43.442654  0
 33.167549   16.301405  -41.794315  0
 17.526440   16.665920  -37.545235  0
 39.212608   17.773773  -42.754227  0
 37.721176   18.136253  -43.333191  0
 29.458118   17.460651  -40.795692  0
 17.685547   18.262787  -37.663113  0
 26.667442   18.235872  -42.729393  0
 17.568916   18.584730  -39.108612  0
 18.732704   18.837030  -45.809952  0
 19.885124   17.603226   48.329796  0
 20.848185   17.600782   46.964432  0
 17.223022   16.341091   47.556194  0
 21.647316   17.864426   45.209812  0
 16.157629   15.573168   46.666004  0
 21.866383   18.926483   44.065002  0
 15.218529   16.075338   45.914265  0
 21.821733   18.573261   42.724983  0
 15.177914   16.345079   43.971550  0
 21.197371   18.986530   41.326885  0
 34.657753   21.060204   39.930702  0
 20.174854   18.763443   37.805725  0
 13.095040   18.940598   40.215397  0
 38.267628   20.350798   37.972675  0
 36.423393   21.712749   38.969002  0
  7.512990   18.166489   38.968094  0
 34.873352   22.371885   38.663330  0
  3.960292   19.676874   36.142273  0
 32.300022   22.112930   36.223038  0
 34.922016   23.425859   37.460197  0
  3.491971   18.431313   34.360126  0
  4.424747   19.864983   34.806705  0
  4.802433   19.463291   33.591011  0
 33.633327   23.612442   35.671597  0
  6.668769   20.026550   32.640373  0
 40.999310   20.047640   32.422340  0
 41.331059   21.139572   33.391563  0
 41.008350   21.660439   34.677414  0
 21.266718   17.208946   33.584957  0
 39.957962   21.203861   31.481071  0
 26.404776   16.504875   32.598133  0
 25.488359   16.576702   33.228905  0
 22.826677   16.752724   33.078911  0
 39.189354   21.197731   30.159349  0
 31.652056   20.593382   32.044338  0
 26.950426   16.539349   31.863338  0
  5.353236   19.176161   30.583614  0
 36.908260   20.260380   27.851866  0
 30.593424   20.013563   31.760103  0
