#!ascii file
7602  7603  8227  0
7602  8227  8226  0
7603  7609  8228  0
7603  8228  8227  0
7931  7926  8229  0
7931  8229  7925  0
8225  7934  7938  0
8225  7938  7940  0
7935  8221  8230  0
7609  7613  8228  0
8231  8228  7613  0
7614  8232  7619  0
7614  7930  8233  0
7614  8233  8232  0
7930  7936  8234  0
7930  8234  8233  0
7936  7925  8229  0
7616  7944  7615  0
7937  8223  8235  0
7937  8235  6986  0
8236  8225  7940  0
8237  7621  7939  0
7939  7935  8237  0
7613  7943  8231  0
8232  8238  7619  0
7619  8238  7313  0
7944  7620  8239  0
6986  8235  7625  0
7942  8236  7940  0
7617  7621  7945  0
8237  7945  7621  0
7943  7623  8231  0
8240  8231  7623  0
7620  7314  7946  0
8241  7625  8235  0
8242  7942  7941  0
7941  7945  8242  0
8243  8242  7945  0
7945  8237  8243  0
8244  8243  8237  0
8240  7623  7627  0
8245  7627  7626  0
7313  8238  7947  0
8246  7946  7630  0
7950  7625  8241  0
7942  8242  8247  0
8248  8242  8243  0
7948  8249  7626  0
8245  7626  8249  0
8250  7628  7947  0
7630  7949  8246  0
8251  7952  7951  0
8252  7952  8251  0
7952  8252  7636  0
8253  7636  8252  0
7636  8253  7638  0
8247  8242  8254  0
8247  8254  8255  0
8242  8248  8254  0
8256  8254  8248  0
8257  8256  8248  0
8248  8258  8257  0
8259  8257  8258  0
8260  8249  7948  0
7628  8250  7954  0
7632  7956  7629  0
7949  7629  7956  0
7950  8261  7633  0
8262  7633  8261  0
7633  8262  7957  0
7958  7957  8262  0
8251  7951  7959  0
8263  8255  8254  0
8254  8256  8264  0
8254  8264  8263  0
8265  8257  8259  0
8259  8266  8265  0
8267  8265  8266  0
7948  7640  8260  0
8268  8260  7640  0
7640  7962  8268  0
7963  7962  7641  0
7954  8250  7642  0
7966  7642  8250  0
7960  7961  7964  0
8269  8264  8256  0
8256  8257  8269  0
8270  8269  8257  0
8257  8265  8270  0
8271  8270  8265  0
7966  8272  7645  0
7643  7967  7968  0
7968  8273  7955  0
7955  8273  7956  0
7339  7964  8274  0
7339  8274  7646  0
8264  8269  8275  0
8269  8270  8276  0
8269  8276  8275  0
7967  8277  7968  0
7967  7649  8278  0
7967  8278  8277  0
7646  8274  8279  0
7646  8279  7653  0
8270  8280  8276  0
8270  8271  8281  0
7645  8282  7343  0
7649  7970  8283  0
7649  8283  8278  0
7653  8284  7973  0
8270  8281  8280  0
7654  8285  7969  0
7343  8282  8286  0
7343  8286  8287  0
7970  7974  8288  0
7970  8288  8283  0
7975  7971  8289  0
7971  7972  8290  0
7971  8290  8289  0
7972  7651  8290  0
7973  8284  8291  0
7973  8291  7976  0
7343  7977  7346  0
7974  7655  7979  0
8289  8290  8292  0
8290  7651  8293  0
7976  8294  7657  0
7654  7658  8295  0
7654  8295  8285  0
7977  8296  7978  0
7979  8297  7974  0
7352  7656  8298  0
7352  8298  7038  0
7656  7975  8298  0
8293  7651  7357  0
7657  8294  7980  0
7658  7354  8299  0
7658  8299  8300  0
7658  8300  8295  0
7978  8296  8301  0
7978  8301  7983  0
7979  7662  8297  0
7357  7984  8302  0
7357  8302  8293  0
7980  8303  7981  0
7982  8304  7660  0
7982  7981  8304  0
7354  7661  8299  0
8305  8300  8299  0
7983  8301  8306  0
7038  8307  7985  0
8302  7984  8308  0
8309  7660  8304  0
7660  8309  7663  0
7661  7988  8299  0
7665  8310  7672  0
7665  7983  8310  0
8306  8310  7983  0
8311  7662  7379  0
8308  7984  8312  0
7989  8312  7984  0
8313  7669  7663  0
7672  8310  8314  0
7379  7993  8315  0
8316  8312  7989  0
7669  8313  7995  0
8317  7995  8313  0
7992  8318  7988  0
7988  8318  8319  0
7672  8314  7997  0
8013  7997  8314  0
8014  8013  8314  0
7683  8008  7993  0
7677  7985  8320  0
7677  8320  7998  0
7989  7686  8316  0
8321  8316  7686  0
7686  7685  8321  0
8322  8321  7685  0
7685  7999  8322  0
8323  7999  8000  0
8000  8001  8323  0
8001  7994  8324  0
8010  8324  7994  0
8325  8001  8324  0
7995  8317  8004  0
8326  8004  8317  0
8327  8007  8006  0
8007  8327  7996  0
8328  7991  7996  0
7991  8328  7992  0
7992  8328  8318  0
8329  8318  8328  0
8008  8009  8330  0
8022  8330  8009  0
7684  7998  8017  0
8331  8010  8011  0
8011  8004  8331  0
8332  8331  8004  0
8004  8326  8332  0
8012  8333  8006  0
8006  8333  8327  0
8334  8327  8333  0
8335  8327  8334  0
8327  8335  7996  0
8328  7996  8335  0
8336  8328  8337  0
8329  8328  8336  0
8022  8015  7700  0
8015  8022  8009  0
8324  8010  8325  0
8010  8331  8338  0
8339  8331  8332  0
8332  8326  8339  0
8019  8340  8012  0
8341  8012  8340  0
8019  8021  8340  0
8012  8341  8333  0
8342  8333  8341  0
8333  8342  8334  0
8018  8343  8023  0
8021  8024  8344  0
8021  8344  8340  0
8023  8343  8345  0
8024  8031  8346  0
8024  8346  8344  0
8033  8034  8042  0
8034  8347  8042  0
8034  8027  8347  0
8027  8035  8347  0
8028  8348  8035  0
8028  7402  8349  0
8028  8349  8348  0
7402  7699  8349  0
7699  7703  8350  0
7699  8350  8349  0
7703  7704  8350  0
8023  8345  7705  0
8036  7707  8044  0
8036  8351  8352  0
8036  8044  8351  0
8036  8352  8037  0
8037  8353  7708  0
7708  8353  8038  0
8038  8354  8355  0
8038  8355  8039  0
8038  8353  8354  0
8356  8031  8046  0
8356  8357  8346  0
8356  8346  8031  0
8347  8035  8358  0
8035  8348  8359  0
8035  8359  8358  0
7704  8043  8360  0
7704  8360  8350  0
8355  8049  8052  0
8355  8354  8361  0
8355  8361  8049  0
8355  8052  8045  0
8355  8045  8039  0
8039  8045  7710  0
8356  8046  8047  0
8356  8047  8362  0
8356  8362  8357  0
8042  8363  8041  0
8042  8347  8363  0
8347  8358  8363  0
8051  8050  8364  0
8051  8365  7719  0
8050  8049  8361  0
8050  8361  8364  0
8047  8055  8362  0
8041  8363  8057  0
8363  8366  8057  0
8363  8358  8367  0
8363  8367  8366  0
7713  8058  8043  0
8368  8043  8058  0
8365  8369  7719  0
7720  7719  8369  0
8055  8054  8370  0
8371  8370  8054  0
8054  8057  8371  0
8372  8371  8057  0
8373  8368  8058  0
8058  8059  8373  0
8369  8374  7720  0
8375  7720  8374  0
7720  8375  7725  0
8376  8373  8059  0
7725  8375  7730  0
8377  7730  8375  0
8059  8060  8376  0
8378  8376  8060  0
8379  8062  8061  0
8380  8381  8382  0
8066  8076  8382  0
8382  8383  8066  0
8067  8066  8383  0
8383  8384  8067  0
8383  8385  8384  0
8386  8067  8384  0
8384  8387  8386  0
8060  8064  8378  0
8388  8378  8064  0
8075  8073  8389  0
8389  8380  8075  0
8380  8382  8075  0
8076  8075  8382  0
8067  8386  8069  0
8390  8069  8386  0
8390  8386  8391  0
8392  8065  8062  0
8065  8392  8071  0
8393  8071  8392  0
8071  8393  8394  0
7749  8395  7746  0
8396  7746  8395  0
8397  8395  7749  0
7746  8396  8072  0
8398  8072  8396  0
8072  8398  8073  0
8399  8073  8398  0
8069  8390  8078  0
8400  8078  8390  0
8064  8070  8388  0
8394  8079  8071  0
8401  8080  8079  0
7749  7756  8397  0
8402  8397  7756  0
8403  8081  8078  0
8400  8403  8078  0
8070  8082  8404  0
8083  7754  8405  0
8083  8405  8086  0
7754  7755  8405  0
8406  8405  7755  0
7755  8080  8406  0
8407  8406  8080  0
8401  8407  8080  0
7756  7757  8402  0
8084  8402  7757  0
8084  7758  7761  0
8084  7761  8090  0
7769  8081  8408  0
8081  8409  8408  0
8410  8087  8085  0
8410  8085  8086  0
8089  8088  8411  0
8089  8411  8412  0
8408  8096  7769  0
8082  8092  8404  0
8087  8410  8413  0
8087  8413  8093  0
8088  8094  8100  0
8088  8100  8099  0
8088  8099  8411  0
7776  8096  8414  0
8415  8092  7470  0
8415  7470  7779  0
8097  8098  8416  0
8097  8416  8106  0
8097  8106  8094  0
8094  8106  7772  0
8094  7772  8100  0
8095  7768  8417  0
7776  8414  8418  0
7776  8418  8419  0
7776  8419  8101  0
8098  8110  8416  0
8416  8110  8107  0
8416  8107  8106  0
7768  8108  8114  0
7768  8420  8417  0
8108  8101  8116  0
8108  8116  8114  0
8101  8419  8116  0
8103  8421  8102  0
7785  8422  8105  0
8105  8423  8098  0
8105  8422  8423  0
8098  8423  8110  0
8110  8424  8111  0
8113  8420  7768  0
8113  8112  8425  0
8116  8419  8426  0
8116  8426  8115  0
8103  7800  8421  0
8421  7800  8427  0
7784  8104  8117  0
7790  8428  8109  0
8109  8428  8429  0
8109  8430  7785  0
7785  8430  8422  0
8111  8431  7792  0
8120  7794  8432  0
8112  8120  8425  0
8115  8433  8125  0
8115  8426  8434  0
8115  8434  8433  0
7800  7799  8435  0
7800  8435  8427  0
7485  8121  7801  0
7801  8121  8436  0
7801  8436  7790  0
7790  8436  8428  0
7792  8431  8437  0
7792  8437  8122  0
7794  8119  8432  0
8438  8432  8119  0
8125  8433  8439  0
7799  7805  8435  0
8440  8435  7805  0
8119  8123  8438  0
8441  8438  8123  0
8123  8128  8442  0
8128  8124  8443  0
8444  8443  8124  0
8128  8443  8442  0
8124  8125  8444  0
8125  8439  8444  0
7807  8440  7805  0
7807  7810  8440  0
8445  8440  7810  0
8126  7490  7808  0
8126  8127  8446  0
8447  8446  8127  0
8127  8122  8448  0
8127  8448  8447  0
8449  8447  8448  0
8123  8442  8441  0
7810  7811  8445  0
8450  8445  7811  0
8131  8451  7812  0
7812  8451  8130  0
8129  8131  7489  0
8129  7490  8452  0
8453  8452  7490  0
7490  8126  8453  0
8126  8446  8453  0
8447  8453  8446  0
8132  8454  7811  0
8450  7811  8454  0
7816  7815  8455  0
7816  8455  8134  0
7817  7818  8456  0
8457  8456  7818  0
8136  8457  7818  0
8458  8459  8134  0
8135  8134  8459  0
8455  8458  8134  0
8460  8457  8136  0
8461  8460  8136  0
7813  8462  7823  0
8463  7823  8462  0
7820  8464  7496  0
8133  7496  8464  0
7820  8137  8464  0
8465  8464  8137  0
8135  8459  8466  0
8467  8466  8459  0
8136  8139  8461  0
8140  7823  8468  0
7823  8463  8468  0
8137  8142  8465  0
8469  8465  8142  0
7831  8145  8144  0
8138  8135  8466  0
8470  8466  8467  0
8147  8461  8139  0
8471  8140  8468  0
8140  8471  8141  0
8141  8471  8472  0
8141  8472  8148  0
8142  8143  8473  0
8142  8473  8469  0
8143  8144  8474  0
8475  8143  8474  0
8144  8145  8476  0
8477  8476  8145  0
8145  7832  8477  0
7832  7833  8477  0
7833  7834  8150  0
7833  8150  8478  0
7833  8478  8477  0
8466  8470  8138  0
8138  8479  8151  0
8138  8470  8479  0
8480  8471  8481  0
8471  8480  8472  0
8482  8148  8472  0
8148  8482  8153  0
7838  8156  7842  0
7838  8153  8156  0
8143  8475  8473  0
8150  8157  8478  0
8151  8479  8154  0
8156  8483  8159  0
8157  8484  8478  0
8479  8485  8154  0
8155  8158  8486  0
8155  8486  8152  0
8159  8483  8160  0
8484  8157  8487  0
8157  7846  8161  0
8157  8161  8487  0
8165  8166  8488  0
8485  8162  8154  0
8158  8163  8489  0
8158  8489  8486  0
8171  8490  8491  0
8171  8491  8492  0
8171  8492  8493  0
8490  8171  8170  0
8490  8170  8164  0
8490  8164  8491  0
8164  8160  8491  0
8161  8165  8494  0
8161  8494  8487  0
8166  8167  8488  0
8162  8485  8495  0
8162  8495  7850  0
8163  8169  8496  0
8496  8169  7860  0
8496  7860  8493  0
8493  7860  7859  0
8493  7859  8171  0
7856  8497  8168  0
7850  8495  8498  0
7850  8498  8172  0
7856  7855  8499  0
7856  8499  8497  0
7855  7861  8499  0
8172  8498  8500  0
8172  8500  8173  0
7861  8174  8499  0
8174  8173  8500  0
8501  8502  8503  0
8504  8505  8506  0
8504  8501  8507  0
8504  8507  8505  0
8176  8508  8178  0
8509  8178  8508  0
8178  8509  8179  0
8510  8179  8509  0
8179  8510  7877  0
8511  7877  8510  0
8512  8175  8513  0
7869  8514  7875  0
8176  8181  8508  0
8515  8508  8181  0
7877  8511  8182  0
8183  7878  8182  0
8512  8513  8516  0
8517  8513  8175  0
8175  8184  8517  0
8518  7875  8514  0
7875  8519  7880  0
7875  8518  8519  0
7880  8519  7885  0
8191  7562  8183  0
8513  8517  8516  0
8517  8184  8520  0
7883  8520  8184  0
8189  7885  8519  0
8181  8185  8521  0
8185  8186  8522  0
8523  8522  8186  0
8186  8187  8523  0
8187  8188  8523  0
8182  8524  8183  0
8525  8183  8524  0
8526  8183  8525  0
8183  8526  8191  0
8191  8526  7891  0
8193  7891  8526  0
8519  8527  8189  0
8195  7889  8189  0
8528  8523  8188  0
8190  8528  8188  0
8196  8190  7890  0
8193  8529  8194  0
7883  8192  8530  0
7883  8530  8520  0
8189  8531  8195  0
8523  8528  8532  0
8194  8533  8199  0
8530  8192  7900  0
7895  8195  8202  0
8199  8533  8201  0
8534  7900  7901  0
8534  8535  8530  0
8534  8530  7900  0
7902  8202  8536  0
7902  8536  8208  0
7903  8203  8204  0
8205  8210  7904  0
8201  8534  7907  0
7907  8534  7901  0
8207  8208  8537  0
8208  8536  8537  0
8203  8538  8204  0
8212  8207  8539  0
8207  8537  8539  0
8203  8540  8538  0
8209  8210  8541  0
8212  8539  8213  0
7912  8540  8203  0
7912  8214  8542  0
7912  8542  8540  0
8209  8541  8543  0
8209  8543  7913  0
7913  8544  7914  0
7913  8543  8544  0
7906  7921  8545  0
7906  8545  8211  0
8214  8220  8542  0
7914  8544  7591  0
7591  8544  8215  0
8215  8546  7915  0
7915  8546  8216  0
7916  8216  8547  0
7916  8547  8217  0
7921  8548  8545  0
7927  8213  8222  0
8549  8219  7933  0
7928  8219  8550  0
7928  8550  8220  0
8217  8547  8218  0
7921  7932  8548  0
8224  8549  7933  0
8551  8224  8225  0
8226  8221  7924  0
7926  8218  8229  0
8552  8229  8218  0
8553  8548  7932  0
8554  8230  8221  0
8221  8226  8554  0
8227  8228  8555  0
8231  8555  8228  0
8233  8234  8556  0
8557  8234  7936  0
7936  8229  8557  0
8558  8229  8552  0
7932  7615  8553  0
8239  8553  7615  0
7615  7944  8239  0
8225  8236  8559  0
8230  8237  7935  0
8227  8555  8560  0
8240  8555  8231  0
8561  8238  8232  0
8232  8233  8561  0
8562  8556  8234  0
8557  8229  8563  0
8558  8563  8229  0
8236  8564  8559  0
8565  8559  8564  0
8237  8230  8566  0
8237  8566  8244  0
8567  8566  8230  0
8238  8561  8568  0
8556  8561  8233  0
8234  8557  8562  0
8563  8562  8557  0
8239  7620  8569  0
7946  8569  7620  0
8236  7942  8564  0
8570  8564  7942  0
8258  8243  8244  0
7627  8245  8240  0
8238  8568  7947  0
8571  7947  8568  0
8246  8569  7946  0
7942  8247  8570  0
8255  8570  8247  0
8243  8258  8248  0
8249  8572  8245  0
8573  8572  8249  0
7947  8571  8250  0
8241  8574  7950  0
7950  8574  8261  0
8251  8575  8252  0
8253  7953  7638  0
8576  8570  8255  0
8258  8577  8259  0
8577  8578  8259  0
8266  8259  8578  0
8579  8266  8578  0
8580  8578  8577  0
8578  8580  8579  0
8581  8579  8580  0
8581  8249  8260  0
8581  8260  8582  0
8581  8583  8249  0
8573  8249  8583  0
7949  8584  8246  0
7959  7958  8585  0
7959  8585  8586  0
7959  8586  8251  0
8251  8586  8575  0
8255  8263  8587  0
8255  8587  8576  0
8263  8588  8587  0
8266  8579  8267  0
8579  8582  8589  0
8579  8589  8267  0
8579  8581  8582  0
8582  8590  8589  0
8582  8260  8590  0
8260  8268  8590  0
7958  8262  8585  0
7961  7953  8591  0
7961  8591  8592  0
7961  8592  7964  0
8264  8275  8263  0
8263  8275  8593  0
8263  8593  8588  0
8267  8594  8265  0
8267  8589  8594  0
8590  8595  8589  0
8590  8268  8596  0
8590  8596  8595  0
8268  7962  8597  0
8268  8597  8596  0
7962  7963  8597  0
8273  8598  7956  0
7956  8598  7949  0
8274  7964  8599  0
7964  8592  8599  0
8594  8600  8265  0
8277  8278  8601  0
7968  8277  8601  0
7968  8601  8273  0
8276  8280  8602  0
8276  8602  8275  0
8271  8265  8600  0
7965  7969  8603  0
7965  8603  7963  0
7645  8272  8282  0
7653  8279  8284  0
8281  8271  8600  0
7969  8285  8603  0
8278  8283  8604  0
8280  8281  8602  0
8283  8288  8604  0
8288  7974  8605  0
8606  8605  7974  0
8292  7975  8289  0
8294  7976  8291  0
7343  8287  7977  0
8607  7977  8287  0
7974  8297  8606  0
8298  7975  8608  0
7975  8292  8608  0
8293  8292  8290  0
8295  8300  8609  0
7977  8607  8296  0
8311  8297  7662  0
7038  8298  8307  0
8298  8610  8307  0
7980  8611  8303  0
8612  7981  8303  0
8304  7981  8612  0
8609  8300  8305  0
8301  8613  8306  0
8614  8613  8301  0
8615  8613  8614  0
8612  8616  8304  0
8304  8616  8309  0
8617  7663  8309  0
8299  7988  8305  0
8310  8306  8618  0
8306  8613  8618  0
8615  8618  8613  0
7379  8315  8311  0
7985  8307  8619  0
8620  8619  8307  0
8308  8312  8621  0
7663  8617  8313  0
8622  8313  8617  0
7988  8319  8305  0
8623  8305  8319  0
8310  8618  8314  0
8624  8314  8618  0
8615  8624  8618  0
7993  8008  8315  0
8315  8008  8625  0
8330  8625  8008  0
8619  8320  7985  0
8312  8316  8621  0
8626  8621  8316  0
8317  8313  8622  0
8314  8624  8014  0
8627  8014  8624  0
7998  8320  8628  0
8316  8321  8626  0
8322  7999  8629  0
8630  8629  7999  0
7999  8323  8630  0
8631  8630  8323  0
8323  8001  8632  0
8325  8632  8001  0
8323  8632  8631  0
8318  8329  8319  0
8014  8627  8022  0
8627  8633  8022  0
8633  8330  8022  0
7998  8628  8017  0
8334  8634  8335  0
8335  8634  8635  0
8335  8635  8328  0
8328  8635  8337  0
8329  8636  8319  0
8017  8637  8018  0
8341  8340  8638  0
8341  8638  8639  0
8341  8639  8342  0
8342  8640  8641  0
8342  8641  8334  0
8342  8642  8640  0
8334  8641  8634  0
8643  8644  8343  0
8643  8343  8018  0
8643  8018  8637  0
8340  8344  8645  0
8340  8645  8638  0
8639  8642  8342  0
8343  8644  8345  0
8344  8346  8646  0
8344  8646  8645  0
8645  8646  8647  0
8645  8647  8638  0
8345  8351  7705  0
7705  8351  8044  0
8037  8352  8648  0
8037  8648  8353  0
8353  8649  8354  0
8357  8650  8346  0
8346  8650  8646  0
8348  8349  8651  0
8349  8350  8652  0
8349  8652  8651  0
8354  8364  8361  0
8354  8649  8364  0
8653  8357  8362  0
8358  8654  8367  0
8358  8359  8654  0
8348  8651  8359  0
8350  8360  8652  0
8365  8655  8656  0
8655  8365  8051  0
8655  8051  8657  0
8658  8657  8051  0
8051  8364  8658  0
8659  8653  8362  0
8366  8367  8660  0
8654  8660  8367  0
8661  8652  8360  0
8360  8043  8661  0
8662  8661  8043  0
8043  8368  8662  0
8655  8663  8656  0
8664  8656  8663  0
8369  8365  8656  0
8362  8055  8659  0
8665  8659  8055  0
8055  8370  8665  0
8371  8665  8370  0
8666  8372  8057  0
8057  8366  8666  0
8660  8666  8366  0
8667  8662  8368  0
8368  8373  8667  0
8656  8664  8369  0
8374  8369  8664  0
8664  8668  8374  0
8374  8668  8375  0
8373  8376  8667  0
8669  8667  8376  0
8670  7730  8377  0
8381  8383  8382  0
8381  8671  8383  0
8383  8671  8385  0
8385  8387  8384  0
8672  8387  8385  0
8378  8673  8376  0
8376  8673  8669  0
7730  8670  8061  0
8061  8670  8379  0
8674  8379  8670  0
8672  8386  8387  0
8391  8386  8672  0
8669  8391  8672  0
8675  8391  8673  0
8391  8669  8673  0
8673  8378  8675  0
8388  8675  8378  0
8392  8062  8379  0
8379  8674  8392  0
8676  8392  8674  0
8399  8389  8073  0
8399  8677  8389  0
8389  8677  8380  0
8678  8390  8391  0
8391  8675  8678  0
8392  8676  8393  0
8679  8394  8393  0
8679  8393  8676  0
8397  8680  8395  0
8396  8395  8680  0
8396  8681  8398  0
8682  8398  8681  0
8398  8682  8399  0
8390  8678  8400  0
8683  8400  8678  0
8678  8675  8684  0
8678  8684  8683  0
8675  8388  8684  0
8388  8070  8404  0
8388  8404  8684  0
8079  8394  8685  0
8079  8685  8401  0
8394  8679  8686  0
8394  8686  8685  0
8679  8687  8686  0
8687  8679  8688  0
8397  8402  8680  0
8081  8403  8409  0
8403  8400  8689  0
8684  8404  8690  0
8691  8086  8405  0
8405  8406  8692  0
8406  8693  8692  0
8406  8407  8693  0
8401  8685  8694  0
8685  8686  8695  0
8685  8695  8694  0
8402  8084  8696  0
8084  8090  8697  0
8409  8698  8408  0
8410  8086  8691  0
8410  8691  8699  0
8410  8699  8700  0
8692  8693  8701  0
8090  8702  8697  0
8090  8091  8702  0
8408  8414  8096  0
8408  8698  8414  0
8404  8092  8703  0
8404  8703  8704  0
8413  8410  8700  0
8415  8703  8092  0
8415  7779  8705  0
8415  8705  8703  0
8413  8706  8093  0
8095  8417  8707  0
8095  8707  8091  0
8102  8705  7779  0
8093  8706  8708  0
8419  8709  8426  0
8419  8418  8709  0
8421  8710  8102  0
8421  8427  8710  0
8093  8708  8104  0
8423  8422  8424  0
8423  8424  8110  0
8426  8709  8711  0
8104  8118  8117  0
8712  8109  8429  0
8109  8712  8430  0
8713  8430  8712  0
8430  8713  8422  0
8714  8422  8713  0
8422  8714  8424  0
8715  8424  8714  0
8716  8424  8715  0
8424  8716  8111  0
8431  8111  8716  0
8717  8120  8432  0
8120  8717  8425  0
8420  8113  8425  0
8426  8711  8434  0
8718  8434  8711  0
8427  8435  8719  0
8720  8719  8435  0
8118  8721  8121  0
8436  8121  8721  0
8428  8722  8429  0
8429  8722  8712  0
8723  8712  8722  0
8724  8712  8723  0
8712  8724  8713  0
8438  8725  8432  0
8726  8432  8725  0
8432  8726  8717  0
8727  8717  8726  0
8433  8434  8728  0
8433  8728  8439  0
8729  8439  8728  0
8718  8728  8434  0
8435  8440  8720  0
8122  8437  8448  0
8730  8448  8437  0
8725  8438  8731  0
8441  8731  8438  0
8732  8443  8444  0
8729  8444  8439  0
8733  8440  8445  0
8448  8730  8449  0
8734  8449  8730  0
8441  8442  8735  0
8736  8735  8442  0
8442  8443  8736  0
8732  8736  8443  0
8737  8130  8451  0
8738  8451  8131  0
8739  8738  8131  0
8131  8129  8739  0
8129  8452  8739  0
8453  8447  8740  0
8447  8449  8741  0
8734  8741  8449  0
8447  8741  8740  0
8742  8458  8455  0
8743  8742  8455  0
8455  7815  8743  0
8744  8743  7815  0
7815  7817  8744  0
8456  8744  7817  0
8456  8457  8745  0
7813  8130  8462  0
8746  8462  8130  0
8747  8739  8452  0
8452  8453  8747  0
8748  8747  8453  0
8749  8748  8453  0
8453  8740  8749  0
8750  8749  8740  0
8751  8132  8133  0
8132  8751  8454  0
8752  8459  8458  0
8457  8460  8753  0
8464  8754  8133  0
8133  8754  8755  0
8133  8755  8751  0
8467  8459  8752  0
8467  8752  8756  0
8461  8757  8460  0
8465  8758  8464  0
8465  8469  8759  0
8465  8759  8758  0
8756  8470  8467  0
8461  8147  8760  0
8461  8760  8757  0
8468  8481  8471  0
8468  8463  8761  0
8468  8761  8481  0
8469  8473  8762  0
8469  8762  8763  0
8469  8763  8759  0
8144  8476  8474  0
8477  8478  8764  0
8470  8756  8765  0
8147  8152  8760  0
8481  8766  8480  0
8480  8767  8472  0
8472  8767  8482  0
8153  8482  8156  0
8762  8473  8768  0
8762  8768  8763  0
8470  8769  8479  0
8470  8765  8769  0
8152  8486  8760  0
8480  8766  8770  0
8480  8770  8767  0
8482  8767  8771  0
8482  8771  8156  0
8156  8771  8483  0
8772  8478  8484  0
8772  8484  8773  0
8774  8160  8483  0
8774  8483  8771  0
8774  8771  8775  0
8773  8484  8776  0
8494  8165  8777  0
8494  8777  8778  0
8494  8778  8487  0
8165  8488  8777  0
8488  8167  8779  0
8769  8780  8479  0
8479  8780  8485  0
8486  8489  8781  0
8492  8491  8782  0
8492  8782  8783  0
8491  8775  8782  0
8491  8160  8774  0
8491  8774  8775  0
8776  8484  8784  0
8776  8784  8785  0
8776  8785  8786  0
8484  8487  8787  0
8484  8787  8784  0
8487  8778  8788  0
8487  8788  8787  0
8167  8168  8789  0
8167  8789  8779  0
8485  8790  8495  0
8498  8495  8790  0
8489  8163  8791  0
8489  8791  8781  0
8163  8496  8792  0
8163  8792  8791  0
8496  8493  8492  0
8496  8492  8792  0
8785  8784  8793  0
8784  8787  8794  0
8784  8794  8793  0
8795  8793  8794  0
8168  8497  8789  0
8786  8796  8797  0
8798  8797  8796  0
8796  8785  8799  0
8793  8799  8785  0
8796  8786  8785  0
8497  8499  8800  0
8801  8800  8499  0
8498  8802  8500  0
8796  8799  8803  0
8796  8803  8798  0
8799  8793  8803  0
8804  8803  8793  0
8793  8795  8804  0
8174  8801  8499  0
8503  8507  8501  0
8505  8507  8805  0
8806  8505  8805  0
8502  8807  8503  0
8505  8806  8506  0
8808  8506  8806  0
8809  8807  8810  0
8506  8808  8811  0
8808  8812  8811  0
8813  8508  8515  0
8508  8813  8509  0
8814  8509  8813  0
8509  8814  8510  0
8510  8815  8511  0
8816  8817  8516  0
8181  8521  8515  0
8818  8515  8521  0
8515  8819  8813  0
8518  8820  8519  0
8527  8519  8820  0
8522  8521  8185  0
8821  8818  8521  0
8813  8819  8814  0
8511  8822  8182  0
8182  8822  8524  0
8524  8822  8823  0
8516  8517  8824  0
8516  8824  8825  0
8517  8520  8824  0
8527  8531  8189  0
8521  8522  8826  0
8523  8826  8522  0
8521  8826  8821  0
8526  8525  8827  0
8526  8827  8193  0
8193  8827  8828  0
8193  8828  8529  0
8529  8829  8533  0
8529  8533  8194  0
8529  8828  8829  0
8829  8828  8830  0
8829  8824  8831  0
8829  8830  8825  0
8829  8825  8824  0
8824  8535  8831  0
8824  8520  8535  0
8820  8832  8527  0
8527  8832  8531  0
8531  8202  8195  0
8523  8532  8833  0
8523  8833  8826  0
8528  8834  8532  0
8528  8190  8834  0
8190  8196  8834  0
8829  8831  8533  0
8535  8520  8530  0
8532  8835  8833  0
8532  8834  8835  0
8533  8831  8201  0
8831  8535  8534  0
8831  8534  8201  0
8536  8202  8836  0
8205  8204  8210  0
8834  8196  8837  0
8196  8197  8837  0
8197  8198  8838  0
8198  8200  8838  0
8537  8536  8836  0
8537  8836  8839  0
8204  8538  8840  0
8204  8840  8210  0
8210  8840  8541  0
8197  8838  8841  0
8539  8537  8842  0
8539  8842  8843  0
8537  8839  8842  0
8200  8206  8844  0
8200  8844  8838  0
8206  8211  8845  0
8206  8845  8844  0
8213  8539  8843  0
8843  8842  8846  0
8540  8847  8538  0
8211  8545  8845  0
8848  8213  8843  0
8847  8540  8542  0
8849  8542  8220  0
8213  8848  8222  0
8850  8222  8848  0
8851  8219  8549  0
8550  8219  8851  0
8550  8852  8220  0
8849  8220  8852  0
8544  8853  8215  0
8854  8215  8853  0
8215  8855  8546  0
8546  8856  8216  0
8216  8856  8547  0
8224  8551  8549  0
8857  8549  8551  0
8856  8858  8547  0
8859  8547  8858  0
8547  8859  8218  0
8860  8552  8218  0
8548  8553  8861  0
8862  8861  8553  0
8222  8863  8223  0
8864  8223  8863  0
8225  8559  8551  0
8865  8551  8559  0
8554  8226  8866  0
8226  8227  8866  0
8560  8866  8227  0
8552  8860  8558  0
8867  8558  8860  0
8868  8862  8553  0
8223  8864  8235  0
8559  8869  8865  0
8870  8865  8869  0
8230  8554  8567  0
8871  8567  8554  0
8554  8866  8871  0
8866  8560  8872  0
8240  8560  8555  0
8553  8239  8873  0
8553  8873  8868  0
8559  8565  8869  0
8874  8244  8566  0
8566  8567  8874  0
8872  8871  8866  0
8872  8560  8875  0
8560  8240  8245  0
8560  8245  8875  0
8876  8568  8561  0
8561  8556  8876  0
8877  8876  8556  0
8556  8562  8877  0
8562  8563  8878  0
8879  8558  8867  0
8873  8239  8569  0
8235  8880  8241  0
8564  8570  8881  0
8564  8881  8565  0
8882  8869  8565  0
8883  8258  8244  0
8244  8874  8883  0
8884  8883  8874  0
8874  8567  8885  0
8874  8885  8884  0
8562  8878  8886  0
8562  8886  8877  0
8563  8558  8879  0
8563  8879  8878  0
8241  8880  8887  0
8241  8887  8574  0
8570  8576  8881  0
8258  8883  8577  0
8883  8884  8577  0
8574  8888  8261  0
8574  8887  8888  0
8252  8575  7953  0
8252  7953  8253  0
8576  8587  8889  0
8576  8889  8881  0
8577  8884  8890  0
8577  8890  8580  0
8580  8583  8581  0
8580  8890  8583  0
8583  8890  8573  0
8246  8584  8891  0
8246  8891  8569  0
8261  8892  8262  0
8261  8888  8892  0
8585  8893  8586  0
8586  8893  8894  0
8586  8894  8575  0
8575  8894  8591  0
8575  8591  7953  0
8588  8895  8896  0
8588  8896  8587  0
8571  8897  8250  0
8262  8892  8898  0
8262  8898  8585  0
8585  8898  8899  0
8585  8899  8893  0
8894  8599  8591  0
8591  8599  8592  0
8588  8593  8900  0
8588  8900  8895  0
8895  8900  8901  0
8589  8595  8902  0
8250  8897  7966  0
8598  8903  8584  0
8598  8584  7949  0
8600  8594  8904  0
8594  8589  8902  0
8596  8597  8905  0
8597  8906  8905  0
8597  7963  8906  0
7966  8897  8907  0
7966  8907  8272  0
8272  8907  8908  0
8601  8909  8273  0
8273  8909  8598  0
8279  8274  8910  0
8599  8910  8274  0
8275  8602  8593  0
8600  8904  8911  0
7963  8603  8906  0
8912  8906  8603  0
8272  8908  8282  0
8913  8282  8908  0
8278  8914  8601  0
8915  8914  8278  0
8601  8914  8909  0
8284  8279  8916  0
8917  8593  8602  0
8911  8281  8600  0
8911  8904  8918  0
8919  8918  8904  0
8603  8285  8912  0
8278  8604  8915  0
8920  8915  8604  0
8921  8920  8604  0
8291  8284  8916  0
8602  8281  8917  0
8281  8911  8922  0
8281  8922  8917  0
8923  8917  8922  0
8911  8918  8922  0
8924  8912  8285  0
8282  8913  8286  0
8604  8288  8921  0
8288  8605  8921  0
8294  8291  8925  0
8609  8285  8295  0
8285  8609  8924  0
8926  8287  8286  0
8607  8287  8926  0
8927  8606  8297  0
8298  8608  8610  0
8608  8292  8928  0
8293  8928  8292  0
8929  8294  8925  0
8607  8930  8296  0
8296  8930  8301  0
8614  8301  8930  0
8931  8614  8930  0
8297  8311  8927  0
8610  8608  8932  0
8928  8932  8608  0
8928  8293  8933  0
8308  8933  8293  0
8928  8933  8934  0
8293  8302  8308  0
8294  8929  7980  0
8611  7980  8929  0
8935  8924  8609  0
8614  8931  8615  0
8936  8615  8931  0
8937  8311  8315  0
8307  8610  8620  0
8932  8620  8610  0
8621  8933  8308  0
8938  8303  8611  0
8303  8938  8612  0
8612  8938  8616  0
8939  8616  8938  0
8940  8616  8939  0
8616  8940  8309  0
8617  8309  8940  0
8305  8623  8609  0
8609  8623  8935  0
8625  8937  8315  0
8625  8941  8937  0
8942  8619  8620  0
8933  8621  8943  0
8933  8943  8944  0
8933  8944  8934  0
8623  8945  8935  0
8624  8615  8627  0
8615  8936  8633  0
8615  8633  8627  0
8936  8941  8330  0
8936  8330  8633  0
8941  8625  8330  0
8320  8619  8946  0
8943  8621  8626  0
8943  8626  8947  0
8943  8947  8944  0
8622  8617  8948  0
8623  8319  8949  0
8623  8949  8945  0
8628  8320  8946  0
8628  8946  8950  0
8626  8951  8947  0
8626  8321  8951  0
8321  8322  8952  0
8321  8952  8951  0
8322  8629  8952  0
8629  8630  8953  0
8630  8631  8953  0
8622  8954  8317  0
8636  8949  8319  0
8628  8950  8637  0
8628  8637  8017  0
8317  8954  8326  0
8636  8955  8949  0
8636  8329  8955  0
8637  8956  8957  0
8637  8957  8643  0
8641  8958  8634  0
8634  8958  8959  0
8634  8959  8635  0
8635  8959  8960  0
8635  8960  8337  0
8337  8960  8961  0
8337  8961  8336  0
8329  8336  8955  0
8643  8957  8644  0
8639  8638  8642  0
8644  8962  8345  0
8638  8647  8963  0
8638  8963  8642  0
8345  8962  8351  0
8351  8962  8964  0
8351  8964  8352  0
8352  8964  8648  0
8648  8965  8649  0
8648  8649  8353  0
8966  8647  8646  0
8647  8966  8963  0
8967  8963  8966  0
8658  8965  8657  0
8965  8658  8649  0
8364  8649  8658  0
8357  8653  8650  0
8968  8650  8653  0
8650  8968  8646  0
8969  8646  8968  0
8646  8969  8966  0
8970  8966  8969  0
8651  8652  8971  0
8655  8657  8663  0
8972  8973  8974  0
8975  8974  8973  0
8653  8976  8968  0
8977  8968  8976  0
8653  8659  8976  0
8978  8968  8977  0
8968  8978  8969  0
8970  8969  8978  0
8660  8654  8979  0
8980  8979  8654  0
8654  8359  8980  0
8359  8651  8980  0
8981  8980  8651  0
8651  8971  8981  0
8982  8971  8652  0
8652  8661  8982  0
8664  8663  8983  0
8974  8975  8984  0
8985  8984  8975  0
8986  8976  8659  0
8665  8371  8987  0
8372  8987  8371  0
8666  8660  8988  0
8979  8988  8660  0
8979  8980  8989  0
8990  8989  8980  0
8991  8990  8980  0
8980  8981  8991  0
8981  8971  8991  0
8661  8662  8992  0
8661  8992  8982  0
8993  8982  8992  0
8662  8667  8992  0
8983  8994  8664  0
8995  8664  8994  0
8668  8664  8995  0
8659  8665  8986  0
8987  8986  8665  0
8987  8372  8996  0
8997  8996  8372  0
8372  8666  8997  0
8666  8988  8997  0
8979  8997  8988  0
8998  8989  8990  0
8999  8998  8990  0
8990  8991  8999  0
9000  8999  8991  0
8991  9001  9000  0
9002  8668  8995  0
8668  9002  8375  0
8377  8375  9002  0
9003  8998  8381  0
8998  8999  8381  0
8671  8381  8999  0
8999  9000  8671  0
8385  8671  9000  0
9000  9001  8385  0
8672  8385  9001  0
9001  8993  8672  0
8993  8992  8669  0
8993  8669  8672  0
8992  8667  8669  0
9002  9004  8377  0
8377  9004  8670  0
9003  8381  8380  0
8674  8670  9004  0
8677  9005  9003  0
8677  9003  8380  0
8674  9006  8676  0
9007  8681  8396  0
9007  8396  8680  0
9007  9008  8681  0
9007  8680  9009  0
8681  9008  8682  0
8682  9008  9010  0
8682  9010  9011  0
9011  8399  8682  0
8399  9011  8677  0
8676  9006  8679  0
8679  9006  9012  0
8679  9012  9013  0
9014  8407  8401  0
9014  8401  9015  0
9015  8401  8694  0
9015  8694  9016  0
8679  9013  8688  0
8680  8402  9017  0
8403  8689  9018  0
8400  8683  8689  0
8683  8684  9019  0
8684  8690  9019  0
8405  8692  8691  0
8693  8407  9014  0
8693  9014  9020  0
8694  8695  9021  0
8694  9021  9016  0
8695  8686  9022  0
8695  9022  9021  0
8686  8687  9023  0
8686  9023  9022  0
8687  8688  9023  0
8402  8696  9024  0
8402  9024  9025  0
8696  8084  8697  0
8696  8697  9024  0
8409  9026  8698  0
8409  8403  9018  0
8409  9018  9026  0
8690  8404  8704  0
8699  8691  9027  0
8691  8692  9028  0
8692  8701  9028  0
8701  8693  9020  0
9029  8414  8698  0
9026  9030  8698  0
8698  9030  9029  0
8413  8700  8706  0
8702  8091  9031  0
9032  8418  8414  0
8414  9029  9032  0
8703  8705  9033  0
9034  9033  8705  0
8091  8707  9031  0
8418  9032  8709  0
8710  8705  8102  0
8705  8710  9034  0
8706  9035  8708  0
9036  8707  8417  0
8711  8709  9032  0
9032  9037  8711  0
8711  9037  9038  0
8710  8427  9034  0
8719  9034  8427  0
9039  8714  9040  0
9041  9040  8714  0
8714  9039  8715  0
9042  8715  9039  0
8417  8420  9036  0
9043  9036  8420  0
9044  8711  9038  0
9045  9044  9038  0
9046  8104  8708  0
8104  9046  8118  0
9047  8118  9046  0
8713  9041  8714  0
8713  8724  9041  0
8715  9042  8716  0
9048  8716  9042  0
8716  9048  8431  0
9049  8431  9048  0
8717  8727  8425  0
8425  8727  8420  0
9043  8420  8727  0
8711  9044  8718  0
9050  9044  9045  0
9051  8436  8721  0
8436  9051  8428  0
9052  8428  9051  0
8428  9052  8722  0
8723  8722  9052  0
8723  9053  8724  0
8431  9049  8437  0
9054  8437  9049  0
8718  8729  8728  0
9055  8718  9044  0
9050  9055  9044  0
8440  8733  8720  0
8437  9054  8730  0
9056  8730  9054  0
8444  9057  8732  0
8729  9057  8444  0
8734  8730  9056  0
8735  8736  9058  0
8445  8450  9059  0
8445  9059  8733  0
8451  9060  8737  0
8451  8738  9060  0
8738  8739  9061  0
8738  9061  9060  0
8741  8750  8740  0
8741  8734  8750  0
9062  8750  8734  0
8454  8751  9063  0
8454  9063  8450  0
8744  8456  9064  0
8456  8745  9064  0
8745  8457  8753  0
8745  8753  9065  0
9066  8746  8130  0
9066  8130  9067  0
9068  8746  9066  0
8130  8737  9067  0
8737  9060  9069  0
9060  9070  9069  0
9060  9061  9070  0
9061  8739  9071  0
8739  8747  9071  0
8747  8748  9072  0
8747  9072  9071  0
8748  8749  9072  0
8749  8750  9073  0
8750  9062  9073  0
8752  9074  9075  0
8458  8742  9074  0
8458  9074  8752  0
8753  8460  8757  0
8746  9076  8462  0
8746  9068  9076  0
9072  8749  9077  0
9072  9077  9078  0
8749  9073  9077  0
9073  9079  9077  0
8752  9075  8756  0
8757  9080  8753  0
9076  9081  8463  0
9076  8463  8462  0
9076  9082  9081  0
8758  9083  8464  0
8464  9083  8754  0
8756  9075  9084  0
8756  9084  8765  0
9081  8761  8463  0
8759  9085  8758  0
8759  8763  9086  0
8759  9086  9085  0
8476  8477  9087  0
8477  8764  9087  0
8765  9084  9088  0
9089  8761  9090  0
8761  9081  9090  0
8761  9089  8481  0
8766  8481  9089  0
9091  9086  8763  0
8473  8475  9092  0
8475  8474  9092  0
8474  8476  9093  0
8476  9087  9093  0
8772  8764  8478  0
8765  9088  8769  0
9094  9095  8760  0
9089  9090  9096  0
9089  9096  8766  0
8766  9097  8770  0
8766  9096  9097  0
8775  8767  8770  0
8771  8767  8775  0
8763  8768  9091  0
9098  9091  8768  0
8768  8473  9099  0
9092  9099  8473  0
8764  8772  9100  0
8773  9100  8772  0
8486  9094  8760  0
9101  8783  9097  0
8782  9097  8783  0
9101  9097  9102  0
9096  9102  9097  0
9097  8782  8770  0
8775  8770  8782  0
9103  9100  9104  0
9100  8773  9104  0
8776  9104  8773  0
8788  8778  9105  0
8777  9105  8778  0
8777  8488  9106  0
9107  9106  8488  0
8488  8779  9107  0
8769  9088  9108  0
8769  9108  8780  0
8486  8781  9094  0
9109  9094  8781  0
8791  9109  8781  0
8492  8783  8792  0
9101  8792  8783  0
8786  9103  9104  0
9104  8776  8786  0
8787  8788  8794  0
8794  8788  9110  0
9111  8794  9110  0
9107  8779  9112  0
8789  9112  8779  0
8485  8780  8790  0
9113  8790  8780  0
8791  8792  9114  0
9115  9116  9117  0
8797  9117  9103  0
9117  9116  9103  0
9103  8786  8797  0
8794  9111  8795  0
8804  8795  9111  0
8789  8497  8800  0
9118  8789  8800  0
8790  9113  8498  0
8802  8498  9113  0
9119  9115  9117  0
9117  8797  9119  0
8798  9119  8797  0
8801  9118  8800  0
9120  8500  8802  0
9121  9119  8798  0
9122  9121  8798  0
8798  8803  9122  0
8803  8804  9123  0
8803  9123  9122  0
8801  8174  9124  0
9125  9124  8174  0
8174  8500  9125  0
9120  9125  8500  0
8503  8807  9126  0
8503  9127  8507  0
9128  8507  9127  0
8503  9126  9127  0
8507  9128  8805  0
9129  8805  9128  0
8805  9130  8806  0
8805  9129  9130  0
9131  8806  9130  0
8806  9131  8808  0
8515  8818  8819  0
8510  8814  9132  0
8510  9132  8815  0
8511  8815  8822  0
8516  8825  9133  0
8516  9133  8816  0
8816  9133  9134  0
8821  9135  9136  0
8821  9136  8818  0
8818  9136  9137  0
8818  9137  8819  0
8819  9138  8814  0
8814  9138  9139  0
9139  9132  8814  0
8815  9132  8822  0
8518  9140  8820  0
8821  8826  9141  0
9138  9142  9139  0
8524  8823  9143  0
8524  9143  8525  0
8827  8525  9144  0
8827  9144  8828  0
8828  9145  8830  0
8830  9145  8825  0
8825  9145  9133  0
9140  9146  9147  0
8820  9140  8832  0
8826  8833  9148  0
8826  9148  9141  0
8832  8202  8531  0
9149  9148  8833  0
8835  9149  8833  0
8202  8832  9150  0
8202  9150  8836  0
9151  9149  8835  0
9151  8835  8834  0
8837  9151  8834  0
9152  8839  8836  0
8836  9150  9153  0
8836  9153  9152  0
8837  8197  8841  0
9152  8842  8839  0
9152  9153  9154  0
8538  9155  8840  0
8541  8840  9155  0
8838  8844  9156  0
8842  9152  8846  0
9157  8846  9152  0
9158  9157  9152  0
9152  9154  9158  0
8538  8847  9155  0
9159  8541  9155  0
8541  9159  8543  0
8845  8545  9160  0
8845  9160  8844  0
9161  8848  8843  0
8843  8846  9161  0
9157  9161  8846  0
9162  9158  9154  0
8542  8849  8847  0
9163  8847  8849  0
8847  9163  9155  0
9164  9155  9163  0
9155  9164  9159  0
8853  8543  9159  0
9165  9159  9164  0
8543  8853  8544  0
9166  9160  8545  0
9167  8850  8848  0
8848  9161  9167  0
9161  9157  9167  0
9168  9167  9157  0
9169  9168  9157  0
9157  9158  9169  0
9158  9162  9169  0
9170  8550  8851  0
8550  9170  8852  0
9159  9165  8853  0
8855  8215  8854  0
8856  8546  8855  0
8548  8861  8545  0
9166  8545  8861  0
8222  8850  8863  0
9171  8863  8850  0
8850  9167  9171  0
9172  9171  9167  0
9173  9172  9167  0
9167  9168  9173  0
8853  9174  8854  0
9175  8856  8855  0
8858  8856  9175  0
8858  9176  8859  0
8859  9176  8860  0
8859  8860  8218  0
8863  9171  9177  0
8863  9177  8864  0
8551  8865  9178  0
8551  9178  8857  0
8857  9178  9179  0
8857  9179  9180  0
9176  9181  8860  0
8860  9181  8867  0
8862  8868  9182  0
8862  9182  8861  0
8864  9183  8235  0
8865  8870  9178  0
8235  9183  8880  0
9184  8880  9183  0
8869  8882  8870  0
8567  8871  8885  0
8871  8872  8885  0
9185  8879  8867  0
8565  8881  9186  0
8565  9186  8882  0
8885  9187  8884  0
8885  8872  9187  0
8872  8875  8572  0
8872  8572  9187  0
8875  8245  8572  0
8568  8876  9188  0
8876  8877  9189  0
8876  9189  9188  0
8879  9185  9190  0
8873  8569  9191  0
8881  8889  9186  0
8884  9187  8890  0
9187  8573  8890  0
9187  8572  8573  0
8568  9188  9192  0
8568  9192  8571  0
8877  8886  9189  0
8886  9193  9189  0
8886  8878  9193  0
8878  8879  9190  0
8878  9190  9193  0
9191  8569  9194  0
8571  9192  8897  0
9194  8569  8891  0
8888  8887  9195  0
8587  8896  9196  0
8587  9196  8889  0
9197  8896  8895  0
8896  9198  9196  0
8896  9197  9198  0
8891  8584  9194  0
9199  9194  8584  0
8892  9200  8898  0
8899  9201  8893  0
8895  8901  9197  0
9202  9197  8901  0
8902  8595  9203  0
8596  9203  8595  0
8903  9199  8584  0
9201  9204  8893  0
8910  8893  9204  0
8893  8910  8894  0
8599  8894  8910  0
8901  8900  9202  0
9205  9202  8900  0
8594  8902  8904  0
8919  8904  8902  0
8902  9203  9206  0
8902  9206  8919  0
8905  9203  8596  0
8897  9207  8907  0
8909  9208  8903  0
8909  8903  8598  0
9204  8916  8910  0
8279  8910  8916  0
9205  8900  8593  0
8919  9206  9209  0
9210  8914  9211  0
8915  9211  8914  0
9210  9212  8914  0
9213  9210  9211  0
8914  9212  9208  0
8914  9208  8909  0
9204  9214  8916  0
8593  8917  9205  0
9205  9215  9216  0
9205  9216  9217  0
9205  8917  9215  0
9218  8918  8919  0
8919  9209  9218  0
8906  8912  9219  0
8908  9220  8913  0
9221  8913  9220  0
9211  8915  9213  0
8920  9213  8915  0
9214  8291  8916  0
8917  8923  9215  0
9222  8922  8918  0
8918  9218  9222  0
9223  9222  9218  0
9224  9225  8912  0
8912  8924  9224  0
8926  8286  8913  0
8913  9221  8926  0
8920  8921  9226  0
8605  9226  8921  0
8291  9227  8925  0
8929  8925  9227  0
8922  9222  8923  0
9228  8923  9222  0
9223  9228  9222  0
8926  9221  8607  0
8930  8607  9221  0
9221  9229  8930  0
9226  8605  8927  0
9226  8927  9230  0
8605  8606  8927  0
8924  9231  9224  0
9232  8930  9229  0
8930  9232  8931  0
8927  8311  8937  0
8927  8937  9230  0
8932  8928  9233  0
8928  8934  9233  0
8929  9234  8611  0
9235  8611  9234  0
8924  8935  9231  0
8931  8941  8936  0
8931  9232  8941  0
8941  9232  8937  0
9230  8937  9232  0
8620  8932  8942  0
8932  9233  9236  0
8932  9236  8942  0
9233  8934  9237  0
8611  9235  8938  0
9238  8938  9235  0
8938  9238  8939  0
9239  8946  8619  0
8619  8942  9240  0
8619  9240  9239  0
9237  8934  8944  0
8940  9241  8617  0
8948  8617  9241  0
9242  8946  9239  0
9243  8950  8946  0
8951  8952  9244  0
8629  9245  8952  0
8629  8953  9245  0
8622  8948  9246  0
8622  9246  8954  0
8949  9247  8945  0
8950  9243  8956  0
8950  8956  8637  0
8631  8632  9248  0
8954  9246  9249  0
8949  8955  9250  0
8640  9251  8641  0
8640  9252  9251  0
8958  9253  8959  0
8960  8959  9254  0
8960  9254  8961  0
8336  8961  9255  0
8336  9255  8955  0
8957  9256  8644  0
9252  8640  8642  0
8644  9257  8962  0
8642  8963  9252  0
9258  9252  8963  0
8962  9257  9259  0
8962  9260  8964  0
9261  8964  9260  0
8964  9261  8648  0
8965  8648  9261  0
8963  8967  9258  0
8962  9259  9260  0
8657  9261  9260  0
9261  8657  8965  0
9262  8972  9263  0
8974  9263  8972  0
9264  9265  9266  0
8966  8970  8967  0
9260  8983  8657  0
8663  8657  8983  0
9260  9259  9267  0
9260  9267  8983  0
9262  9263  9268  0
9269  9268  9263  0
9263  8974  9270  0
8984  9270  8974  0
8975  9266  8985  0
9271  8985  9266  0
9266  9265  9272  0
9266  9272  9271  0
8983  9267  8994  0
9263  9270  9269  0
8984  8985  9271  0
8984  9271  9273  0
8984  9273  9270  0
9271  9272  9274  0
8976  9275  9276  0
8976  9276  8977  0
8976  8986  9275  0
8977  9276  8978  0
9001  8991  8971  0
8971  8982  9001  0
8993  9001  8982  0
8994  9277  8995  0
9278  8986  8987  0
9279  9275  8986  0
8987  8996  9278  0
9280  9278  8996  0
8996  8997  9280  0
8997  8979  9280  0
9281  9280  8979  0
8979  8989  9281  0
8998  9281  8989  0
9002  8995  9277  0
9002  9282  9004  0
8986  9278  9283  0
9284  9283  9278  0
8986  9283  9279  0
9278  9280  9284  0
9285  9284  9280  0
9281  9285  9280  0
9281  8998  9003  0
9286  9004  9282  0
9283  9284  9287  0
9284  9285  9287  0
9285  9281  9005  0
9281  9003  9005  0
9004  9286  8674  0
8674  9286  9006  0
9283  9287  9008  0
9283  9008  9007  0
9283  9007  9009  0
9283  9009  9279  0
9287  9285  9008  0
9285  9010  9008  0
9285  9005  9010  0
9005  9011  9010  0
9005  8677  9011  0
9006  9288  9012  0
9006  9289  9288  0
9012  9288  9013  0
9290  9013  9288  0
9291  9013  9290  0
9009  8680  9017  0
9009  9017  9292  0
9293  9014  9294  0
9015  9016  9295  0
9015  9295  9014  0
9016  9021  9296  0
9016  9296  9295  0
9013  9291  8688  0
9297  8688  9291  0
9017  8402  9025  0
9017  9025  9292  0
9025  9024  9298  0
8689  8683  9019  0
9019  8690  9299  0
9020  9014  9293  0
9022  9023  9300  0
9022  9300  9021  0
9023  8688  9297  0
9023  9297  9300  0
9024  9301  9298  0
9024  8697  9301  0
9301  8697  9302  0
9026  9018  9303  0
8690  8704  9304  0
8690  9304  9299  0
9305  8700  8699  0
8691  9028  9027  0
9028  8701  9306  0
8701  9020  9306  0
8697  8702  9307  0
8697  9307  9302  0
8702  9031  9308  0
8702  9308  9307  0
9026  9303  9030  0
9304  8704  8703  0
9304  8703  9033  0
8700  9305  8706  0
9029  9309  9032  0
9034  9304  9033  0
8706  9305  9035  0
9031  8707  9308  0
9310  9308  8707  0
9037  9032  9309  0
9304  9034  9311  0
8707  9036  9310  0
9037  9312  9038  0
9045  9038  9312  0
9034  8719  9313  0
9314  9313  8719  0
9035  9315  8708  0
9041  9316  9317  0
9317  9316  9318  0
9317  9040  9041  0
9040  9317  9039  0
9039  9319  9042  0
9042  9319  9320  0
9042  9320  9048  0
9045  9312  9321  0
8708  9315  9046  0
9047  9322  8118  0
8721  8118  9322  0
9047  9323  9322  0
9316  9041  9053  0
8724  9053  9041  0
9048  9320  9324  0
9048  9324  9049  0
9325  9043  8727  0
8719  8720  9314  0
9326  9314  8720  0
8721  9322  9327  0
8721  9327  9328  0
8721  9328  9051  0
9051  9328  9052  0
9052  9328  9329  0
9052  9329  8723  0
8723  9329  9053  0
9049  9324  9330  0
9049  9330  9054  0
8725  9331  9332  0
8725  9332  8726  0
8725  8731  9331  0
9333  9331  8731  0
8726  9332  9334  0
8726  9334  9335  0
8726  9335  8727  0
8727  9335  9325  0
8729  8718  9336  0
9055  9336  8718  0
8720  8733  9326  0
9337  9056  9054  0
9330  9337  9054  0
8731  8441  9333  0
8735  9333  8441  0
9336  9057  8729  0
8734  9056  9338  0
9337  9338  9056  0
8734  9338  9339  0
9333  8735  9340  0
9058  9340  8735  0
8734  9339  9062  0
9341  9062  9339  0
8732  9058  8736  0
9059  8450  9342  0
8742  8743  9343  0
9344  9343  8743  0
8742  9343  9074  0
8743  8744  9344  0
9064  9344  8744  0
9064  8745  9345  0
9067  8737  9346  0
8737  9069  9346  0
9069  9070  9347  0
9070  9061  9348  0
9070  9348  9347  0
9061  9071  9348  0
9071  9072  9348  0
9062  9341  9073  0
9349  9073  9341  0
9063  9350  8450  0
9342  8450  9350  0
9074  9351  9075  0
8745  9065  9345  0
9065  8753  9080  0
9352  9076  9068  0
9348  9072  9078  0
9348  9078  9353  0
9073  9349  9079  0
8755  8754  9354  0
8755  9354  8751  0
9075  9355  9084  0
9080  9356  9065  0
9076  9352  9082  0
9078  9357  9353  0
9078  9077  9358  0
9078  9358  9357  0
9077  9079  9358  0
9083  9359  8754  0
9360  8754  9359  0
9354  8754  9360  0
9080  8757  8760  0
9080  8760  9361  0
9080  9361  9362  0
9363  9081  9082  0
9361  8760  9095  0
9361  9364  9362  0
9365  9081  9363  0
9081  9365  9090  0
9366  9090  9365  0
9092  8474  9367  0
8474  9093  9367  0
9093  9087  9368  0
9087  8764  9368  0
9095  9094  9364  0
9095  9364  9361  0
9090  9366  9096  0
9369  9096  9366  0
9096  9369  9102  0
9098  8768  9099  0
9099  9092  9370  0
9092  9371  9370  0
9092  9367  9372  0
9092  9372  9371  0
9367  9093  9372  0
9093  9368  9372  0
9368  8764  9100  0
9368  9100  9373  0
9374  8777  9106  0
9374  9106  9375  0
9375  9106  9376  0
9102  9369  9101  0
9373  9100  9103  0
8788  9105  9110  0
9106  9107  9376  0
9377  9376  9107  0
9107  9112  9377  0
9088  9378  9108  0
9109  8791  9379  0
9114  9379  8791  0
8792  9101  9114  0
9369  9114  9101  0
9116  9373  9103  0
9111  9110  9380  0
9105  9380  9110  0
9111  9380  9381  0
8780  9108  9382  0
8780  9382  9113  0
9115  9383  9116  0
9383  9373  9116  0
8804  9111  9381  0
9112  8789  9384  0
9118  9384  8789  0
9113  9382  9385  0
9113  9385  8802  0
9383  9115  9386  0
9387  9386  9115  0
9115  9119  9387  0
8804  9381  9123  0
9123  9381  9388  0
8802  9385  9120  0
9121  9122  9389  0
9123  9389  9122  0
9390  9391  9392  0
9390  9393  9394  0
9395  9394  9393  0
9390  9392  9396  0
9390  9396  9393  0
9393  9396  9397  0
9393  9397  9395  0
9394  9391  9390  0
9395  9398  9399  0
9127  9126  9400  0
9401  9400  9126  0
9130  9402  9131  0
9130  9129  9403  0
9130  9403  9402  0
9391  9394  9404  0
9405  9391  9404  0
9406  9394  9395  0
9395  9399  9406  0
9402  9407  9131  0
9131  9407  8808  0
9408  8808  9407  0
9409  9404  9394  0
9394  9406  9409  0
9401  9126  8807  0
9409  9406  9410  0
8809  9411  8807  0
8812  8808  9412  0
9413  9412  8808  0
8808  9408  9413  0
9135  8821  9414  0
9137  9415  9138  0
9137  9138  8819  0
9137  9136  9415  0
9132  9139  9416  0
9132  9417  8822  0
9414  8821  9141  0
9414  9141  9418  0
9419  9138  9415  0
9420  9138  9419  0
9138  9420  9142  0
9421  9139  9142  0
9416  9139  9421  0
9132  9416  9417  0
9422  8822  9417  0
8822  9422  8823  0
9145  9423  9133  0
9133  9423  9134  0
9134  9423  9424  0
9141  9148  9418  0
9425  8823  9422  0
8823  9425  9143  0
8525  9143  9426  0
8525  9426  9144  0
8828  9144  9145  0
9145  9144  9427  0
9145  9427  9423  0
9423  9427  9428  0
9423  9428  9424  0
9429  9147  9430  0
9147  9431  9432  0
9147  9432  9140  0
