#!ascii file
5291  4959  5290  0
4959  5291  4960  0
5292  4960  5291  0
4958  5286  4603  0
4967  4603  5286  0
4615  5293  4964  0
4965  5294  4616  0
4968  4616  5294  0
4608  4966  5287  0
5295  5287  4966  0
5296  4961  5288  0
5297  4961  5296  0
4961  5297  5289  0
5298  5289  5297  0
5289  5298  5290  0
5299  5290  5298  0
5290  5299  5291  0
5292  5291  5299  0
5300  4605  4963  0
4605  5300  4615  0
5293  4615  5300  0
5301  4964  5293  0
4964  5301  4965  0
5294  4965  5301  0
4618  4969  4966  0
5302  4966  4969  0
4966  5302  5295  0
5303  5295  5302  0
4970  4621  4968  0
4969  4971  5302  0
5302  4971  5303  0
5304  5303  4971  0
5305  5303  5304  0
4304  4621  4970  0
5306  4971  4972  0
4971  5306  5304  0
5307  5304  5306  0
5308  5305  5304  0
5304  5307  5308  0
5309  5308  5307  0
4973  4314  4970  0
4972  4976  5306  0
5306  5310  5307  0
5307  5310  5309  0
4987  4631  4629  0
4977  4629  4307  0
4973  5311  4974  0
4978  4975  4974  0
4982  5306  4976  0
5306  4982  5310  0
4977  4313  4983  0
4978  5312  4979  0
4982  5313  5310  0
4983  4636  5314  0
4636  4984  5314  0
4984  4637  5315  0
4984  5315  5316  0
5315  5317  5316  0
5315  4637  4988  0
5315  4988  5318  0
5315  5318  5319  0
5315  5319  5317  0
5318  4988  4985  0
4985  4988  4638  0
4985  5320  5318  0
4985  4979  5320  0
4982  4986  5313  0
5313  5321  5310  0
4986  4990  5313  0
5313  4990  5322  0
5323  5324  5325  0
5325  5324  4987  0
5323  5326  5324  0
5323  5327  5326  0
4987  5324  5328  0
4987  5328  4650  0
4990  4989  5329  0
4989  4991  5330  0
4989  5330  5329  0
5326  5331  5324  0
4997  4996  4995  0
4997  5332  5333  0
4997  4995  5332  0
4997  5333  5334  0
5334  4658  4997  0
5334  5333  5335  0
5334  5336  4659  0
5334  4659  4658  0
5334  5335  5336  0
5336  4998  4659  0
4998  5337  5338  0
5339  4991  4993  0
4991  5339  5330  0
4994  5340  4995  0
5332  4995  5340  0
4998  5338  4999  0
4993  5341  5339  0
5342  5339  5341  0
5328  5343  4650  0
5000  4650  5343  0
5340  4994  5000  0
4999  5338  5002  0
5344  5002  5338  0
4666  5005  4993  0
5341  4993  5005  0
5001  5002  5003  0
5345  5002  5346  0
5347  5341  5005  0
5345  5003  5002  0
5348  4677  5003  0
5349  5006  4673  0
4677  5348  5012  0
5350  5012  5348  0
5351  4673  4678  0
4679  4681  5007  0
5352  5007  4681  0
5008  5352  4681  0
4681  4682  5008  0
5353  5354  5355  0
5012  5356  5011  0
5012  5350  5356  0
5357  5356  5350  0
5358  5351  4678  0
5352  5014  5007  0
5356  5359  5011  0
4692  5011  5359  0
5356  5357  5360  0
5356  5360  5359  0
4678  5013  5358  0
5361  5358  5013  0
5013  4687  5361  0
5362  5361  4687  0
4687  4686  5362  0
5363  5362  4686  0
4686  5014  5363  0
5364  5363  5014  0
5010  5015  5365  0
5023  5365  5015  0
5355  5366  5367  0
5367  5368  5369  0
5370  5018  5359  0
5370  5359  5371  0
5360  5371  5359  0
5359  5018  4692  0
5015  5020  5023  0
5017  5016  5372  0
5016  4704  5373  0
5016  5373  5374  0
5016  5374  5372  0
5366  5368  5367  0
5370  5375  5018  0
5370  5371  5376  0
5021  5377  4376  0
4704  5024  5373  0
5378  5028  5355  0
5355  5028  5366  0
5370  5379  5375  0
5370  5376  5379  0
5375  4696  5018  0
5023  5022  5380  0
4714  4376  5377  0
5373  5024  5381  0
5379  5382  5025  0
5379  5025  5375  0
5379  5383  5382  0
5375  5025  4696  0
5022  5384  5380  0
5024  4382  5385  0
5024  5385  5381  0
5028  5030  5386  0
5382  5383  5387  0
5382  5387  5388  0
5025  5382  5026  0
5027  5384  5022  0
4382  5032  5385  0
5389  5029  5028  0
5030  5029  5390  0
5391  5388  5387  0
5382  5388  5026  0
4714  5392  5031  0
5032  5393  5385  0
5394  5385  5393  0
5029  5389  5033  0
5029  5036  5390  0
5395  5390  5036  0
5037  5388  5391  0
5388  5037  5026  0
4724  5026  5037  0
5027  5035  5396  0
5040  5032  4086  0
5032  5040  5393  0
5043  5393  5040  0
5389  5397  5033  0
5046  5033  5397  0
5036  5398  5395  0
5399  5395  5398  0
5400  5035  5039  0
5034  5047  5036  0
5401  5036  5047  0
5036  5401  5398  0
5402  5398  5401  0
5398  5402  5399  0
5403  5399  5402  0
5404  5049  5048  0
5400  5039  5049  0
5405  5049  5404  0
5406  5043  5051  0
5052  5046  5407  0
5052  5408  5047  0
5409  5047  5408  0
5047  5409  5401  0
5064  5401  5409  0
5401  5064  5402  0
5063  5402  5064  0
5402  5063  5403  0
5410  5403  5063  0
5063  5066  5411  0
5054  5411  5066  0
5063  5411  5410  0
5412  5410  5411  0
5411  5054  5053  0
5411  5053  5412  0
5067  5048  4739  0
5055  4745  5069  0
5413  5069  4745  0
4745  5056  5413  0
5414  5058  5057  0
5408  5052  5407  0
4412  5409  5408  0
5409  4412  5064  0
5067  5068  5415  0
5068  5069  5415  0
5416  5415  5069  0
5069  5413  5416  0
5417  5416  5413  0
5413  5056  5417  0
5418  5417  5056  0
5056  5070  5418  0
5071  5418  5070  0
5051  5060  5406  0
5060  5059  5419  0
5072  5419  5059  0
5060  5419  5406  0
5420  5406  5419  0
5421  5407  5422  0
5422  5407  5423  0
5407  5421  5424  0
5407  5424  5408  0
5408  5424  5078  0
5408  5078  4412  0
5419  5072  5077  0
5421  5425  5424  0
5075  5426  5079  0
5425  5427  5082  0
5425  5082  5424  0
5424  5082  5078  0
5428  5074  5083  0
5079  5086  4767  0
5079  5426  5086  0
5081  5080  5429  0
5430  5427  5425  0
5430  5425  5431  0
5430  5431  5084  0
5083  5432  5428  0
5083  4771  5085  0
5083  5085  5432  0
5086  5433  4425  0
5080  5084  5429  0
5084  4772  5430  0
5430  4772  4422  0
5430  4422  5427  0
5427  4422  5082  0
4773  5434  5085  0
4773  4425  5433  0
4773  5433  5434  0
5435  5089  5436  0
5435  5437  5090  0
5438  5090  5437  0
5089  5439  5436  0
5435  5090  5089  0
5440  5090  5438  0
5094  5093  5441  0
5091  5439  5089  0
5099  5090  5440  0
5442  5443  5100  0
5443  5092  5100  0
4779  5100  5092  0
5443  5444  5092  0
5092  5444  5093  0
5441  5093  5444  0
5094  5445  5095  0
5446  5091  5102  0
5107  5098  5099  0
5101  5442  5100  0
5095  5104  4786  0
5447  5446  5102  0
5099  5448  5107  0
5109  5449  4782  0
5103  4782  5449  0
5450  4787  5104  0
5451  5107  5448  0
5452  5108  5113  0
5108  5452  4788  0
5449  4788  5452  0
4788  5449  5109  0
4795  4787  5450  0
5447  5102  5110  0
5447  5110  5453  0
5107  5451  5112  0
5454  4790  5117  0
4790  5454  5113  0
4791  5114  5120  0
5122  4795  5450  0
5455  5453  5110  0
5456  5112  5451  0
5117  5118  5457  0
5458  5457  5118  0
5459  5460  5119  0
5119  5120  5459  0
5114  5115  5461  0
5462  5122  5450  0
5110  5123  5455  0
5112  5456  5463  0
5112  5463  5126  0
5118  5127  5458  0
5122  5462  5128  0
5123  5464  5455  0
5123  5116  5133  0
5126  5463  5137  0
5127  5129  5465  0
5127  5465  5466  0
5130  5119  5460  0
5130  5460  5467  0
5123  5133  5135  0
5123  5135  5468  0
5123  5468  5464  0
5469  5121  4812  0
4805  5128  5470  0
5468  5471  5464  0
5129  5138  5465  0
5130  5472  5139  0
5470  4804  4805  0
5468  5135  5473  0
5468  5473  5471  0
5135  5134  5473  0
5137  5145  5136  0
5137  5474  5145  0
5138  5143  5475  0
4806  5139  5476  0
4806  5476  4807  0
5473  5477  5471  0
5134  5141  5473  0
4808  4807  5478  0
4812  4813  5479  0
4809  4804  5480  0
5477  5473  5151  0
5473  5141  5151  0
5481  5147  5145  0
5481  5145  5482  0
4810  5148  5146  0
4808  5478  4811  0
5483  4811  5478  0
4816  4809  5480  0
5477  5151  5150  0
4818  5151  5141  0
4821  5147  5481  0
5484  5148  4815  0
5485  5484  4815  0
4815  4811  5485  0
5483  5485  4811  0
4474  4823  5149  0
5486  5149  4823  0
5149  5487  4813  0
5481  4829  4821  0
5481  5488  4829  0
5489  4829  5488  0
4823  5152  5486  0
5490  5486  5152  0
4829  5489  5153  0
5491  5490  5152  0
5152  5154  5491  0
5153  5489  4830  0
5492  4830  5489  0
5154  5155  5491  0
4196  4480  4493  0
5156  4828  4176  0
5493  5156  5157  0
5157  4830  5493  0
5492  5493  4830  0
5494  5160  5159  0
5160  5494  5495  0
5162  4834  5161  0
5496  5155  4844  0
5158  5497  5159  0
5498  5159  5497  0
5158  4842  5497  0
5159  5498  5494  0
5160  5495  5161  0
5499  5162  5161  0
5162  5500  5163  0
5501  5163  5500  0
5162  5499  5500  0
5163  5501  5164  0
5165  5164  5501  0
4844  4845  5496  0
4842  5168  5497  0
5502  5497  5168  0
5503  5165  5501  0
5504  5165  5503  0
5165  5504  5166  0
5505  5166  5504  0
5166  5505  5167  0
5167  5505  5506  0
4843  5167  5507  0
4843  5507  4849  0
4845  4492  5508  0
4854  5508  4492  0
4845  5508  5496  0
4846  4493  5509  0
4846  5509  5171  0
5168  5169  5502  0
5507  5510  5170  0
5507  5170  4849  0
5507  5167  5511  0
5507  5511  5510  0
4854  5512  5508  0
5171  5513  4855  0
5169  5172  5514  0
4850  5173  5515  0
4858  5170  5178  0
4854  4501  5176  0
4855  5513  5177  0
4857  4850  5516  0
4857  5516  4862  0
4850  5515  5516  0
5515  5173  5517  0
5178  5170  5518  0
5177  5519  4859  0
4859  5519  5179  0
5179  5520  4860  0
4862  5516  5521  0
5173  5174  5522  0
5174  5175  5523  0
5174  5523  5522  0
5175  5178  5524  0
5175  5524  5523  0
4507  4863  5525  0
4507  5525  5176  0
4860  5520  5526  0
4860  5526  5183  0
4860  5183  4508  0
5172  4861  5527  0
4862  5521  5180  0
4861  5184  5527  0
5528  5527  5184  0
5186  5529  5181  0
5181  5530  4863  0
5525  4863  5530  0
4865  5182  5187  0
5531  5182  5183  0
5532  5528  5184  0
5193  4866  4512  0
4867  5188  5189  0
5189  5533  5185  0
5534  5185  5533  0
5185  5534  5186  0
5535  5186  5534  0
5186  5535  5529  0
5187  5182  5531  0
5536  5187  5531  0
4869  5190  4870  0
5537  4870  5190  0
4870  5537  5184  0
5194  4871  5192  0
5533  5189  5188  0
5538  5188  5195  0
5187  5536  5196  0
5195  5198  5538  0
5196  5536  5199  0
5539  5199  5536  0
5540  4878  5201  0
5191  5541  5190  0
5542  5190  5541  0
4880  5194  5543  0
5544  4876  5203  0
5203  5204  5545  0
5199  5539  5200  0
5546  5200  5539  0
5200  5546  5206  0
5547  5206  5546  0
5209  5218  5210  0
5540  5201  5210  0
5212  5213  5548  0
5213  5202  4903  0
5213  4903  5548  0
5549  5548  4903  0
4880  5543  5214  0
5550  5214  5543  0
5203  5545  5544  0
5206  5547  5207  0
5216  5551  5217  0
5216  5552  5551  0
5217  5551  5218  0
5218  5551  5540  0
5218  5540  5210  0
5211  5553  5219  0
5211  5212  5553  0
4903  5554  5549  0
5222  4897  5555  0
4897  4898  5555  0
4898  4545  5556  0
4888  5207  5557  0
4888  5557  4891  0
5225  5558  5215  0
5215  5558  5552  0
5215  5552  5216  0
4903  4904  5559  0
5560  5205  4906  0
5560  5561  5204  0
5560  5204  5205  0
4907  5227  5562  0
4907  5562  5234  0
4907  5234  4553  0
5222  5555  5227  0
4891  5557  5563  0
4891  5563  4245  0
5226  5564  5225  0
5226  5229  5565  0
5226  5565  5564  0
4896  5219  5231  0
4905  5220  5233  0
5556  4545  4910  0
5556  4910  5239  0
4245  5563  5566  0
4245  5566  3947  0
5229  5567  5568  0
5229  5568  5565  0
5229  5228  5569  0
5229  5569  5567  0
5228  5235  5569  0
5235  5232  5570  0
5235  5570  5571  0
5235  5571  5572  0
5235  5572  5569  0
5232  5231  5570  0
4904  4555  5559  0
5236  4551  5573  0
4906  5238  5574  0
4906  5574  5560  0
4908  5234  5575  0
5239  5576  5556  0
5239  5244  5576  0
3947  5566  5240  0
5567  5569  5577  0
5569  5572  5577  0
5559  4555  5246  0
5573  5237  5236  0
4913  4908  5575  0
5578  4913  5575  0
5579  5242  5249  0
5580  5242  5579  0
5242  5580  5244  0
5576  5244  5580  0
4564  5581  4918  0
4564  4565  5581  0
5241  5237  5582  0
4913  5578  4926  0
5583  4926  5578  0
5579  5249  5584  0
5585  5584  5249  0
4923  5245  5253  0
5253  5245  5586  0
5587  5253  5586  0
5588  4565  5250  0
5581  4565  5588  0
3964  5241  4925  0
4568  5589  4919  0
5249  5248  5590  0
5251  5590  5248  0
5249  5590  5585  0
5591  5592  5253  0
4933  5253  5592  0
5591  5253  5587  0
5591  5587  5592  0
5593  5592  5587  0
5254  5594  5250  0
5595  5250  5594  0
5589  4568  5596  0
5597  5590  5251  0
5598  5592  5593  0
5592  5263  4933  0
4935  5258  4931  0
5599  4931  5258  0
4931  5599  4924  0
4924  5599  5254  0
5594  5254  5599  0
5259  5596  4568  0
5251  5256  5597  0
5600  5597  5256  0
5256  5257  5600  0
5601  5600  5257  0
5592  5270  5263  0
5592  5598  5270  0
4934  5264  5258  0
5602  5258  5264  0
5258  5602  5599  0
4939  5265  5274  0
5603  5274  5265  0
5265  4940  5604  0
5265  5604  5603  0
4940  4941  5604  0
5605  5604  4941  0
4941  4578  5605  0
5606  5605  4578  0
4578  4942  5606  0
5257  5261  5269  0
5257  5269  5607  0
5257  5607  5601  0
5270  5598  5608  0
5270  5608  5271  0
5273  5274  5609  0
5273  5609  5610  0
5274  5603  5609  0
4949  4925  5611  0
5276  5266  4266  0
5271  5608  5612  0
5271  5612  5279  0
5279  5612  5280  0
4945  5273  5272  0
4947  5613  5275  0
5614  4583  5260  0
5278  5277  5615  0
4947  5281  5616  0
4947  5616  5613  0
4592  4949  5276  0
5283  5282  5617  0
5618  4950  5285  0
4950  5618  5282  0
5283  5617  5284  0
5281  4960  5619  0
5281  5619  5616  0
4583  5614  5620  0
5285  5621  5618  0
5284  5617  5622  0
5284  5622  4956  0
4960  5292  5619  0
5619  5623  5616  0
4583  5620  5285  0
4956  5622  5286  0
5292  5624  5619  0
5619  5624  5623  0
5287  5295  5288  0
5625  5288  5295  0
5288  5625  5296  0
5626  5296  5625  0
5296  5626  5297  0
5627  5297  5626  0
5298  5628  5299  0
5298  5297  5628  0
5629  5628  5297  0
5299  5628  5292  0
5292  5628  5624  0
4967  5630  4963  0
5300  4963  5630  0
5631  5293  5300  0
5632  5293  5631  0
5293  5633  5301  0
5634  5294  5301  0
5294  5634  4968  0
5295  5303  5625  0
5305  5625  5303  0
5625  5635  5626  0
5627  5626  5635  0
5625  5305  5635  0
5636  5628  5629  0
5628  5636  5624  0
4968  5634  4970  0
5637  4970  5634  0
5305  5308  5635  0
5638  5635  5308  0
5308  5639  5638  0
5640  5638  5639  0
5308  5309  5639  0
5641  5639  5309  0
5639  5641  5640  0
4970  5311  4973  0
4970  5637  5311  0
5311  5642  4974  0
4978  4974  5642  0
5311  5643  5642  0
5312  4978  5642  0
5644  5309  5310  0
5309  5644  5641  0
5645  5641  5644  0
5310  5321  5644  0
4629  4977  5646  0
4977  5647  5646  0
5314  5648  5649  0
5650  5314  5649  0
5648  5314  4984  0
5648  4984  5316  0
5648  5316  5651  0
5316  5652  5651  0
5652  5316  5317  0
5652  5317  5319  0
5319  5653  5652  0
5319  5318  5320  0
5319  5320  5654  0
5319  5654  5653  0
5320  5655  5654  0
5655  5320  4979  0
5655  4979  5312  0
5655  5312  5656  0
5321  5657  5644  0
5644  5657  5645  0
4977  5658  5647  0
5314  5650  4983  0
5321  5313  5322  0
5321  5322  5657  0
4977  5650  5658  0
4977  4983  5650  0
5657  5322  5659  0
5327  5323  5660  0
4990  5329  5322  0
5322  5329  5661  0
5322  5661  5659  0
5662  5663  5664  0
5662  5664  5335  0
5327  5665  5326  0
5666  5335  5333  0
5666  5667  5335  0
5664  5663  5336  0
5664  5336  5335  0
5663  5337  4998  0
5663  4998  5336  0
5663  5668  5337  0
5331  5328  5324  0
5332  5669  5666  0
5332  5666  5333  0
5337  5670  5338  0
5671  5330  5339  0
5331  5343  5328  0
5340  5672  5673  0
5340  5673  5669  0
5340  5669  5332  0
5338  5670  5344  0
5674  5344  5670  0
5675  5339  5342  0
5339  5675  5671  0
5676  5000  5343  0
5000  5676  5340  0
5672  5340  5676  0
5677  5678  5679  0
5002  5344  5346  0
5680  5346  5344  0
5344  5674  5680  0
5681  5680  5674  0
5682  5683  5684  0
5683  5682  5677  0
5685  5677  5682  0
5677  5685  5678  0
5346  5680  5345  0
5686  5345  5680  0
5680  5681  5686  0
5342  5341  5347  0
5687  5685  5682  0
5685  5687  5678  0
5003  5345  5348  0
5686  5348  5345  0
5686  5681  5688  0
5006  5349  5004  0
5689  5005  5004  0
5690  5684  5353  0
5684  5690  5682  0
5691  5682  5690  0
5682  5691  5687  0
5348  5686  5350  0
5692  5350  5686  0
5686  5688  5692  0
5693  5692  5688  0
5694  5693  5688  0
4673  5351  5349  0
5349  5695  5004  0
5689  5004  5695  0
5696  5697  5008  0
5008  5009  5696  0
5010  5696  5009  0
5367  5353  5355  0
5353  5367  5690  0
5350  5692  5357  0
5693  5357  5692  0
5014  5352  5364  0
5352  5008  5364  0
5697  5364  5008  0
5697  5696  5698  0
5699  5698  5696  0
5696  5010  5699  0
5365  5699  5010  0
5367  5369  5690  0
5690  5369  5691  0
5700  5687  5691  0
5691  5369  5701  0
5693  5694  5357  0
5702  5357  5694  0
5358  5361  5703  0
5361  5362  5703  0
5364  5704  5363  0
5365  5023  5705  0
5705  5023  5706  0
5372  5374  5707  0
5354  5708  5355  0
5369  5709  5701  0
5371  5360  5710  0
5360  5357  5702  0
5360  5702  5711  0
5360  5711  5710  0
5703  5362  5712  0
5362  5363  5713  0
5362  5713  5712  0
5363  5704  5713  0
5023  5380  5706  0
5714  5021  5017  0
5373  5715  5374  0
5708  5378  5355  0
5368  5366  5716  0
5368  5717  5709  0
5368  5709  5369  0
5368  5716  5717  0
5371  5710  5376  0
5708  5718  5028  0
5708  5028  5378  0
5366  5028  5386  0
5716  5366  5719  0
5376  5720  5379  0
5373  5381  5721  0
5373  5721  5715  0
5366  5386  5719  0
5722  5719  5386  0
5379  5720  5723  0
5379  5723  5383  0
5392  4714  5377  0
5377  5724  5392  0
5394  5721  5381  0
5028  5718  5725  0
5726  5386  5030  0
5386  5726  5722  0
5723  5387  5383  0
5394  5381  5385  0
5028  5725  5389  0
5030  5390  5726  0
5727  5726  5390  0
5027  5396  5384  0
5728  5721  5394  0
5729  5390  5395  0
5390  5729  5727  0
5730  5727  5729  0
5391  5731  5037  0
5038  5037  5731  0
5732  5731  5391  0
5031  5392  4740  0
5733  4740  5392  0
5734  5394  5393  0
5394  5734  5728  0
5735  5397  5389  0
5736  5046  5397  0
5395  5399  5729  0
5403  5729  5399  0
5729  5403  5730  0
5737  5730  5403  0
5731  5738  5038  0
5731  5732  5738  0
5739  5738  5732  0
4740  5733  5740  0
5741  5740  5733  0
5742  5393  5043  0
5393  5742  5734  0
5403  5410  5737  0
5743  5737  5410  0
5410  5412  5744  0
5053  5744  5412  0
5410  5744  5743  0
5739  5743  5744  0
5744  5053  5738  0
5038  5738  5053  0
5744  5738  5739  0
5049  5745  5400  0
5049  5405  5745  0
5746  5745  5405  0
4740  5740  5057  0
5043  5406  5742  0
5747  5734  5742  0
5748  5734  5747  0
5046  5736  5407  0
5048  5067  5404  0
5415  5404  5067  0
5404  5415  5405  0
5405  5415  5749  0
5405  5749  5746  0
5057  5740  5414  0
5740  5741  5414  0
5742  5406  5747  0
5415  5416  5750  0
5415  5750  5749  0
5416  5417  5751  0
5416  5751  5750  0
5417  5752  5751  0
5417  5418  5753  0
5417  5753  5752  0
5418  5754  5753  0
5414  5741  5755  0
5406  5420  5747  0
5418  5071  5074  0
5418  5074  5756  0
5418  5756  5754  0
5058  5414  5075  0
5414  5755  5757  0
5414  5757  5075  0
5420  5419  5077  0
5758  5423  5759  0
5758  5759  5431  0
5423  5758  5421  0
5423  5421  5422  0
5074  5428  5756  0
5075  5757  5760  0
5075  5760  5426  0
5077  5081  5429  0
5077  5429  5761  0
5077  5761  5420  0
5761  5431  5420  0
5758  5431  5425  0
5758  5425  5421  0
5428  5762  5756  0
5426  5433  5086  0
5426  5760  5763  0
5426  5763  5433  0
5761  5429  5084  0
5761  5084  5431  0
5428  5432  5764  0
5428  5764  5762  0
5432  5085  5764  0
5434  5433  5763  0
5436  5765  5435  0
5435  5765  5766  0
5435  5766  5437  0
5437  5766  5767  0
5437  5767  5438  0
5768  5436  5439  0
5438  5769  5440  0
5441  5444  5770  0
5771  5770  5444  0
5441  5772  5094  0
5768  5439  5773  0
5440  5769  5774  0
5440  5774  5099  0
5775  5443  5442  0
5775  5771  5443  0
5776  5775  5442  0
5443  5771  5444  0
5445  5777  5095  0
5104  5095  5777  0
5439  5091  5446  0
5439  5446  5773  0
5778  5773  5446  0
5099  5774  5448  0
5779  5448  5774  0
5103  5449  5780  0
5781  5780  5449  0
5780  5101  5103  0
5780  5782  5101  0
5101  5782  5442  0
5776  5442  5782  0
5777  5783  5104  0
5446  5447  5778  0
5784  5778  5447  0
5452  5781  5449  0
5450  5104  5785  0
5104  5783  5785  0
5447  5453  5784  0
5786  5784  5453  0
5451  5448  5779  0
5787  5113  5454  0
5113  5787  5452  0
5785  5788  5450  0
5779  5789  5451  0
5451  5789  5456  0
5790  5456  5789  0
5117  5791  5454  0
5117  5457  5791  0
5120  5114  5792  0
5461  5792  5114  0
5793  5456  5790  0
5794  5457  5458  0
5792  5459  5120  0
5121  5461  5115  0
5788  5462  5450  0
5453  5455  5795  0
5456  5796  5463  0
5456  5793  5796  0
5458  5127  5466  0
5458  5466  5794  0
5794  5466  5797  0
5121  5798  5461  0
5462  5799  5128  0
5455  5464  5800  0
5455  5800  5795  0
5466  5465  5801  0
5466  5801  5797  0
5798  5121  5469  0
5796  5802  5137  0
5796  5137  5463  0
5465  5803  5801  0
5467  5804  5472  0
5467  5472  5130  0
5464  5471  5805  0
5464  5805  5800  0
5802  5474  5137  0
5139  5472  5806  0
5469  4812  5479  0
5807  5470  5128  0
5474  5802  5808  0
5138  5809  5803  0
5138  5803  5465  0
5138  5475  5809  0
5139  5806  5476  0
5470  5480  4804  0
5805  5471  5477  0
5805  5477  5810  0
5474  5482  5145  0
5474  5808  5482  0
5475  5143  5811  0
4807  5476  5478  0
5812  5479  4813  0
5810  5477  5150  0
5143  5146  5813  0
5143  5813  5811  0
5812  4813  5487  0
5814  5812  5487  0
5480  5815  4816  0
5816  5810  5150  0
5481  5482  5488  0
5817  5488  5482  0
5818  5813  5146  0
5146  5148  5818  0
5484  5818  5148  0
5149  5486  5487  0
5814  5487  5486  0
4816  5816  5150  0
5819  5488  5817  0
5820  5484  5485  0
5821  5820  5485  0
5485  5483  5821  0
5822  5821  5483  0
5488  5819  5489  0
5492  5489  5819  0
5823  5490  5491  0
5155  5823  5491  0
4480  4475  5824  0
5825  5824  4475  0
4475  4827  5825  0
4827  4828  5825  0
4480  5824  4493  0
5826  5825  4828  0
4828  5156  5826  0
5827  5826  5156  0
5156  5493  5827  0
5828  5827  5493  0
5493  5492  5828  0
5829  5828  5492  0
5155  5496  5830  0
5831  5494  5498  0
5832  5495  5494  0
5495  5832  5161  0
5833  5161  5832  0
5161  5833  5499  0
5497  5834  5498  0
5831  5498  5834  0
5497  5502  5834  0
5835  5834  5502  0
5499  5833  5500  0
5836  5500  5833  0
5500  5836  5501  0
5501  5837  5503  0
5838  5503  5837  0
5501  5836  5837  0
5839  5837  5836  0
5503  5838  5504  0
5496  5508  5840  0
5502  5841  5835  0
5502  5169  5841  0
5837  5839  5838  0
5506  5511  5167  0
5508  5512  5842  0
5171  5843  5513  0
5171  5509  5843  0
5169  5514  5844  0
5169  5844  5841  0
5506  5845  5846  0
5506  5846  5511  0
4854  5176  5847  0
4854  5847  5512  0
5513  5843  5848  0
5510  5511  5849  0
5510  5849  5170  0
5170  5849  5518  0
5518  5850  5178  0
5513  5848  5851  0
5513  5851  5177  0
5177  5851  5519  0
5519  5520  5179  0
5852  5853  5854  0
5852  5854  5855  0
5172  5527  5514  0
5516  5515  5517  0
5517  5173  5856  0
5173  5522  5856  0
5524  5178  5850  0
5524  5857  5523  0
5520  5519  5858  0
5853  5859  5860  0
5859  5861  5860  0
5862  5858  5863  0
5858  5862  5520  0
5526  5520  5862  0
5527  5528  5864  0
5181  5529  5530  0
5863  5865  5862  0
5866  5865  5863  0
5531  5526  5862  0
5526  5531  5183  0
5180  5867  4512  0
5193  4512  5867  0
5868  5529  5535  0
5869  5862  5865  0
5870  5865  5866  0
5862  5869  5531  0
5536  5531  5869  0
5184  5537  5532  0
5188  5538  5533  0
5871  5533  5538  0
5533  5871  5534  0
5535  5534  5871  0
5865  5870  5869  0
5872  5869  5870  0
5869  5873  5536  0
5869  5872  5873  0
5874  5873  5872  0
5190  5542  5537  0
5875  5537  5542  0
5193  5876  5192  0
5194  5192  5876  0
5538  5198  5877  0
5878  5877  5198  0
5873  5874  5536  0
5879  5536  5874  0
5536  5879  5539  0
5880  5539  5879  0
4878  5540  5191  0
5541  5191  5540  0
5198  4876  5878  0
5544  5878  4876  0
5539  5880  5546  0
5881  5546  5880  0
5546  5881  5547  0
5882  5547  5881  0
5883  5541  5540  0
5212  5548  5553  0
5549  5553  5548  0
5543  5884  5550  0
5544  5545  5885  0
5886  5544  5885  0
5545  5204  5885  0
5547  5887  5888  0
5547  5888  5207  0
5547  5882  5887  0
5889  5887  5882  0
5551  5890  5540  0
5551  5891  5890  0
5883  5540  5890  0
5553  5549  5892  0
4903  5559  5554  0
5550  5893  5214  0
5894  5893  5550  0
5555  4898  5895  0
5887  5896  5897  0
5887  5897  5888  0
5887  5889  5896  0
5888  5897  5557  0
5888  5557  5207  0
5558  5898  5899  0
5558  5899  5552  0
5558  5225  5900  0
5558  5900  5898  0
5552  5899  5891  0
5552  5891  5551  0
5219  5553  5901  0
5214  5893  5221  0
5562  5902  5234  0
5227  5903  5562  0
5227  5555  5903  0
5555  5895  5903  0
5895  4898  5556  0
5895  5556  5904  0
5897  5563  5557  0
5564  5905  5225  0
5225  5905  5900  0
5231  5219  5906  0
5219  5901  5906  0
5220  5221  5233  0
5560  5574  5561  0
5902  5907  5234  0
5904  5556  5576  0
5563  5240  5566  0
5563  5897  5908  0
5563  5908  5240  0
5565  5909  5564  0
5565  5568  5910  0
5565  5910  5909  0
5570  5911  5571  0
5570  5231  5912  0
5570  5912  5911  0
5231  5906  5912  0
5573  4551  5913  0
4551  5233  5913  0
5575  5234  5907  0
5576  5580  5904  0
5568  5914  5910  0
5568  5567  5915  0
5568  5915  5914  0
5567  5577  5915  0
5916  5915  5577  0
5577  5572  5917  0
5577  5917  5916  0
5572  5571  5917  0
5911  5917  5571  0
5238  5918  5574  0
5580  5579  5584  0
5245  5240  5586  0
5240  5908  5586  0
5919  5586  5908  0
5914  5915  5920  0
5916  5920  5915  0
5921  4918  5581  0
4918  5921  5246  0
5582  5237  5922  0
4919  5589  5238  0
5918  5238  5589  0
5923  5584  5585  0
5924  5584  5923  0
5925  5587  5586  0
5919  5925  5586  0
5926  5587  5925  0
5250  5595  5588  0
5241  5582  4925  0
4926  5583  5255  0
5593  5926  5927  0
5926  5593  5587  0
5594  5928  5595  0
5929  4925  5582  0
5596  5930  5589  0
5931  5930  5596  0
5585  5590  5932  0
5597  5932  5590  0
5927  5933  5593  0
5598  5593  5933  0
5927  5934  5933  0
5935  5936  5599  0
5599  5936  5594  0
5928  5594  5936  0
4925  5929  5611  0
5931  5596  5259  0
5255  5937  5260  0
5932  5597  5938  0
5597  5600  5939  0
5597  5939  5938  0
5935  5599  5602  0
5940  5603  5604  0
5606  5941  5605  0
5606  4942  5941  0
5942  5260  5937  0
5600  5601  5939  0
5598  5933  5943  0
5598  5943  5608  0
5603  5940  5609  0
4942  5275  5941  0
5266  5276  5929  0
5942  5614  5260  0
5607  5269  5278  0
5272  5944  5264  0
5272  5273  5945  0
5272  5945  5944  0
5273  5610  5945  0
5611  5276  4949  0
5278  5615  5946  0
5278  5946  5607  0
5612  5947  5280  0
5942  5948  5614  0
5615  5277  5949  0
5277  5280  5949  0
5282  5618  5950  0
5282  5950  5617  0
5616  5623  5613  0
5614  5948  5620  0
5618  5621  5951  0
5617  5950  5622  0
5285  5620  5621  0
5952  5950  5953  0
5950  5954  5953  0
5950  5952  5622  0
5286  5622  5952  0
5955  5623  5624  0
5953  5956  5952  0
5957  5952  5956  0
5952  5957  5286  0
4967  5286  5957  0
5629  5297  5627  0
5958  5624  5636  0
5624  5958  5955  0
5957  5956  5959  0
5957  5960  4967  0
4967  5960  5630  0
5293  5632  5633  0
5961  5301  5633  0
5301  5961  5634  0
5962  5634  5961  0
5963  5634  5962  0
5638  5627  5635  0
5627  5964  5629  0
5627  5638  5964  0
5965  5629  5964  0
5629  5965  5636  0
5966  5636  5965  0
5967  5636  5966  0
5636  5967  5958  0
5968  5957  5959  0
5957  5968  5960  0
5969  5300  5630  0
5300  5969  5631  0
5970  5632  5631  0
5634  5963  5637  0
5637  5963  5311  0
5643  5311  5963  0
5971  5640  5641  0
5972  5642  5643  0
5642  5972  5312  0
5973  5312  5972  0
5641  5645  5971  0
5974  5971  5645  0
5312  5973  5656  0
5646  5325  4987  0
4987  4629  5646  0
5651  5975  5649  0
5650  5649  5975  0
5649  5648  5651  0
5651  5652  5976  0
5653  5654  5977  0
5978  5977  5654  0
5654  5655  5978  0
5655  5656  5978  0
5973  5978  5656  0
5974  5645  5657  0
5323  5325  5979  0
5646  5979  5325  0
5657  5659  5974  0
5323  5979  5980  0
5981  5982  5983  0
5984  5983  5982  0
5983  5984  5985  0
5659  5986  5974  0
5981  5983  5987  0
5983  5985  5987  0
5659  5661  5986  0
5660  5665  5327  0
5660  5988  5665  0
5667  5989  5990  0
5667  5990  5991  0
5667  5666  5992  0
5667  5992  5989  0
5991  5662  5335  0
5991  5335  5667  0
5663  5993  5668  0
5663  5662  5993  0
5993  5994  5668  0
5987  5995  5981  0
5992  5666  5669  0
5992  5669  5996  0
5668  5670  5337  0
5668  5994  5997  0
5668  5997  5670  0
5329  5330  5998  0
5329  5998  5661  0
5661  5998  5999  0
6000  5996  5669  0
6001  5997  6002  0
6001  6002  6003  0
5997  6001  6004  0
5997  6004  5670  0
5330  5671  5998  0
5665  6005  5326  0
5326  6005  5331  0
5331  6006  5343  0
5673  5672  6007  0
5673  6007  6000  0
5673  6000  5669  0
6001  6003  6004  0
6004  5674  5670  0
5676  6008  5672  0
5679  5678  6003  0
6009  6003  5678  0
6003  6009  6004  0
6010  6004  6009  0
6004  6010  5674  0
5681  5674  6010  0
6011  5671  5675  0
5671  6011  5998  0
5684  5683  6012  0
5684  6012  6013  0
6009  6014  6010  0
6015  6014  6009  0
6016  5681  6010  0
5675  6017  6011  0
5678  5687  6009  0
6015  6009  5687  0
5681  6016  5688  0
6018  5005  5689  0
5005  6018  5347  0
6019  5342  5347  0
5342  6019  5675  0
6017  5675  6019  0
6013  5353  5684  0
6020  5354  5353  0
5687  5700  6015  0
6021  6015  5700  0
5688  6016  5694  0
6022  5694  6016  0
5689  6023  6018  0
6019  5347  6018  0
5349  5351  5695  0
6024  5695  5351  0
5695  6025  5689  0
6026  5689  6025  0
5695  6024  6025  0
5689  6026  6023  0
6027  5364  5697  0
5697  5698  6027  0
5699  6027  5698  0
5699  5365  6028  0
6029  6028  5365  0
5365  5705  6029  0
5691  5701  5700  0
6030  5700  5701  0
5700  6030  6021  0
6022  5702  5694  0
5351  6031  6024  0
6025  6024  6031  0
5351  5358  6031  0
6032  6031  5358  0
6033  5704  5364  0
5364  6027  6033  0
6027  5699  6034  0
6035  6034  5699  0
5699  6028  6035  0
5017  5372  6036  0
5017  6036  5714  0
5707  6036  5372  0
5711  5702  6037  0
5358  5703  6038  0
5358  6038  6032  0
5703  5712  6039  0
5703  6039  6038  0
5712  5713  6040  0
6041  5713  5704  0
5374  5715  6042  0
5708  5354  6043  0
5709  6044  5701  0
5709  5717  6045  0
5701  6044  6030  0
5711  6037  6046  0
5711  6046  5710  0
6037  6047  6046  0
5712  6040  6039  0
6040  5713  6041  0
5714  6048  5021  0
5708  6043  5718  0
5716  5719  6049  0
5716  6049  5717  0
5717  6049  6050  0
5717  6050  6045  0
5376  5710  6051  0
5376  6051  5720  0
5710  6046  6052  0
5710  6052  6051  0
6046  6047  6053  0
6046  6053  6052  0
5377  5021  6054  0
5021  6048  6055  0
5021  6055  6054  0
5715  5721  6056  0
5715  6056  6042  0
5719  5722  6049  0
6051  6052  6053  0
6051  6053  6057  0
6051  6057  5720  0
6058  5380  5384  0
6058  5384  6059  0
5377  6054  5724  0
5721  6060  6061  0
5721  6061  6056  0
5718  6062  6063  0
5718  6063  5725  0
5722  5726  6064  0
5722  6064  6065  0
5722  6065  6049  0
5387  5723  6066  0
5723  5720  6057  0
5723  6057  6067  0
5723  6067  6066  0
6068  6059  5396  0
6059  5384  5396  0
5725  6069  5735  0
5725  5735  5389  0
5725  6063  6070  0
5725  6070  6069  0
6069  6070  6071  0
6069  6071  5735  0
5726  5727  6064  0
6072  6064  5727  0
6064  6072  6065  0
6073  6065  6072  0
5387  6066  5391  0
6066  6067  6074  0
6066  6074  5391  0
5035  6075  6068  0
6068  5396  5035  0
5392  5724  5733  0
5721  5728  6060  0
5735  6071  6076  0
5735  6076  6077  0
5727  6073  6072  0
5727  5730  6073  0
6078  6073  5730  0
5391  6074  5732  0
6079  5732  6074  0
6075  5035  5400  0
6075  5400  6080  0
6081  6080  5400  0
5728  6082  6060  0
6083  6060  6082  0
5397  5735  5736  0
6077  5736  5735  0
5730  5737  6078  0
5732  6079  5739  0
6084  5739  6079  0
5400  5745  6081  0
5746  6081  5745  0
6085  5741  5733  0
5728  5734  6082  0
6086  6083  6082  0
5736  6077  6087  0
5737  5743  6078  0
6088  6078  5743  0
5743  5739  6088  0
6089  6090  6091  0
6090  6089  6092  0
6085  6093  5741  0
5734  5748  6082  0
6082  5748  6086  0
6087  5407  5736  0
5746  5749  6094  0
5750  6094  5749  0
5753  6091  5752  0
6091  5753  6089  0
6095  6089  5753  0
5755  5741  6093  0
6096  5755  6093  0
6097  5748  5747  0
5748  6097  6086  0
6098  5407  6087  0
5752  5750  5751  0
5753  5754  6095  0
5747  5420  6099  0
5747  6099  6097  0
6097  6099  6100  0
5407  6101  5423  0
6102  5423  6101  0
6095  5754  6103  0
5755  6096  6104  0
6099  5420  5431  0
6099  5431  5759  0
6099  5759  6105  0
6099  6105  6100  0
5759  5423  6102  0
5759  6102  6105  0
5756  6103  5754  0
5757  6106  5760  0
5760  6106  6107  0
5760  6107  5763  0
5762  5764  6108  0
5762  6108  5756  0
5764  5085  5434  0
5764  5434  6107  0
5764  6107  6108  0
5434  5763  6107  0
6109  6110  5766  0
6109  5766  5765  0
6109  5765  6111  0
6110  6109  6112  0
6111  5765  5436  0
6111  5436  6113  0
5766  6110  5767  0
6110  6112  6114  0
6110  6114  5767  0
5436  5768  6113  0
5767  6114  6115  0
5767  6115  5438  0
5768  5773  6116  0
5768  6116  6113  0
5769  5438  6115  0
5769  6115  6117  0
5769  6117  6118  0
6119  5771  5775  0
6119  5770  5771  0
6119  6120  6121  0
6119  6121  5770  0
5770  6121  5772  0
5770  5772  5441  0
5772  5445  5094  0
5772  6122  5445  0
6118  5774  5769  0
6123  6124  6125  0
6123  5782  5780  0
6123  5776  5782  0
6123  6125  6126  0
6123  6126  5776  0
5776  6126  6119  0
5776  6119  5775  0
5445  5783  5777  0
5445  6127  5783  0
6128  5781  5452  0
6128  6124  5781  0
6128  6129  6124  0
5781  6124  6123  0
6123  5780  5781  0
5779  5774  6130  0
6131  5787  5454  0
6131  6129  5787  0
5787  6129  6128  0
6128  5452  5787  0
6132  5785  5783  0
5789  5779  6130  0
6131  5454  5791  0
6131  5791  6133  0
5453  6134  5786  0
6130  5790  5789  0
6135  5790  6130  0
5791  5457  6133  0
6136  6133  5457  0
5785  6137  5788  0
5795  6134  5453  0
5457  5794  6136  0
5797  6136  5794  0
6138  5792  5461  0
5788  6137  5462  0
5790  6139  5793  0
5460  5459  5467  0
6140  5467  5459  0
5459  5792  6140  0
6138  6140  5792  0
5798  6138  5461  0
6141  5793  6139  0
6142  6143  6144  0
6143  6142  6145  0
5467  6140  5804  0
6138  5798  6146  0
6147  6146  5798  0
6148  5799  5462  0
5793  6141  6149  0
5793  6149  5796  0
6144  6143  6150  0
6151  6143  6145  0
5801  5803  6152  0
6153  5472  5804  0
5798  5469  6154  0
5798  6154  6147  0
6148  5128  5799  0
5795  5800  6155  0
5800  5816  6155  0
6149  5802  5796  0
6143  6156  6157  0
6143  6157  6150  0
6143  6151  6158  0
6143  6158  6156  0
5472  6153  5806  0
6154  5469  5479  0
6148  5807  5128  0
6148  6159  5807  0
5816  5800  5805  0
6149  6160  5808  0
6149  5808  5802  0
6149  6161  6160  0
6156  6158  6162  0
5803  5809  6152  0
5479  5812  6163  0
5479  6163  6154  0
5816  5805  5810  0
5475  6164  5809  0
5475  5811  6164  0
5476  6165  5478  0
6163  5812  5814  0
5470  5807  5480  0
6160  6161  6166  0
5808  6160  5482  0
5811  5813  6167  0
5478  6165  6168  0
5478  6168  5483  0
5814  5486  6169  0
5807  5815  5480  0
4816  5815  5816  0
6160  5817  5482  0
5813  6170  6167  0
5483  6168  6171  0
5483  6171  5822  0
5486  5490  6169  0
5817  6160  6172  0
5817  6172  5819  0
5813  5818  6170  0
6173  6170  5818  0
5818  5484  6173  0
5820  6173  5484  0
6174  5821  5822  0
5822  6171  6174  0
5823  6175  5490  0
5819  6172  6176  0
5819  6176  5492  0
6177  6173  5820  0
5820  5821  6177  0
6178  6177  5821  0
6174  6178  5821  0
5492  6176  5829  0
5155  5830  5823  0
6179  4493  5824  0
5826  6180  5825  0
6181  5826  5827  0
6182  5827  5828  0
5828  5829  6183  0
6183  6182  5828  0
5832  5494  5831  0
5832  6184  5833  0
4493  6179  5509  0
6185  5831  5834  0
5831  6185  5832  0
6186  5832  6185  0
5832  6186  6184  0
6187  5833  6184  0
5833  6187  5836  0
6188  5836  6187  0
5836  6188  5839  0
6189  5839  6188  0
5839  6189  5838  0
5505  5845  5506  0
5508  5842  5840  0
6190  5840  5842  0
6191  5843  5509  0
5841  5844  6192  0
6193  6192  5844  0
5845  5505  5504  0
5845  6194  5846  0
6195  5846  6194  0
5844  5514  6193  0
5846  6195  6196  0
5846  6196  5511  0
5511  6196  5849  0
5518  6197  5850  0
5518  5849  6197  0
5512  5847  5842  0
5843  6191  5848  0
5848  6198  5851  0
5851  6198  5519  0
5855  5854  6199  0
5855  6199  6200  0
5514  5527  6201  0
5514  6201  6202  0
5514  6202  6193  0
5850  6197  6203  0
5850  6203  5524  0
5176  5525  6204  0
5176  6204  6205  0
5176  6205  5847  0
6198  6206  5858  0
6198  5858  5519  0
5854  5853  6207  0
5854  6208  6199  0
5854  6207  6208  0
5861  5859  6209  0
5861  6209  6210  0
5859  6211  6209  0
6211  6212  6209  0
5527  5864  6201  0
5521  5516  6213  0
5516  6214  6213  0
5516  5517  6214  0
5856  5522  6215  0
5856  6215  5517  0
5522  5523  6215  0
5523  5857  6215  0
5857  5524  6203  0
6206  5863  5858  0
6206  6216  5863  0
6207  5853  6217  0
6207  6217  6218  0
6207  6218  6208  0
5853  5860  6217  0
5861  6210  6219  0
5861  6219  5860  0
6210  6209  6220  0
5180  5521  5867  0
5525  5530  6204  0
6217  6221  6218  0
6217  5860  6222  0
6217  6222  6221  0
5860  6219  6222  0
5528  5532  5864  0
6223  5864  5532  0
5529  6224  5530  0
6225  6226  5863  0
5866  5863  6226  0
6216  6225  5863  0
5538  5877  5871  0
6227  5871  5877  0
5871  6228  5535  0
5868  5535  6228  0
5871  6227  6228  0
6229  5866  6226  0
5866  6229  5870  0
6230  5870  6229  0
5870  6230  5872  0
5874  5872  6230  0
5537  5875  5532  0
5193  6231  5876  0
5877  6232  6227  0
5877  5878  6232  0
5880  5879  5874  0
6233  5194  5876  0
5194  6233  5543  0
5884  5543  6233  0
6234  5878  5544  0
6235  6230  6229  0
6236  6230  6235  0
6230  6236  5874  0
6237  5874  6236  0
5874  6237  5880  0
5881  5880  6237  0
5541  5883  5542  0
6238  5542  5883  0
5894  5550  5884  0
5886  6239  5544  0
5544  6239  6234  0
5881  6240  5882  0
6241  5882  6240  0
5882  6241  5889  0
6242  5889  6241  0
6243  5890  5891  0
6244  5901  5553  0
5553  5892  6244  0
6245  5892  5549  0
5549  5554  6245  0
6246  5886  5885  0
5885  5204  5561  0
6247  5889  6242  0
5899  6248  5891  0
6249  5891  6248  0
5899  5898  6248  0
6243  5891  6249  0
6250  6245  5554  0
5554  5559  6250  0
5894  6251  5893  0
6252  5893  6251  0
5885  5561  6246  0
6253  6246  5561  0
5889  6247  5896  0
6254  5896  6247  0
5896  6254  5897  0
5905  6255  5900  0
5906  5901  6256  0
5901  6244  6256  0
6252  6257  5893  0
5893  6257  5221  0
5221  6258  5233  0
5562  5903  6259  0
5903  5895  5580  0
5903  5580  6259  0
5895  5904  5580  0
5897  6254  5908  0
5909  6260  5564  0
5564  6260  6255  0
5564  6255  5905  0
5911  5912  6261  0
5913  5233  6258  0
5913  6258  6262  0
6259  5580  5584  0
6259  5584  5924  0
5908  6254  5919  0
5910  6263  5909  0
5910  6264  6263  0
5910  5914  5920  0
5910  5920  6264  0
5917  6265  6266  0
5917  6266  5916  0
5917  5911  6265  0
5911  6261  6265  0
5573  5913  6267  0
5573  6267  6268  0
5573  6268  5237  0
5913  6262  6267  0
5574  5918  6269  0
5575  6270  5578  0
5924  5923  5902  0
5919  6271  6272  0
5919  6272  5925  0
6264  5920  6273  0
5920  5916  6274  0
5920  6274  6275  0
5920  6275  6273  0
5916  6266  6274  0
5922  5237  6268  0
5922  6268  6276  0
5922  6276  6277  0
5922  6277  5582  0
5918  6278  6269  0
6279  6269  6278  0
6280  5926  5925  0
6280  5925  6272  0
5588  6281  5581  0
5588  5595  6281  0
5582  6277  5929  0
5589  5930  5918  0
5918  5930  6278  0
5923  5585  5932  0
5923  5932  6282  0
6283  6282  5932  0
5927  5926  6280  0
5927  6280  5934  0
6284  5934  6280  0
5928  6285  5595  0
6286  5595  6285  0
6281  5595  6286  0
5255  5583  5937  0
6287  5937  5583  0
5938  6283  5932  0
5936  5935  5928  0
6288  5928  5935  0
5928  6288  6285  0
6289  6283  5938  0
5934  6290  5933  0
6291  5935  5602  0
6292  5935  6291  0
6293  5940  5604  0
5604  5605  6293  0
6294  6293  5605  0
5941  6294  5605  0
5259  5266  5931  0
6287  5942  5937  0
6295  5938  5939  0
6296  5933  6290  0
5602  5264  6291  0
5944  6291  5264  0
6297  5610  5609  0
5609  5940  6297  0
5940  6293  6297  0
5941  5275  6298  0
5276  5611  5929  0
5929  5931  5266  0
5939  5601  6295  0
6299  6295  5601  0
5601  5607  6299  0
5933  6296  5943  0
6300  5943  6296  0
5943  6300  5608  0
6301  5608  6300  0
5608  5947  5612  0
5608  6301  5947  0
6302  5947  6301  0
5610  6297  5945  0
6297  6303  5945  0
5607  5946  6304  0
5607  6304  6299  0
5947  6302  5280  0
5946  5615  6305  0
5615  5949  6305  0
5949  5280  6302  0
5613  6306  6307  0
5613  6307  5275  0
5948  5942  6308  0
5618  5951  5950  0
5613  5623  6309  0
5613  6309  6306  0
5951  5954  5950  0
5623  5955  6309  0
5955  6310  6309  0
5955  5958  6310  0
6311  5956  5953  0
6311  5953  5954  0
6311  5954  6312  0
6311  6313  5959  0
6311  5959  5956  0
6311  6312  6313  0
5961  5633  6314  0
5959  6313  5968  0
5960  5968  6315  0
5960  6315  5630  0
6316  5630  6315  0
5630  6316  5969  0
6317  5631  5969  0
5631  6317  5970  0
5632  5970  6314  0
5632  6314  5633  0
5963  5962  6318  0
5963  6318  6319  0
5638  5640  5964  0
6320  5964  5640  0
6321  6320  5640  0
6313  6322  5968  0
5968  6322  6315  0
5969  6316  6317  0
5963  6319  5643  0
6323  5643  6319  0
5643  6323  5972  0
5640  5971  6321  0
6324  5973  5972  0
6325  5971  5974  0
5978  5973  6326  0
6324  6326  5973  0
5650  5975  6327  0
6327  5975  6328  0
5651  6328  5975  0
5976  5652  6329  0
5652  5653  6329  0
6330  6329  5653  0
5653  5977  6330  0
6326  5977  5978  0
6331  5979  5646  0
5646  5647  6331  0
6332  6331  5647  0
6327  6332  5647  0
5647  5658  6327  0
6327  5658  5650  0
6333  6334  5982  0
6335  5982  6334  0
5982  6335  5984  0
6336  5984  6335  0
6337  6325  5974  0
5323  5980  5660  0
6331  5980  5979  0
6338  6339  6333  0
6334  6333  6339  0
6333  5982  6338  0
5981  6338  5982  0
5984  6336  5985  0
6340  5985  6336  0
5985  6340  6341  0
6342  5974  5986  0
5974  6342  6337  0
5990  6343  5991  0
5991  6343  5662  0
5993  5662  6343  0
6339  6338  6344  0
6345  6344  6338  0
6339  6344  6346  0
6338  5981  6345  0
5995  6345  5981  0
6347  5987  5985  0
5985  6341  6347  0
6348  6347  6341  0
5660  6349  5988  0
5992  6350  5989  0
6351  5990  5989  0
5993  6352  5994  0
5993  6343  6352  0
6345  5995  6353  0
6345  6353  6344  0
5987  6347  6354  0
5987  6354  5995  0
6355  6347  6348  0
5986  5661  6342  0
6356  5992  5996  0
6356  6350  5992  0
6357  6003  6002  0
5995  6354  6358  0
5995  6358  6359  0
6354  6347  6355  0
6354  6355  6358  0
5661  5999  6342  0
6007  5996  6000  0
6007  6360  6356  0
6007  6356  5996  0
6002  5997  5994  0
5331  6005  6006  0
6361  6007  5672  0
6361  6362  6007  0
6363  5677  5679  0
6363  5679  6003  0
6363  6364  5677  0
5998  6365  5999  0
5998  6011  6365  0
6006  6366  5343  0
6008  6361  5672  0
5683  5677  6364  0
5683  6364  6012  0
5343  6008  5676  0
6012  6367  6013  0
6010  6014  6368  0
5353  6013  6020  0
6013  6367  6020  0
6015  6021  6014  0
6369  6014  6021  0
6018  6370  6019  0
6371  5354  6020  0
6023  6372  6018  0
6370  6018  6372  0
6028  6029  6035  0
6029  5705  6373  0
6374  6373  5705  0
5705  5706  6374  0
5354  6371  6375  0
6376  6369  6021  0
6377  6369  6376  0
6378  6025  6031  0
6025  6378  6026  0
6023  6026  6378  0
6027  6034  6033  0
6034  6035  6379  0
6380  6034  6379  0
6381  5707  5374  0
5354  6375  6043  0
6021  6030  6376  0
6382  6377  6376  0
5702  6022  6377  0
5702  6377  6037  0
6383  6037  6377  0
6384  6041  5704  0
5704  6033  6385  0
5704  6385  6384  0
6033  6034  6385  0
6380  6385  6034  0
6386  6374  5706  0
6036  6387  5714  0
5374  6042  6381  0
6388  6381  6042  0
5709  6045  6044  0
6030  6389  6376  0
6382  6376  6389  0
6030  6044  6389  0
6037  6383  6047  0
6390  6047  6383  0
6039  6040  6391  0
6392  6391  6040  0
6040  6041  6392  0
6041  6384  6392  0
5706  5380  6058  0
5706  6058  6386  0
5714  6387  6048  0
6042  6393  6388  0
6389  6044  6394  0
6044  6045  6394  0
6047  6390  6053  0
6048  6387  6395  0
6048  6395  6055  0
6042  6056  6393  0
6050  6394  6045  0
6057  6053  6396  0
6053  6390  6396  0
6397  6059  6068  0
6397  6398  6059  0
6059  6398  6058  0
6055  6399  6054  0
6061  6400  6056  0
5718  6043  6401  0
5718  6401  6062  0
6049  6065  6402  0
6049  6402  6050  0
6057  6396  6067  0
6403  6075  6080  0
6403  6404  6397  0
6403  6080  6405  0
6403  6405  6404  0
6403  6068  6075  0
6403  6397  6068  0
6070  6063  6406  0
6070  6406  6071  0
6065  6073  6407  0
6065  6407  6402  0
6067  6408  6074  0
6409  6410  6405  0
6409  6405  6080  0
6409  6411  6410  0
6412  6090  6413  0
6413  6090  6414  0
6413  6414  6415  0
5724  6416  5733  0
5724  6054  6416  0
6054  6399  6417  0
6054  6417  6416  0
6061  6060  6418  0
6061  6418  6400  0
6073  6078  6419  0
6073  6419  6407  0
6074  6408  6079  0
6411  6409  6420  0
6409  6080  6081  0
6409  6081  6420  0
6414  6090  6092  0
5733  6416  6085  0
6418  6060  6083  0
6077  6076  6421  0
6077  6421  6087  0
6076  6071  6422  0
6076  6422  6421  0
6078  6088  6419  0
6079  6423  6084  0
6424  6420  6081  0
6081  5746  6424  0
6094  6424  5746  0
6091  6090  6425  0
6085  6416  6426  0
6085  6426  6096  0
6427  6083  6086  0
6083  6427  6418  0
6428  6418  6427  0
6421  6422  6429  0
6430  6429  6422  0
6088  5739  6419  0
6084  6419  5739  0
6425  6431  6091  0
5752  6091  6431  0
6432  6092  6089  0
6085  6096  6093  0
6433  6096  6426  0
6087  6421  6098  0
6434  6098  6421  0
6421  6429  6434  0
6429  6430  6434  0
6435  6434  6430  0
6094  5750  6431  0
5752  6431  5750  0
6432  6089  6095  0
6086  6097  6427  0
6100  6427  6097  0
5407  6098  6101  0
6436  6098  6434  0
6434  6435  6436  0
6437  6436  6435  0
6438  6432  6095  0
6439  6104  6096  0
6096  6433  6439  0
6440  6100  6105  0
6441  6102  6101  0
6101  6098  6441  0
6442  6441  6098  0
6098  6436  6442  0
6437  6442  6436  0
6095  6103  6438  0
6443  6438  6103  0
5755  6104  5757  0
6105  6102  6440  0
6102  6441  6440  0
6444  6440  6441  0
6441  6442  6444  0
6445  6444  6442  0
6103  5756  6446  0
5757  6104  6447  0
5757  6447  6106  0
6106  6448  6107  0
5756  6108  6446  0
6449  6450  6111  0
6450  6109  6111  0
6451  6109  6450  0
6109  6451  6452  0
6109  6452  6112  0
6449  6111  6113  0
6449  6113  6453  0
6453  6113  6454  0
6113  6116  6454  0
6125  6455  6456  0
6125  6457  6455  0
6456  6455  6458  0
6456  6126  6125  0
6456  6458  6126  0
6126  6120  6119  0
6126  6458  6120  0
6120  6459  6121  0
6121  6459  6460  0
6121  6460  5772  0
5772  6461  6122  0
5772  6460  6461  0
6116  5773  5778  0
6117  6462  6118  0
6463  6464  6465  0
6463  6466  6124  0
6463  6124  6464  0
6463  6467  6466  0
6466  6467  6468  0
6466  6125  6124  0
6466  6468  6457  0
6466  6457  6125  0
6122  6127  5445  0
6122  6461  6469  0
6122  6469  6127  0
5778  5784  6470  0
6118  6471  5774  0
6464  6131  6472  0
6464  6472  6465  0
6464  6129  6131  0
6464  6124  6129  0
6127  6132  5783  0
6127  6469  6132  0
5784  5786  6470  0
6471  6130  5774  0
6472  6131  6133  0
6132  6473  5785  0
6133  6474  6472  0
5785  6473  6137  0
6475  5786  6134  0
6471  6135  6130  0
6471  6476  6135  0
6477  6474  6133  0
6133  6136  6477  0
6139  5790  6135  0
6478  6477  6136  0
5462  6137  6479  0
6137  6473  6479  0
6145  6142  6480  0
6481  6480  6142  0
6480  6482  6145  0
6483  6145  6482  0
6136  5797  6478  0
5797  5801  6478  0
6484  6478  5801  0
6134  5795  6475  0
6485  6475  5795  0
6486  6139  6135  0
6145  6483  6151  0
6487  6151  6483  0
6488  6487  6483  0
6152  6489  5801  0
5801  6489  6484  0
6146  5804  6140  0
6140  6138  6146  0
6479  6490  5462  0
5462  6490  6148  0
6139  6486  6141  0
6144  6491  6142  0
6481  6142  6491  0
6487  6488  6492  0
5804  6146  6153  0
6493  6146  6147  0
6148  6490  6159  0
5795  6155  6485  0
6157  6494  6150  0
6151  6487  6158  0
6492  6158  6487  0
6495  5806  6153  0
6141  6161  6149  0
6158  6492  6496  0
6158  6496  6162  0
6152  5809  6497  0
6147  6154  6493  0
6154  6163  6493  0
6157  6498  6494  0
6157  6156  6498  0
6162  6496  6499  0
5809  6164  6497  0
5806  6500  6165  0
5806  6165  5476  0
5806  6495  6500  0
6155  5816  5815  0
6501  6502  6161  0
6161  6502  6166  0
5811  6167  6164  0
6165  6500  6503  0
6165  6503  6168  0
5814  6169  6163  0
6167  6170  6504  0
6168  6503  6505  0
6168  6505  6171  0
6502  6506  6507  0
6502  6507  6166  0
6502  6508  6506  0
6166  6507  6172  0
6166  6172  6160  0
6507  6509  6176  0
6507  6176  6172  0
6507  6506  6509  0
6173  6177  6510  0
6173  6510  6511  0
6173  6511  6170  0
6174  6512  6178  0
6174  6171  6513  0
5823  5830  6175  0
6176  6509  6514  0
6176  6514  5829  0
