#!ascii file
2055  2049  1844  0
1844  1848  2055  0
2056  2055  1848  0
1845  2050  2051  0
1839  1846  2054  0
1846  1847  2054  0
2057  2054  1847  0
1842  2048  2058  0
1842  2058  1852  0
1845  2051  2059  0
1847  1850  2057  0
1854  2057  1850  0
1852  2058  1646  0
1855  1646  2058  0
1648  2060  1858  0
1857  2061  2062  0
1857  2062  1860  0
1653  1859  1867  0
1859  2063  1867  0
1859  1860  2063  0
1860  2062  2064  0
1860  2064  2063  0
1861  2065  1864  0
2063  2064  2066  0
2064  2062  2067  0
2064  2067  2066  0
1865  1864  2065  0
1865  2065  2068  0
1865  2068  2069  0
1865  2069  1663  0
2070  1870  1665  0
1660  1872  1661  0
1663  2069  1875  0
1664  1668  2071  0
1659  1867  1666  0
1668  1877  2071  0
1666  1867  1669  0
1669  1867  2072  0
1876  2073  1673  0
1674  1879  1877  0
1669  2072  1880  0
2074  1677  1880  0
1677  2074  1676  0
1885  1676  2074  0
1878  1883  2075  0
2076  2075  1883  0
2077  1879  1681  0
1678  1887  1888  0
1888  2078  1679  0
1679  2078  2079  0
1679  2079  1881  0
1881  2079  1882  0
1883  1889  2076  0
1673  2073  1890  0
1230  1454  2080  0
1454  1884  2081  0
1454  2081  2080  0
1886  1891  2082  0
1886  2082  1887  0
1887  2082  1888  0
1882  2079  2083  0
1882  2083  1889  0
1892  2084  1693  0
1892  1686  1687  0
2085  1684  1890  0
1684  2085  1893  0
2086  1893  2085  0
1892  1687  2084  0
1687  1896  2087  0
1687  2087  2084  0
1893  2086  2088  0
1894  1895  1891  0
2089  1891  1895  0
1896  1897  2090  0
1691  1893  1897  0
2088  1897  1893  0
1895  1898  2089  0
2091  2089  1898  0
1468  1693  2092  0
2093  2091  1898  0
1898  1899  2093  0
1468  2092  1905  0
1468  1905  1469  0
1698  2094  1907  0
2095  1899  1696  0
1696  1900  2095  0
2096  2095  1900  0
1901  2096  1900  0
1900  1467  1901  0
2097  2098  1902  0
2099  1907  2094  0
1904  2100  1903  0
1901  1700  2101  0
1700  1910  2102  0
1700  2102  2101  0
1902  1701  2097  0
1701  1702  2097  0
1907  2099  1904  0
2103  1904  2099  0
1903  2104  1908  0
1906  2105  1483  0
1911  1483  2105  0
1702  1912  2106  0
1702  2106  2097  0
1912  1913  2106  0
1913  1914  2107  0
1913  2107  2106  0
2108  1908  2104  0
1911  1917  1489  0
1917  1911  2109  0
1914  2110  2107  0
1915  1908  2111  0
1915  2111  1919  0
1908  2108  2111  0
2112  2111  2108  0
2113  1710  1917  0
1919  2111  2114  0
1919  2114  1920  0
2111  2112  2115  0
2111  2115  2114  0
1716  1923  2116  0
1716  2116  1719  0
1719  2116  1925  0
1710  2113  2117  0
1710  2117  1713  0
1713  2117  2118  0
1713  2118  1721  0
1715  1926  2119  0
1921  1922  2120  0
1921  2120  1926  0
1922  1918  1935  0
2121  1935  1918  0
1918  1920  2121  0
2122  2121  1920  0
1920  2114  2122  0
1923  1927  2123  0
1923  2123  2116  0
2116  2123  1925  0
1924  1925  1928  0
1723  1928  2124  0
1928  1925  2124  0
1721  2118  2125  0
1721  2125  1929  0
1937  2120  1922  0
1922  1935  1937  0
1939  2122  2114  0
2114  2115  1939  0
1723  2126  1725  0
1930  1929  2127  0
1930  2127  1728  0
1936  1935  2121  0
2121  2122  1936  0
1732  1936  2122  0
2122  1939  1732  0
1931  1932  2128  0
1933  2128  1932  0
1931  2128  2129  0
2130  2129  2128  0
1725  2126  2131  0
1725  2131  1502  0
1934  1729  1277  0
1934  1727  2132  0
2127  1727  1728  0
1730  1937  1935  0
2128  2133  2130  0
1729  1934  1942  0
1735  2134  1937  0
1735  1938  2134  0
1941  1742  2135  0
2136  1734  2137  0
1734  2136  1938  0
2138  1938  2136  0
1946  1740  2139  0
1946  2139  2140  0
1740  1940  2139  0
1742  2141  2135  0
1944  1738  2142  0
1739  2137  1734  0
1744  1945  1949  0
1949  1945  2143  0
1949  2143  2144  0
1945  1946  2140  0
1945  2140  2143  0
1737  2142  1738  0
1947  1948  2145  0
2144  2145  1948  0
1948  1949  2144  0
2146  2147  2148  0
1742  1745  2141  0
1747  1947  2149  0
2145  2149  1947  0
1747  2149  1750  0
2148  2150  2146  0
2151  2146  2150  0
1755  1950  2152  0
2153  1745  1751  0
2154  1754  1755  0
2152  2154  1755  0
1526  2155  1751  0
1526  1756  2155  0
2156  1758  1752  0
1748  1753  1951  0
1951  1754  2157  0
2154  2157  1754  0
2158  2159  2160  0
2159  2158  2161  0
2162  2161  2163  0
1953  2164  1756  0
2155  1756  2164  0
1758  2156  1759  0
2165  1759  2156  0
2159  2161  2162  0
2159  2162  2166  0
2159  2166  2167  0
1954  2168  1955  0
1954  2169  2168  0
1952  1955  2168  0
1952  2164  1953  0
2170  1956  1961  0
1954  1959  2171  0
1954  2171  2169  0
2165  2172  1759  0
1759  2172  1966  0
2173  1961  1960  0
2170  1961  2173  0
1959  1963  2174  0
1959  2174  2171  0
1963  1964  2174  0
1763  1540  2175  0
1763  2175  1964  0
1540  1764  2175  0
1764  2176  2175  0
1764  2177  2176  0
1764  1965  2177  0
1960  1962  2173  0
1542  1767  1969  0
1542  1969  1965  0
1967  2178  1968  0
2179  2180  2173  0
2173  1962  2179  0
2181  2179  1962  0
1962  2182  2181  0
2183  2181  2182  0
1548  1968  2184  0
1968  2178  2184  0
1552  1548  2184  0
1971  1970  2185  0
1971  2185  1972  0
1978  1552  2184  0
1974  2186  1970  0
1974  1975  2186  0
1977  1771  1784  0
1561  1784  1771  0
1978  2187  1776  0
1979  2188  1980  0
1975  1982  2189  0
1982  1781  2190  0
1984  1782  2191  0
1782  1580  2192  0
1782  2192  2191  0
1580  1788  2192  0
1981  1994  1983  0
1981  2193  1994  0
2194  2190  1987  0
2194  1987  1786  0
2194  2195  2190  0
1982  2190  2195  0
2194  1786  2196  0
2194  2196  2195  0
2190  1781  2197  0
2190  2197  1987  0
1781  1984  2197  0
2198  1984  2191  0
1788  1989  2192  0
1989  2199  2192  0
2200  1992  1993  0
2200  1993  2201  0
2202  1992  2200  0
2201  1993  1994  0
1985  2203  2196  0
1985  2196  1786  0
1985  2204  2203  0
1987  2197  2205  0
1987  2205  1988  0
2197  1984  2198  0
2197  2198  2205  0
1989  1990  2199  0
1990  1996  2206  0
1990  2206  2199  0
1996  2207  2206  0
2207  1996  1997  0
2208  2202  2209  0
2208  2209  2210  0
2208  1992  2202  0
1986  2000  2211  0
1986  2211  2204  0
1986  2204  1985  0
1988  2205  1995  0
2208  2001  1992  0
1999  1992  2001  0
2208  2210  2001  0
2001  2210  2212  0
2001  2212  2002  0
2213  1998  2003  0
2214  1801  2002  0
1800  2002  1801  0
2212  2214  2002  0
2215  2216  2217  0
2217  2218  2215  0
2218  2219  2215  0
2218  2220  2219  0
2003  1799  2213  0
2221  2213  1799  0
2214  2004  1801  0
2222  2223  2216  0
2216  2215  2222  0
2219  2220  2224  0
1799  2006  2221  0
2223  2222  2225  0
2223  2225  2226  0
2215  2219  2227  0
2215  2227  2222  0
1803  2007  2228  0
1803  2228  2006  0
1804  2229  1805  0
1804  2005  2230  0
2230  2231  2232  0
2230  2232  1804  0
2231  2233  2232  0
2007  1808  2234  0
2007  2234  2228  0
1599  1805  2235  0
1599  2235  1806  0
1804  2232  2236  0
1804  2236  2229  0
2234  1808  2237  0
1806  2235  2008  0
1805  2229  2235  0
2229  2236  2238  0
1808  2009  2237  0
2008  2235  2239  0
2008  2239  2009  0
2240  2241  2242  0
2240  2242  2243  0
2243  2244  2245  0
2243  2242  2246  0
2243  2246  2244  0
2244  2247  2245  0
2244  2246  2248  0
2247  2244  2249  0
2247  2249  2250  0
2010  2011  2251  0
2252  2251  2011  0
2013  2252  2011  0
2013  2014  2253  0
2254  2019  2255  0
2254  2015  2019  0
1823  2019  2015  0
2254  2256  2015  0
2015  2256  2257  0
2015  2257  2258  0
2015  2258  2014  0
2014  2258  2253  0
2017  1821  2016  0
2255  2019  2018  0
2259  2255  2018  0
2016  2260  2017  0
2261  1822  2017  0
2018  2020  2259  0
2262  2259  2020  0
1827  2021  2026  0
2263  2026  2021  0
2021  2264  2263  0
2264  2021  2027  0
2264  2027  2265  0
2266  2022  1824  0
1824  1822  2266  0
2261  2266  1822  0
2020  2023  2267  0
2020  2267  2262  0
2024  2268  2025  0
2269  2025  2268  0
2024  2026  2268  0
2027  2028  2265  0
2028  2022  2270  0
2022  2266  2270  0
2271  2272  2273  0
2271  2273  2274  0
2025  2269  2029  0
2274  2275  2271  0
2274  2273  2276  0
2037  2277  2039  0
2037  2278  2277  0
2037  2279  2278  0
2277  2280  2039  0
2033  2035  2281  0
2036  2279  2037  0
2039  2280  2040  0
2035  2034  2282  0
2035  2282  2281  0
2283  2281  2282  0
2034  2284  2285  0
2034  2285  2282  0
2284  2286  2287  0
2284  2287  2285  0
2288  2041  1840  0
2044  2289  2045  0
2049  2038  1633  0
2040  2290  1838  0
2046  1838  2290  0
2291  2283  2282  0
2282  2285  2291  0
2292  2291  2285  0
2285  2287  2293  0
2285  2293  2292  0
2047  2294  2288  0
2047  2288  1840  0
2047  2052  2294  0
2295  2294  2052  0
1837  2045  2048  0
2290  2296  2046  0
2051  2046  2296  0
2297  2283  2291  0
2292  2293  2298  0
2299  2295  2300  0
2053  2300  2295  0
2295  2052  2053  0
2055  2056  2301  0
2296  2302  2051  0
2291  2292  2303  0
2291  2303  2297  0
2304  2297  2303  0
2292  2305  2303  0
2292  2298  2306  0
2292  2306  2305  0
2307  2305  2306  0
2306  2300  2307  0
2308  2307  2300  0
2306  2299  2300  0
2300  2053  2308  0
2309  2308  2053  0
2053  2054  2309  0
2057  2309  2054  0
2310  2058  2048  0
2056  2311  2301  0
2312  2051  2302  0
2313  2304  2303  0
2303  2305  2313  0
2307  2313  2305  0
2307  2308  2314  0
2308  2309  2315  0
2308  2315  2314  0
2309  2057  2316  0
2309  2316  2315  0
2057  1854  2317  0
2058  1648  1855  0
2058  2310  1648  0
2307  2314  2313  0
2060  1648  2310  0
1854  2318  2317  0
2319  2062  2061  0
1858  2060  1861  0
2062  2319  2067  0
2318  1873  2320  0
1861  2321  2065  0
1867  2063  2322  0
2063  2066  2323  0
2063  2323  2322  0
2066  2067  2324  0
2066  2324  2323  0
2067  2319  2325  0
2067  2325  2324  0
1868  2326  2327  0
1868  2327  1869  0
1868  1870  2326  0
1869  2327  1863  0
1863  2327  2328  0
1863  2328  1871  0
1873  1872  2320  0
2068  2329  2069  0
2330  2323  2324  0
2324  2331  2330  0
2324  2325  2332  0
2324  2332  2331  0
1870  2070  2326  0
1660  1871  2333  0
1660  2333  2320  0
1660  2320  1872  0
2072  1867  2322  0
1880  2072  2322  0
2322  2323  1880  0
2074  1880  2323  0
2323  2330  2074  0
2334  2330  2331  0
2331  2332  2335  0
2331  2335  2334  0
1875  2069  2336  0
1875  2336  1876  0
2071  1877  2337  0
1885  2074  2330  0
2330  2334  1885  0
1884  1885  2334  0
2334  2338  1884  0
2334  2335  2339  0
2334  2339  2338  0
1665  1878  2070  0
1878  2340  2070  0
1876  2341  2073  0
1876  2336  2341  0
1879  2077  1877  0
1878  2075  2342  0
1878  2342  2340  0
2073  2341  2343  0
1884  2338  2344  0
1884  2344  2081  0
2076  2345  2075  0
2346  2073  2343  0
2073  2346  1890  0
1681  2347  2077  0
1888  2082  2348  0
1888  2348  2078  0
2078  2348  2349  0
2078  2349  2079  0
1890  2346  2085  0
2350  2085  2346  0
2085  2350  2086  0
1891  2351  2082  0
2082  2351  2352  0
2082  2352  2348  0
2348  2353  2349  0
2354  2079  2349  0
2079  2354  2083  0
2083  2355  1889  0
1889  2355  2076  0
2084  2087  1693  0
1891  2089  2351  0
2356  2351  2089  0
2354  2357  2083  0
2083  2357  2355  0
2358  2087  1896  0
1896  2090  2358  0
1897  2088  2359  0
1897  2359  2360  0
1897  2360  2090  0
2091  2356  2089  0
2092  1693  2087  0
2358  2361  2087  0
2358  2090  2362  0
2360  2362  2090  0
2093  1899  2363  0
2364  2363  1899  0
1899  2095  2364  0
2094  2365  2099  0
2103  2099  2365  0
1904  2366  2100  0
1904  2103  2366  0
2367  1903  2100  0
2105  1906  1905  0
2367  2104  1903  0
1910  1909  2368  0
1910  2368  2102  0
2104  2369  2108  0
1909  1916  2370  0
1909  2370  2368  0
2109  1911  2105  0
2371  1917  2109  0
2369  2372  2108  0
2112  2108  2372  0
1916  2373  2370  0
1916  2374  2373  0
2113  1917  2371  0
1914  1715  2375  0
1914  2375  2110  0
2376  2115  2112  0
1916  1502  2374  0
1715  2119  2375  0
2120  2119  1926  0
2377  1927  1931  0
2378  1927  2377  0
1927  2378  2123  0
2379  2123  2378  0
2123  2379  2380  0
2123  2380  1925  0
1925  2380  2124  0
2131  2374  1502  0
2115  2376  2381  0
2115  2381  1939  0
1931  2129  2377  0
2382  2377  2129  0
2378  2377  2379  0
2379  2377  2383  0
1723  2124  2384  0
1723  2384  2126  0
1929  2125  2127  0
2134  2120  1937  0
2129  2385  2382  0
2129  2130  2385  0
2126  2384  2131  0
1934  2132  2386  0
2387  2132  1727  0
1727  2127  2387  0
1939  2381  1940  0
1934  2386  1942  0
2138  2134  1938  0
2138  2388  2134  0
2133  2389  2390  0
2133  2390  2130  0
2391  2143  2140  0
2140  2139  2391  0
2389  2392  2390  0
1941  2393  2394  0
1941  2135  2393  0
2135  2141  2395  0
1942  2386  1943  0
1943  2386  2396  0
1944  2142  2387  0
1944  2397  1739  0
2137  1739  2397  0
2392  2147  2398  0
2146  2398  2147  0
1943  2396  2142  0
1943  2142  1737  0
2145  2144  2399  0
2145  2399  2400  0
2153  2141  1745  0
2401  1950  2149  0
1750  2149  1950  0
2400  2401  2149  0
2149  2145  2400  0
2152  1950  2401  0
2152  2401  2402  0
2156  1752  1748  0
1748  1951  2156  0
2154  2152  2402  0
2155  2403  2404  0
2155  2404  1751  0
1751  2404  2153  0
2156  1951  2165  0
2405  2165  1951  0
2406  2405  1951  0
1951  2157  2406  0
2407  2408  2160  0
2160  2408  2158  0
2163  2409  2162  0
2155  2164  2403  0
2168  2169  2410  0
2168  2410  1952  0
2411  2164  1952  0
2403  2164  2411  0
2169  2171  2412  0
2413  1966  2172  0
2173  2414  2170  0
2415  2170  2414  0
2171  2174  2416  0
2171  2416  2412  0
2174  1964  2417  0
2180  2418  2173  0
2414  2173  2418  0
2419  2416  2174  0
2417  1964  2420  0
1964  2175  2420  0
1969  2177  1965  0
1966  2178  1967  0
1966  2413  2178  0
2421  2179  2181  0
2181  2183  2421  0
2422  2421  2183  0
2183  2423  2422  0
2422  2423  2424  0
2425  1969  1770  0
2179  2421  2426  0
2427  2428  2429  0
1970  2430  2185  0
1972  2425  1976  0
1977  1976  2425  0
1972  2185  2425  0
2425  1770  1977  0
1771  1977  1770  0
2184  2431  1978  0
2187  1978  2431  0
2186  2430  1970  0
2186  2432  2430  0
2433  1776  2187  0
1776  2433  1979  0
2188  1979  2433  0
2188  2434  1980  0
1980  2434  1981  0
2193  1981  2434  0
1975  2189  2435  0
1975  2432  2186  0
2191  2192  2436  0
2437  2201  2193  0
2193  2201  1994  0
2195  2189  1982  0
2195  2196  2203  0
2195  2203  2189  0
2191  2436  2438  0
2191  2438  2198  0
2192  2199  2439  0
2199  2206  2439  0
2206  2440  2439  0
2206  2207  2441  0
2206  2441  2440  0
2207  1997  2441  0
2202  2442  2209  0
2442  2202  2200  0
2200  2201  2443  0
2200  2443  2442  0
2203  2204  2444  0
2211  2444  2204  0
2198  2438  2445  0
2198  2445  2446  0
2198  2446  2205  0
2205  2447  1995  0
2448  1997  1998  0
2210  2209  2449  0
2450  1791  1995  0
1998  2213  2448  0
2210  2449  2451  0
2210  2451  2212  0
2452  2000  1791  0
1791  2450  2452  0
2217  2216  2453  0
2453  2454  2455  0
2453  2216  2454  0
2456  2454  2216  0
2453  2457  2217  0
2218  2217  2457  0
2453  2458  2457  0
2220  2218  2457  0
2457  2458  2459  0
2216  2223  2456  0
2220  2460  2224  0
2213  2221  2448  0
2448  2221  2461  0
2223  2226  2456  0
2225  2222  2227  0
2225  2227  2462  0
2221  2463  2461  0
2464  2004  2214  0
2219  2224  2227  0
2006  2465  2221  0
2221  2465  2466  0
2221  2466  2463  0
2004  2230  2005  0
2004  2464  2230  0
2464  2467  2231  0
2464  2231  2230  0
2464  2468  2467  0
2467  2233  2231  0
2467  2469  2470  0
2467  2470  2233  0
2467  2471  2469  0
2006  2228  2465  0
2233  2470  2472  0
2233  2472  2232  0
2232  2472  2473  0
2232  2473  2236  0
2234  2237  2474  0
2234  2474  2228  0
2235  2229  2475  0
2235  2475  2239  0
2236  2473  2238  0
2239  2476  2009  0
2476  2237  2009  0
2248  2246  2477  0
2477  2246  2478  0
2242  2478  2246  0
2248  2477  2479  0
2248  2479  2244  0
2480  2244  2479  0
2244  2480  2249  0
2481  2249  2480  0
2481  2482  2249  0
2249  2482  2250  0
2013  2253  2252  0
2483  2252  2253  0
2252  2483  2484  0
2485  2486  2487  0
2485  2487  2255  0
2255  2487  2254  0
2254  2487  2256  0
2257  2488  2258  0
2258  2488  2253  0
2489  2012  2490  0
2012  2489  2016  0
2485  2255  2259  0
2485  2259  2486  0
2016  2489  2260  0
2491  2017  2260  0
2017  2491  2261  0
2492  2261  2491  0
2259  2262  2486  0
2493  2268  2026  0
2272  2271  2494  0
2272  2495  2273  0
2272  2496  2495  0
2497  2495  2496  0
2262  2267  2498  0
2268  2493  2499  0
2268  2499  2269  0
2265  2028  2500  0
2028  2270  2500  0
2270  2266  2501  0
2266  2261  2492  0
2266  2492  2501  0
2273  2495  2502  0
2503  2495  2497  0
2504  2029  2269  0
2271  2275  2505  0
2273  2502  2506  0
2273  2506  2276  0
2502  2495  2503  0
2507  2275  2508  0
2507  2508  2277  0
2507  2509  2275  0
2505  2275  2509  0
2507  2277  2509  0
2275  2274  2510  0
2275  2510  2508  0
2274  2276  2510  0
2276  2506  2511  0
2276  2511  2510  0
2277  2508  2280  0
2277  2278  2509  0
2508  2510  2512  0
2508  2512  2280  0
2510  2511  2513  0
2510  2513  2512  0
2280  2512  2514  0
2280  2514  2290  0
2036  2515  2279  0
2516  2036  2038  0
2280  2290  2040  0
2281  2283  2517  0
2286  2518  2287  0
2518  2519  2520  0
2518  2520  2287  0
2041  2521  2522  0
2041  2288  2521  0
2041  2522  2523  0
2041  2523  2042  0
2042  2523  2043  0
2043  2524  2044  0
2044  2524  2289  0
2038  2049  2516  0
2525  2516  2049  0
2290  2514  2296  0
2287  2520  2526  0
2287  2526  2293  0
2294  2527  2528  0
2294  2295  2527  0
2294  2528  2288  0
2289  2529  2045  0
2049  2055  2525  0
2530  2525  2055  0
2296  2514  2531  0
2283  2297  2532  0
2293  2533  2298  0
2306  2298  2533  0
2293  2526  2533  0
2299  2306  2533  0
2533  2526  2299  0
2527  2299  2526  0
2299  2527  2295  0
2048  2045  2529  0
2055  2301  2530  0
2311  2530  2301  0
2296  2531  2302  0
2534  2302  2531  0
2529  2535  2310  0
2529  2310  2048  0
2529  2536  2535  0
2304  2313  2537  0
2314  2315  2538  0
2314  2538  2539  0
2315  2316  2538  0
2316  2540  2538  0
2316  2057  2317  0
2541  2310  2535  0
2313  2542  2537  0
2313  2314  2539  0
2313  2539  2542  0
2317  2540  2316  0
2310  2543  2060  0
2310  2541  2543  0
2544  2319  2061  0
2317  2318  2540  0
2060  2545  1861  0
2544  2546  2547  0
2544  2547  2319  0
1861  2545  2321  0
2319  2547  2548  0
2319  2548  2325  0
2068  2065  2329  0
2321  2329  2065  0
2325  2549  2332  0
2325  2548  2549  0
2326  2070  2550  0
2327  2326  2551  0
2327  2551  2328  0
1871  2328  2333  0
2332  2549  2552  0
2332  2552  2335  0
2069  2329  2553  0
2069  2553  2336  0
2554  2337  1877  0
2335  2552  2555  0
2335  2555  2339  0
2338  2339  2556  0
2338  2556  2557  0
1877  2077  2554  0
2338  2557  2344  0
2558  2557  2556  0
2345  2342  2075  0
2559  2560  2081  0
2081  2560  2080  0
2561  2080  2560  0
2081  2344  2559  0
2562  2559  2344  0
2344  2557  2562  0
2558  2562  2557  0
2563  2346  2343  0
2077  2347  2564  0
2077  2564  2565  0
2566  2080  2567  0
2568  2566  2567  0
2080  2561  2567  0
2569  2086  2350  0
2349  2353  2354  0
2076  2355  2570  0
2086  2569  2088  0
2351  2356  2571  0
2351  2571  2352  0
2352  2571  2348  0
2348  2572  2353  0
2573  2353  2572  0
2348  2571  2574  0
2348  2574  2572  0
2353  2573  2354  0
2354  2573  2357  0
2355  2575  2570  0
2088  2569  2576  0
2088  2576  2359  0
2577  2359  2576  0
2356  2578  2571  0
2356  2091  2579  0
2356  2579  2578  0
2357  2580  2355  0
2357  2581  2580  0
2355  2580  2575  0
2087  2361  2092  0
2358  2362  2361  0
2582  2583  2360  0
2360  2583  2362  0
2360  2359  2582  0
2577  2582  2359  0
2091  2093  2579  0
2584  2092  2361  0
2093  2363  2579  0
2585  2579  2363  0
2092  2584  1905  0
2363  2364  2586  0
2363  2586  2585  0
2587  2585  2586  0
2588  2364  2095  0
2095  2096  2588  0
2098  2589  2590  0
2365  2366  2103  0
2365  2591  2366  0
2366  2591  2100  0
2100  2591  2367  0
2369  2104  2367  0
2586  2364  2587  0
2592  2587  2364  0
2364  2588  2592  0
2593  2588  2096  0
2594  2593  2096  0
2096  1901  2594  0
2101  2594  1901  0
1905  2595  2105  0
2098  2097  2596  0
2098  2596  2589  0
2597  2101  2102  0
2102  2598  2597  0
2102  2368  2598  0
2599  2105  2595  0
2097  2600  2596  0
2097  2106  2601  0
2097  2601  2602  0
2097  2602  2600  0
2369  2603  2372  0
2604  2372  2603  0
2105  2599  2109  0
2109  2599  2371  0
2106  2107  2605  0
2106  2605  2601  0
2107  2110  2606  0
2107  2606  2605  0
2604  2607  2372  0
2110  2375  2608  0
2110  2608  2606  0
2372  2376  2112  0
2609  2113  2371  0
2113  2609  2117  0
2375  2119  2610  0
2375  2610  2611  0
2375  2611  2608  0
2607  2612  2372  0
2372  2612  2376  0
2379  2383  2380  0
2374  2131  2613  0
2117  2609  2614  0
2117  2614  2118  0
2119  2120  2610  0
2612  2615  2376  0
2381  2376  2615  0
2616  2377  2382  0
2377  2616  2383  0
2383  2616  2617  0
2383  2617  2380  0
2380  2617  2618  0
2380  2618  2124  0
2384  2613  2131  0
2125  2118  2619  0
2125  2619  2620  0
2125  2620  2127  0
2388  2610  2120  0
2134  2388  2120  0
2615  2621  2381  0
2615  2612  2622  0
2615  2622  2621  0
2382  2623  2616  0
2382  2385  2623  0
2616  2623  2624  0
2625  2386  2132  0
2387  2625  2132  0
2387  2127  2397  0
2620  2397  2127  0
2626  2610  2388  0
1940  2381  2621  0
2385  2627  2623  0
2385  2130  2627  0
2628  2627  2130  0
2138  2626  2388  0
2621  2139  1940  0
2621  2622  2139  0
2130  2390  2628  0
2396  2386  2625  0
2629  2136  2137  0
2626  2136  2629  0
2136  2626  2138  0
2144  2143  2391  0
2391  2139  2630  0
2631  2390  2392  0
2631  2392  2398  0
2631  2632  2390  0
2628  2390  2632  0
2631  2398  2633  0
2631  2633  2632  0
2135  2634  2393  0
2387  2142  2396  0
2397  1944  2387  0
2629  2137  2397  0
2398  2146  2635  0
2398  2635  2633  0
2636  2394  2637  0
2394  2393  2638  0
2394  2638  2637  0
2395  2141  2639  0
2395  2639  2640  0
2400  2399  2641  0
2400  2641  2642  0
2146  2151  2643  0
2146  2643  2635  0
2644  2636  2645  0
2644  2645  2646  0
2636  2637  2647  0
2636  2647  2645  0
2141  2153  2639  0
2401  2400  2642  0
2151  2646  2648  0
2151  2648  2643  0
2646  2645  2648  0
2639  2153  2649  0
2401  2650  2402  0
2154  2402  2157  0
2157  2402  2651  0
2650  2651  2402  0
2652  2653  2408  0
2158  2408  2653  0
2158  2653  2654  0
2158  2654  2161  0
2161  2654  2655  0
2161  2655  2163  0
2163  2655  2656  0
2163  2656  2409  0
2409  2656  2657  0
2153  2404  2658  0
2406  2157  2659  0
2407  2660  2408  0
2657  2661  2409  0
2409  2661  2162  0
2165  2405  2172  0
2662  2663  2166  0
2166  2162  2662  0
2661  2662  2162  0
2664  1952  2410  0
1952  2664  2411  0
2411  2404  2403  0
2411  2664  2665  0
2169  2412  2410  0
2666  2664  2410  0
2665  2664  2666  0
2414  2667  2415  0
2414  2668  2667  0
2412  2669  2410  0
2666  2410  2669  0
2412  2416  2669  0
2670  2418  2180  0
2670  2180  2671  0
2418  2668  2414  0
2416  2419  2672  0
2416  2672  2673  0
2416  2673  2669  0
2419  2174  2417  0
2175  2176  2185  0
2176  2177  2185  0
2177  1969  2185  0
2674  2178  2413  0
2180  2179  2671  0
2183  2675  2423  0
2676  2423  2675  0
2677  2672  2428  0
2677  2673  2672  0
2672  2419  2428  0
2419  2417  2678  0
2419  2678  2428  0
2417  2420  2678  0
2420  2679  2678  0
2420  2175  2679  0
2175  2430  2679  0
2175  2185  2430  0
2671  2179  2680  0
2179  2426  2680  0
2681  2426  2421  0
2421  2422  2681  0
2682  2681  2422  0
2422  2424  2682  0
2683  2424  2423  0
2423  2684  2683  0
2428  2427  2677  0
2685  2677  2427  0
2428  2678  2429  0
2678  2679  2686  0
2425  2185  1969  0
2178  2674  2184  0
2184  2674  2431  0
2687  2685  2427  0
2427  2429  2687  0
2431  2688  2187  0
2187  2688  2689  0
2433  2187  2689  0
2689  2690  2433  0
2687  2429  2691  0
2433  2690  2188  0
2188  2690  2434  0
2434  2692  2193  0
2685  2687  2693  0
2687  2691  2693  0
1975  2435  2432  0
2437  2193  2692  0
2693  2694  2695  0
2693  2695  2685  0
2696  2693  2691  0
2439  2440  2697  0
2440  2441  2698  0
2440  2698  2697  0
2441  2699  2698  0
2700  2209  2442  0
2700  2442  2443  0
2443  2701  2700  0
2443  2201  2437  0
2443  2437  2701  0
2694  2693  2702  0
2694  2702  2695  0
2693  2696  2444  0
2693  2444  2702  0
2696  2189  2203  0
2696  2203  2444  0
2435  2189  2696  0
2438  2436  2703  0
2436  2192  2704  0
2436  2704  2705  0
2436  2705  2703  0
2441  1997  2706  0
2441  2706  2707  0
2441  2707  2699  0
2706  2708  2707  0
2702  2444  2211  0
2702  2211  2000  0
2709  2702  2000  0
2438  2703  2445  0
2708  2706  1997  0
2000  2710  2709  0
2205  2446  2447  0
2711  2447  2446  0
2446  2445  2711  0
2712  2711  2445  0
2445  2703  2712  0
2703  2705  2712  0
2455  2712  2705  0
2705  2704  2455  0
1997  2448  2708  0
2209  2713  2449  0
2452  2710  2000  0
1995  2447  2450  0
2714  2450  2447  0
2447  2711  2715  0
2447  2715  2714  0
2455  2454  2712  0
2712  2454  2711  0
2716  2711  2454  0
2455  2458  2453  0
2455  2704  2458  0
2448  2461  2717  0
2448  2717  2708  0
2452  2450  2718  0
2719  2718  2450  0
2450  2714  2719  0
2456  2716  2454  0
2459  2720  2457  0
2457  2460  2220  0
2460  2457  2721  0
2722  2212  2451  0
2716  2456  2723  0
2716  2723  2724  0
2212  2722  2214  0
2725  2471  2726  0
2471  2727  2726  0
2725  2726  2728  0
2725  2728  2729  0
2723  2456  2730  0
2225  2462  2731  0
2225  2731  2732  0
2225  2732  2226  0
2227  2733  2462  0
2214  2722  2464  0
2734  2464  2722  0
2468  2735  2467  0
2735  2471  2467  0
2735  2736  2471  0
2471  2725  2470  0
2471  2470  2469  0
2725  2729  2470  0
2456  2226  2732  0
2456  2732  2730  0
2464  2734  2468  0
2470  2729  2472  0
2729  2737  2472  0
2465  2228  2466  0
2228  2738  2466  0
2473  2472  2739  0
2740  2476  2239  0
2740  2741  2476  0
2742  2476  2741  0
2239  2475  2743  0
2239  2743  2740  0
2229  2238  2744  0
2229  2744  2475  0
2238  2745  2744  0
2238  2473  2745  0
2473  2739  2745  0
2474  2476  2742  0
2237  2476  2474  0
2478  2242  2746  0
2747  2746  2242  0
2477  2478  2748  0
2477  2749  2479  0
2750  2479  2749  0
2477  2748  2749  0
2750  2749  2751  0
2241  2752  2747  0
2241  2747  2242  0
2479  2750  2480  0
2750  2751  2753  0
2480  2750  2754  0
2480  2754  2755  0
2480  2755  2481  0
2753  2754  2750  0
2482  2481  2755  0
2482  2755  2756  0
2487  2757  2758  0
2759  2757  2487  0
2487  2758  2760  0
2253  2488  2483  0
2761  2483  2488  0
2486  2759  2487  0
2487  2760  2256  0
2256  2760  2762  0
2256  2762  2257  0
2257  2762  2763  0
2257  2763  2488  0
2489  2490  2764  0
2765  2489  2764  0
2489  2765  2260  0
2766  2260  2765  0
2260  2766  2491  0
2026  2263  2767  0
2026  2767  2493  0
2272  2768  2496  0
2272  2494  2768  0
2262  2769  2486  0
2499  2493  2770  0
2263  2264  2771  0
2264  2265  2771  0
2265  2500  2771  0
2500  2270  2772  0
2270  2501  2773  0
2270  2773  2772  0
2501  2492  2774  0
2501  2774  2773  0
2271  2505  2494  0
2494  2505  2775  0
2497  2776  2777  0
2497  2777  2503  0
2497  2496  2776  0
2269  2499  2778  0
2505  2779  2775  0
2502  2503  2780  0
2502  2780  2506  0
2503  2777  2780  0
2509  2781  2505  0
2505  2781  2779  0
2506  2782  2511  0
2506  2780  2783  0
2506  2783  2782  0
2509  2278  2781  0
2784  2781  2278  0
2511  2782  2785  0
2511  2785  2786  0
2511  2786  2513  0
2279  2784  2278  0
2784  2279  2515  0
2512  2513  2514  0
2786  2787  2513  0
2513  2787  2514  0
2788  2789  2790  0
2789  2791  2790  0
2792  2791  2789  0
2790  2793  2788  0
2790  2794  2793  0
2036  2516  2515  0
2515  2516  2784  0
2789  2788  2792  0
2795  2792  2788  0
2788  2796  2795  0
2788  2797  2796  0
2788  2793  2798  0
2788  2798  2797  0
2517  2283  2799  0
2800  2799  2283  0
2288  2528  2521  0
2523  2801  2043  0
2043  2801  2524  0
2524  2802  2289  0
2803  2795  2796  0
2796  2797  2804  0
2796  2804  2803  0
2805  2803  2804  0
2797  2806  2804  0
2283  2532  2800  0
2807  2800  2532  0
2520  2808  2526  0
2808  2527  2526  0
2527  2808  2528  0
2289  2802  2529  0
2809  2529  2802  0
2810  2525  2530  0
2514  2811  2531  0
2532  2297  2304  0
2532  2304  2812  0
2532  2812  2807  0
2812  2304  2813  0
2812  2813  2807  0
2814  2807  2813  0
2529  2809  2536  0
2530  2311  2810  0
2815  2531  2811  0
2531  2815  2534  0
2304  2537  2813  0
2536  2809  2535  0
2816  2535  2809  0
2311  2817  2810  0
2537  2818  2813  0
2537  2542  2819  0
2537  2819  2818  0
2539  2820  2819  0
2542  2539  2819  0
2539  2538  2821  0
2539  2821  2820  0
2538  2540  2822  0
2538  2822  2821  0
2535  2816  2541  0
2823  2534  2815  0
2540  2824  2822  0
2541  2816  2543  0
2825  2543  2816  0
2311  2826  2817  0
2540  2318  2824  0
2827  2824  2318  0
2060  2543  2545  0
2828  2829  2830  0
2828  2830  2546  0
2318  2320  2827  0
2546  2830  2831  0
2548  2547  2832  0
2547  2546  2833  0
2547  2833  2832  0
2320  2333  2834  0
2321  2545  2835  0
2328  2551  2836  0
2328  2836  2333  0
2837  2329  2321  0
2321  2835  2837  0
2548  2832  2838  0
2548  2838  2549  0
2549  2838  2552  0
2070  2340  2839  0
2840  2337  2554  0
2552  2838  2841  0
2552  2841  2555  0
2339  2555  2842  0
2339  2842  2556  0
2340  2342  2843  0
2844  2556  2842  0
2556  2844  2558  0
2342  2345  2843  0
2336  2553  2341  0
2845  2341  2553  0
2341  2845  2343  0
2563  2343  2845  0
2077  2565  2846  0
2077  2846  2554  0
2559  2847  2560  0
2559  2562  2848  0
2559  2848  2847  0
2567  2561  2849  0
2567  2849  2568  0
2561  2560  2847  0
2076  2570  2345  0
2850  2346  2563  0
2346  2850  2350  0
2350  2850  2569  0
2851  2569  2850  0
2576  2569  2851  0
2578  2579  2852  0
2578  2852  2571  0
2571  2852  2574  0
2574  2852  2853  0
2574  2853  2572  0
2581  2357  2573  0
2573  2854  2581  0
2580  2855  2575  0
2575  2855  2570  0
2362  2583  2856  0
2362  2856  2361  0
2857  2858  2859  0
2857  2859  2860  0
2584  2361  2861  0
2862  2863  2094  0
2365  2094  2863  0
2864  2865  2591  0
2367  2591  2865  0
2864  2591  2863  0
2866  2367  2865  0
2865  2864  2867  0
2865  2867  2866  0
2585  2587  2868  0
2869  2868  2587  0
2584  2861  1905  0
2595  1905  2861  0
2589  2870  2590  0
2589  2871  2870  0
2367  2866  2369  0
2587  2872  2869  0
2587  2592  2873  0
2874  2873  2592  0
2592  2588  2874  0
2593  2874  2588  0
2875  2595  2861  0
2876  2589  2596  0
2877  2603  2369  0
2587  2873  2878  0
2587  2878  2872  0
2874  2593  2879  0
2874  2879  2873  0
2101  2597  2594  0
2595  2880  2599  0
2595  2875  2880  0
2600  2602  2596  0
2877  2604  2603  0
2877  2881  2604  0
2368  2370  2598  0
2596  2602  2882  0
2604  2881  2607  0
2370  2373  2598  0
2883  2599  2880  0
2599  2883  2371  0
2884  2607  2881  0
2373  2374  2613  0
2373  2613  2885  0
2371  2883  2609  0
2607  2884  2886  0
2887  2616  2624  0
2616  2887  2617  0
2888  2617  2887  0
2617  2888  2618  0
2124  2618  2889  0
2124  2889  2384  0
2384  2889  2613  0
2118  2614  2619  0
2607  2886  2612  0
2622  2612  2886  0
2623  2890  2624  0
2611  2610  2626  0
2611  2626  2891  0
2886  2892  2622  0
2893  2627  2628  0
2623  2627  2894  0
2623  2894  2890  0
2629  2891  2626  0
2892  2630  2622  0
2139  2622  2630  0
2895  2893  2628  0
2625  2387  2396  0
2896  2399  2144  0
2896  2144  2391  0
2896  2391  2897  0
2630  2897  2391  0
2895  2628  2632  0
2632  2633  2898  0
2393  2634  2638  0
2135  2395  2634  0
2395  2640  2634  0
2399  2896  2641  0
2633  2635  2898  0
2637  2899  2647  0
2638  2900  2637  0
2640  2639  2901  0
2640  2901  2902  0
2903  2647  2899  0
2899  2637  2900  0
2401  2642  2904  0
2905  2401  2904  0
2643  2648  2906  0
2643  2906  2907  0
2643  2907  2635  0
2645  2647  2903  0
2645  2903  2648  0
2901  2639  2908  0
2650  2401  2905  0
2909  2655  2910  0
2654  2910  2655  0
2655  2909  2656  0
2153  2658  2649  0
2649  2908  2639  0
2911  2659  2651  0
2157  2651  2659  0
2408  2912  2652  0
2653  2652  2654  0
2406  2659  2913  0
2406  2913  2405  0
2914  2915  2661  0
2661  2657  2914  0
2916  2172  2405  0
2913  2917  2405  0
2405  2917  2916  0
2663  2662  2918  0
2411  2665  2404  0
2919  2404  2665  0
2404  2919  2658  0
2920  2658  2919  0
2658  2920  2921  0
2172  2916  2413  0
2666  2922  2665  0
2919  2665  2923  0
2919  2923  2920  0
2668  2924  2667  0
2669  2925  2666  0
2666  2925  2922  0
2926  2665  2922  0
2923  2665  2926  0
2670  2927  2418  0
2928  2418  2927  0
2670  2929  2927  0
2418  2928  2668  0
2669  2673  2930  0
2669  2930  2925  0
2413  2931  2674  0
2670  2932  2929  0
2670  2671  2932  0
2675  2933  2676  0
2676  2934  2684  0
2676  2684  2423  0
2676  2933  2934  0
2934  2935  2684  0
2673  2677  2936  0
2673  2936  2930  0
2680  2937  2671  0
2680  2426  2938  0
2680  2938  2937  0
2426  2681  2938  0
2684  2939  2683  0
2684  2935  2939  0
2939  2935  2940  0
2677  2685  2941  0
2677  2941  2936  0
2678  2686  2429  0
2674  2942  2431  0
2688  2431  2942  0
2674  2943  2942  0
2944  2681  2682  0
2682  2424  2944  0
2945  2944  2424  0
2424  2683  2945  0
2946  2945  2683  0
2939  2946  2683  0
2432  2686  2679  0
2679  2430  2432  0
2688  2942  2947  0
2688  2947  2689  0
2689  2947  2690  0
2435  2691  2429  0
2429  2686  2435  0
2690  2692  2434  0
2948  2941  2685  0
2691  2435  2696  0
2686  2432  2435  0
2437  2692  2701  0
2685  2695  2948  0
2949  2209  2700  0
2950  2949  2700  0
2701  2950  2700  0
2192  2439  2704  0
2707  2708  2951  0
2209  2949  2713  0
2702  2709  2952  0
2702  2952  2695  0
2704  2439  2458  0
2953  2458  2439  0
2709  2710  2954  0
2709  2954  2955  0
2709  2955  2952  0
2458  2953  2459  0
2720  2459  2953  0
2710  2452  2718  0
2710  2718  2954  0
2715  2711  2716  0
2715  2716  2714  0
2720  2721  2457  0
2449  2956  2451  0
2957  2958  2727  0
2957  2959  2958  0
2958  2960  2727  0
2961  2960  2958  0
2960  2962  2963  0
2960  2961  2962  0
2718  2719  2964  0
2718  2964  2954  0
2719  2714  2965  0
2719  2965  2966  0
2719  2966  2964  0
2967  2964  2966  0
2714  2716  2724  0
2714  2724  2965  0
2721  2968  2460  0
2969  2717  2461  0
2736  2970  2957  0
2727  2736  2957  0
2727  2960  2726  0
2728  2726  2960  0
2960  2963  2728  0
2971  2728  2963  0
2966  2965  2967  0
2972  2967  2965  0
2965  2724  2973  0
2460  2968  2974  0
2460  2974  2224  0
2451  2956  2722  0
2734  2722  2956  0
2956  2975  2734  0
2735  2734  2975  0
2975  2970  2735  0
2736  2735  2970  0
2471  2736  2727  0
2728  2971  2729  0
2965  2973  2976  0
2977  2976  2973  0
2965  2976  2972  0
2978  2972  2976  0
2973  2724  2977  0
2723  2977  2724  0
2462  2979  2731  0
2731  2979  2980  0
2731  2980  2732  0
2981  2462  2733  0
2982  2981  2733  0
2733  2227  2224  0
2733  2224  2982  0
2983  2982  2224  0
2974  2983  2224  0
2461  2463  2969  0
2468  2734  2735  0
2729  2971  2984  0
2729  2984  2985  0
2978  2976  2986  0
2987  2986  2976  0
2988  2978  2986  0
2976  2977  2987  0
2989  2987  2977  0
2977  2723  2989  0
2990  2989  2723  0
2723  2730  2990  0
2463  2466  2969  0
2737  2729  2985  0
2737  2985  2991  0
2986  2987  2992  0
2986  2992  2988  0
2987  2989  2993  0
2987  2993  2994  0
2987  2994  2995  0
2987  2995  2992  0
2990  2730  2996  0
2990  2997  2989  0
2730  2732  2996  0
2466  2998  2969  0
2472  2737  2739  0
2994  2993  2999  0
2994  2999  2995  0
2993  2989  2997  0
2993  2997  2999  0
2738  2998  2466  0
2738  2228  2474  0
2738  2474  2998  0
2998  2474  2742  0
2998  2742  3000  0
2742  2741  3001  0
2742  3001  3000  0
2740  2743  3002  0
2740  3002  2741  0
2745  3003  2744  0
2745  2739  3003  0
3004  3005  3006  0
3004  3007  3005  0
3008  3005  3007  0
3004  3006  3009  0
3006  3010  3009  0
3006  3005  3011  0
3005  3012  3011  0
2748  3013  3014  0
3014  2749  2748  0
3014  3015  2749  0
2751  2749  3015  0
3013  2478  2746  0
2478  3013  2748  0
2752  3016  2747  0
2746  2747  3016  0
3017  3018  3016  0
3017  3016  2752  0
2754  3019  2755  0
3020  2757  2759  0
2760  2758  2762  0
2763  3021  2488  0
2488  3021  2761  0
2764  2490  3022  0
2759  2486  3020  0
3023  3020  2486  0
3024  3020  3023  0
3025  3024  3023  0
2491  2766  3026  0
2491  3026  3027  0
2491  3027  2492  0
2486  2769  3023  0
3027  2774  2492  0
2496  2768  3028  0
2496  3028  3029  0
2769  3030  3023  0
2769  2262  3031  0
2769  3031  3030  0
2499  2770  2778  0
2770  2493  3032  0
2493  2767  3033  0
2493  3033  3032  0
2767  2263  3034  0
2767  3034  3033  0
2263  2771  3034  0
2500  2772  2771  0
2768  2494  3035  0
2496  3029  2776  0
3036  2777  2776  0
2262  2498  3037  0
2262  3037  3031  0
2269  2778  2504  0
3035  2494  2775  0
2775  2779  3038  0
2777  3039  2780  0
2777  3036  3039  0
3040  3039  3036  0
3041  3039  3040  0
2504  2778  3042  0
2783  2780  3043  0
2783  3043  2782  0
2780  3039  3044  0
2780  3044  3043  0
3039  3041  3044  0
2781  2784  3045  0
2781  3045  2779  0
2779  3045  3046  0
2782  3043  3047  0
2782  3047  2785  0
3044  2791  3043  0
3048  3044  3041  0
3044  3048  2791  0
3049  2791  3048  0
2517  3050  3051  0
3052  3051  3050  0
2517  3053  3050  0
3051  3052  3054  0
3055  3054  3052  0
2784  3056  3045  0
2787  2786  3057  0
2786  2785  3058  0
2785  3047  3059  0
2785  3059  3058  0
3047  3043  3060  0
3047  3060  3059  0
3043  2791  3060  0
2792  3060  2791  0
2791  3049  2790  0
3061  2790  3049  0
2790  3061  2794  0
3062  2793  2794  0
2517  2799  3053  0
3063  2514  2787  0
2787  3057  3063  0
3064  3057  2786  0
3059  3060  3058  0
3065  3058  3060  0
3060  2792  3065  0
2795  3065  2792  0
2793  3062  3066  0
2793  3066  2798  0
2519  3067  2520  0
2808  2520  3067  0
2808  3068  2528  0
2528  3068  2521  0
2521  3068  2522  0
2522  3069  2523  0
2523  3069  2801  0
2801  2802  2524  0
2801  3070  2802  0
3071  2516  2525  0
2516  3071  2784  0
2514  3063  2811  0
3072  2795  2803  0
2797  3073  2806  0
2797  2798  3073  0
2814  2800  2807  0
2802  3074  2809  0
2525  2810  3071  0
2811  3063  3075  0
2811  3075  2815  0
2803  2805  3072  0
3076  3072  2805  0
2814  2813  3077  0
2814  3077  3078  0
2809  3074  3079  0
2805  2804  3076  0
2804  2806  3080  0
2804  3080  3076  0
2813  2818  3077  0
2809  3079  2816  0
3081  2816  3079  0
2810  2817  3082  0
2818  2819  3083  0
2818  3083  3077  0
2819  3084  3083  0
2819  2820  3084  0
2820  2821  3085  0
2820  3085  3084  0
2821  3086  3085  0
2821  2822  3087  0
2816  3088  2825  0
2816  3081  3088  0
2817  3089  3082  0
2817  2826  3089  0
3088  2543  2825  0
2543  3088  2545  0
2829  3090  2830  0
2830  3090  2831  0
2833  2546  2831  0
2827  2320  2834  0
2836  2834  2333  0
2545  3091  2835  0
3092  2835  3091  0
2833  3093  2832  0
2839  2550  2070  0
2326  2550  3094  0
2326  3094  2551  0
2551  3094  2836  0
3095  2837  2835  0
2835  3092  3096  0
2835  3096  3095  0
2832  3097  2838  0
2832  3093  3098  0
2832  3098  3097  0
2843  2839  2340  0
2329  2837  2553  0
2837  3095  3099  0
2837  3099  2553  0
2337  2840  3100  0
2841  3101  2555  0
2842  2555  3101  0
2841  2838  3102  0
2841  3102  3101  0
3099  3103  2553  0
2842  3101  3104  0
2842  3104  2844  0
2558  2844  3105  0
3106  2843  2345  0
2553  3103  2845  0
3107  2840  2554  0
2554  2846  3107  0
2847  2848  3108  0
3109  2848  2562  0
2562  2558  3109  0
3110  3109  2558  0
2558  3105  3111  0
2558  3111  3110  0
2563  2845  3112  0
2561  2847  3113  0
2561  3113  2849  0
2847  3108  3114  0
2847  3114  3113  0
2848  3109  3115  0
2848  3115  3108  0
2563  3112  3116  0
2563  3116  2850  0
2565  2564  3117  0
2565  3117  2846  0
2564  3118  3119  0
2564  3119  3117  0
2345  2570  3120  0
2850  3121  2851  0
3122  2568  3123  0
3122  3123  3124  0
2570  3125  3120  0
3126  2576  2851  0
2572  2853  3127  0
2572  3127  2573  0
2577  2576  3126  0
2579  2585  3128  0
2579  3128  2852  0
2852  3128  2853  0
2853  3128  3129  0
2853  3129  3127  0
2854  2573  3127  0
2581  3130  2580  0
2570  2855  3125  0
2583  2582  3131  0
2582  2577  3132  0
2582  3132  3133  0
2582  3133  3131  0
2858  2857  2867  0
3134  2858  2867  0
2858  3135  2859  0
2585  3136  3128  0
2585  2868  3136  0
3137  3136  2868  0
3130  2581  2854  0
3138  2580  3130  0
2580  3138  2855  0
2361  2856  2861  0
3139  2856  2583  0
2583  3131  3139  0
2862  3140  2863  0
2591  2365  2863  0
2863  3140  3141  0
2863  3141  2864  0
2864  3141  3134  0
2864  3134  2867  0
2867  2857  2866  0
3142  2866  2857  0
2857  2860  3142  0
3143  2860  2859  0
2859  3144  3145  0
2859  3145  3143  0
2868  2869  3137  0
2861  2856  2875  0
2590  2870  3146  0
2590  3146  3147  0
2866  3142  2369  0
3148  2369  3142  0
3149  3142  2860  0
2860  3143  3149  0
2869  2872  3137  0
2589  2876  2871  0
2369  3150  2877  0
2369  3148  3150  0
3151  2879  2593  0
2593  2594  3151  0
2594  2597  3151  0
2876  3152  2871  0
2878  3153  2872  0
2878  2873  3154  0
2873  2879  3154  0
2879  3151  3154  0
3151  2597  3155  0
2876  2596  3156  0
2876  3156  3152  0
2596  2882  3156  0
2602  2601  2605  0
2602  2605  3157  0
2602  3157  2882  0
2878  3158  3153  0
2878  3154  3158  0
3154  3151  3159  0
3154  3159  3158  0
2598  2885  2597  0
2598  2373  2885  0
2880  3160  2883  0
2605  2606  3157  0
2884  2881  3161  0
3162  2883  3163  0
2883  3162  2609  0
2606  2608  3164  0
2606  3164  3157  0
2609  3162  2614  0
2608  2611  3165  0
2608  3165  3164  0
2884  3166  2886  0
2884  3167  3166  0
2888  3168  2618  0
2618  3168  2889  0
2614  3164  2619  0
2611  2891  3165  0
2624  2890  2887  0
3169  2887  2890  0
2887  3169  2888  0
3168  2888  3169  0
3168  3170  2889  0
3171  3165  2891  0
2886  3166  2892  0
2627  2893  2894  0
3172  2890  2894  0
2890  3172  3169  0
2891  2629  3171  0
3173  2630  2892  0
3166  3173  2892  0
3174  2893  2895  0
2893  3174  2894  0
2397  2620  3171  0
2397  3171  2629  0
3173  2897  2630  0
2632  2898  2895  0
3175  2895  2898  0
3176  2642  2641  0
2898  3177  3175  0
2638  2634  3178  0
2638  3178  2900  0
2904  2642  3176  0
2898  2635  3179  0
2898  3179  3177  0
2635  2907  3180  0
2635  3180  3179  0
2903  2899  3181  0
2899  2900  3182  0
2899  3182  3181  0
2901  2908  3183  0
2901  3183  2902  0
2650  2905  3184  0
3185  2912  3186  0
2912  3185  2652  0
3187  2652  3185  0
2652  2910  2654  0
2652  3187  2910  0
3188  2909  2910  0
2909  3189  2656  0
2909  3188  3189  0
2907  2906  3190  0
2907  3190  3180  0
2906  2648  3190  0
2648  2903  3181  0
2648  3181  3190  0
2911  2651  3191  0
2911  3191  3192  0
2651  2650  3191  0
2650  3184  3191  0
2660  3193  2408  0
2408  3193  2912  0
2656  3189  3194  0
2656  3194  2657  0
2921  2649  2658  0
3195  2908  2649  0
2659  2911  2913  0
3196  2662  2915  0
2661  2915  2662  0
3197  3196  2915  0
2915  2914  3197  0
3194  2914  2657  0
2921  3195  2649  0
2921  3198  3195  0
3196  3199  2918  0
2918  2662  3196  0
2920  3198  2921  0
3200  2918  3201  0
3199  3201  2918  0
3202  2920  2923  0
2920  3202  3198  0
2927  3203  2928  0
2668  2928  2924  0
2928  3203  2924  0
2924  3204  2667  0
3205  2926  3206  0
2926  3205  2923  0
3207  2923  3205  0
2923  3207  3202  0
3208  3202  3207  0
2413  2916  2931  0
2922  2925  3209  0
2922  3209  2926  0
2926  3209  3206  0
3206  3210  3205  0
3205  3210  3207  0
3207  3210  3208  0
2931  3211  2674  0
3212  2674  3211  0
2932  2671  2937  0
2933  3213  2934  0
3214  2934  3213  0
2934  3214  2935  0
3215  2935  3214  0
2935  3215  2940  0
2925  2930  3209  0
3206  3209  3216  0
3206  3216  3210  0
2674  3212  2943  0
2937  2938  3217  0
2938  2681  3218  0
2936  2941  3219  0
2936  3219  2930  0
2930  3219  3220  0
2930  3220  3209  0
3209  3220  3221  0
3209  3221  3216  0
2943  2947  2942  0
2943  3222  2947  0
3223  2947  3222  0
3224  2947  3223  0
2681  2944  3218  0
2939  2940  3225  0
2939  3225  3226  0
3227  2939  3226  0
3219  2941  3228  0
3219  3228  3229  0
3219  3229  3220  0
3220  3229  3230  0
3220  3230  3221  0
2947  3224  2690  0
2946  2939  3231  0
2939  3227  3231  0
3229  3232  3230  0
2692  2690  3233  0
2690  3224  3233  0
2941  2948  3228  0
3228  2948  3229  0
3234  3229  2948  0
3229  3234  3232  0
3232  3234  3230  0
3235  3230  3234  0
3236  2950  3233  0
2701  3233  2950  0
3224  3236  3233  0
3233  2701  2692  0
3237  3234  2948  0
3234  3237  3235  0
2951  3238  2707  0
2948  2695  3237  0
3237  3239  3235  0
2439  2697  2953  0
2697  2698  2953  0
2695  2952  3237  0
3237  2952  3239  0
3240  3239  2952  0
2953  2698  3241  0
2952  2955  3240  0
3242  3240  2955  0
2953  3241  2720  0
2721  2720  3241  0
2968  2721  3241  0
3241  3243  2968  0
2708  2717  2951  0
2713  2949  2449  0
2959  2449  2949  0
2949  3244  2959  0
3244  3245  2959  0
3245  3246  2958  0
3245  2958  2959  0
3245  3247  3246  0
3246  2961  2958  0
2961  3248  2962  0
2961  3246  3249  0
2961  3249  3248  0
2955  2954  2964  0
2955  2964  3242  0
2449  2959  2956  0
2959  2970  2956  0
2959  2957  2970  0
2962  3250  2963  0
2962  3248  3250  0
2971  2963  3250  0
2964  2967  3251  0
2964  3251  3242  0
2956  2970  2975  0
2972  3252  2967  0
3251  2967  3252  0
2972  3253  3252  0
2979  2462  3254  0
2979  3254  3255  0
3256  2979  3255  0
3254  2462  2981  0
2968  3257  2974  0
2969  3258  2717  0
2972  2978  3259  0
2972  3259  3253  0
2979  3256  2980  0
2981  3260  3254  0
2982  2983  3261  0
2982  3261  2981  0
2978  2988  3259  0
2732  2980  2996  0
2980  3256  2996  0
3262  2996  3256  0
3263  3260  2981  0
2981  3261  3263  0
3264  2739  2991  0
2737  2991  2739  0
3264  2991  3265  0
3266  2988  3267  0
2992  3267  2988  0
3259  2988  3266  0
3268  3266  3267  0
2990  2996  2997  0
3269  2997  2996  0
2996  3262  3269  0
2969  2998  3270  0
3000  3270  2998  0
3271  3267  2992  0
2992  2995  3271  0
3272  3271  2995  0
2995  2999  3272  0
2999  2997  3273  0
3269  3273  2997  0
2999  3273  3274  0
2999  3274  3272  0
3001  3275  3000  0
3264  3003  2739  0
3002  3001  2741  0
3276  3002  2743  0
2743  2475  3276  0
3002  3276  3277  0
3278  3276  2475  0
2475  2744  3278  0
2744  3003  3278  0
3007  3004  3009  0
3007  3279  3280  0
3007  3009  3281  0
3007  3281  3279  0
3007  3280  3282  0
3007  3282  3008  0
3008  3282  3283  0
3008  3284  3012  0
3008  3012  3005  0
3008  3283  3284  0
3009  3285  3281  0
3012  3284  3286  0
3287  3014  3013  0
3287  3013  3288  0
3287  3288  3289  0
3287  3290  3015  0
3287  3015  3014  0
3009  3291  3285  0
3292  3012  3286  0
3293  3015  3290  0
3294  3015  3293  0
3009  3010  3295  0
3009  3295  3291  0
3006  3011  3296  0
3006  3296  3010  0
3011  3012  3292  0
3011  3292  3296  0
2746  3297  3013  0
3015  3294  2751  0
2746  3016  3297  0
2751  3294  2753  0
3298  2755  3019  0
2754  2753  3299  0
2754  3299  3019  0
2753  3294  3300  0
2753  3300  3299  0
2755  3298  2756  0
2757  3301  2758  0
3302  2758  3301  0
2757  3020  3301  0
3303  3301  3020  0
3304  2758  3302  0
2758  3304  2762  0
2763  2762  3304  0
3020  3024  3303  0
2763  3305  3021  0
2764  3306  2765  0
2766  2765  3026  0
3027  3026  3307  0
3308  3030  3031  0
3023  3030  3025  0
3309  3034  2771  0
2771  2772  3309  0
3310  3309  2772  0
2772  2773  3310  0
3311  3310  2773  0
2773  2774  3311  0
2774  3027  3307  0
2774  3307  3312  0
2774  3312  3311  0
2768  3035  3028  0
3313  3028  3035  0
3028  3313  3314  0
3028  3314  3029  0
2776  3029  3315  0
2776  3315  3036  0
3036  3315  3040  0
3031  3037  3308  0
3316  3308  3037  0
2778  2770  3317  0
2778  3317  3318  0
2770  3032  3317  0
3035  2775  3319  0
3320  3041  3040  0
3040  3315  3321  0
3040  3321  3320  0
3322  3042  3323  0
3042  2778  3318  0
3042  3318  3323  0
3038  3319  2775  0
3041  3320  3048  0
3320  3321  3324  0
3320  3324  3048  0
3055  3325  3037  0
3055  3052  3325  0
3323  3318  3326  0
3046  3038  2779  0
3048  3324  3327  0
3048  3327  3049  0
3050  3328  3052  0
3050  3053  3329  0
3050  3329  3328  0
3323  3326  3067  0
3045  3056  3330  0
3045  3330  3046  0
2786  3058  3064  0
3049  3327  3061  0
3061  3062  2794  0
3053  2799  3331  0
3053  3331  3329  0
3068  3332  2522  0
3332  3069  2522  0
3333  3069  3334  0
2784  3335  3056  0
3056  3335  3330  0
3058  3336  3064  0
3058  3065  3336  0
3065  2795  3337  0
3065  3337  3338  0
3065  3338  3336  0
3061  3339  3062  0
2799  2800  3331  0
2800  3340  3331  0
2800  2814  3340  0
3341  2808  3067  0
2808  3341  3068  0
3069  3333  2801  0
3070  2801  3333  0
2784  3071  3335  0
3064  3342  3057  0
3343  3338  3337  0
3337  2795  3072  0
3337  3072  3343  0
3344  3066  3062  0
