#!ascii file
1638  1639  1636  0
1640  1636  1639  0
1410  1407  1641  0
1415  1414  1642  0
1414  1643  1642  0
1643  1414  1644  0
1414  1413  1645  0
1414  1645  1644  0
1646  1647  1648  0
1647  1649  1648  0
1647  1650  1649  0
1647  1651  1650  0
1650  1651  1652  0
1653  1654  1655  0
1653  1656  1657  0
1653  1655  1656  0
1646  1658  1659  0
1646  1648  1658  0
1649  1660  1648  0
1649  1650  1661  0
1649  1661  1660  0
1650  1652  1661  0
1654  1653  1662  0
1654  1662  1663  0
1654  1663  1664  0
1653  1657  1662  0
1657  1656  1665  0
1648  1660  1666  0
1667  1660  1661  0
1661  1652  1667  0
1668  1667  1652  0
1652  1669  1668  0
1668  1669  1670  0
1662  1657  1671  0
1665  1671  1657  0
1672  1416  1673  0
1674  1673  1416  0
1416  1672  1417  0
1675  1660  1667  0
1676  1667  1668  0
1677  1676  1668  0
1668  1670  1677  0
1663  1662  1678  0
1679  1678  1662  0
1662  1671  1679  0
1187  1674  1416  0
1187  1190  1674  0
1680  1674  1190  0
1681  1419  1417  0
1682  1419  1681  0
1667  1676  1683  0
1684  1677  1670  0
1190  1421  1680  0
1419  1682  1420  0
1684  1683  1676  0
1676  1677  1684  0
1420  1685  1191  0
1420  1191  1418  0
1422  1686  1421  0
1191  1687  1425  0
1191  1685  1687  0
1424  1688  1689  0
1424  1689  1200  0
1424  1200  1192  0
1422  1426  1690  0
1422  1690  1686  0
1203  1425  1691  0
1692  1210  1432  0
1692  1432  1693  0
1689  1427  1200  0
1425  1694  1691  0
1691  1429  1203  0
1427  1689  1695  0
1427  1695  1433  0
1437  1696  1438  0
1697  1438  1696  0
1698  1696  1437  0
1438  1697  1439  0
1433  1695  1434  0
1699  1440  1434  0
1436  1700  1437  0
971  1439  1443  0
1431  1430  1701  0
1449  1444  1221  0
1435  1702  1441  0
1441  1703  1442  0
1704  1442  1703  0
1442  1704  1214  0
1705  1214  1704  0
1214  1705  1436  0
1706  1436  1705  0
1436  1706  1700  0
1444  1449  1707  0
1708  1707  1449  0
1449  1448  1708  0
1709  1708  1448  0
1448  1440  1709  0
1699  1709  1440  0
1224  1447  1710  0
1224  1710  1711  0
1224  1711  1226  0
1446  1712  1450  0
1446  1451  1713  0
1446  1713  1712  0
1452  1225  1227  0
1227  981  1714  0
1227  1714  1452  0
1233  1453  1228  0
1230  1454  1715  0
1230  1715  1458  0
1716  1717  1241  0
1241  1717  1459  0
1459  1718  1455  0
1455  1718  1719  0
1455  1719  1456  0
1456  1719  1457  0
1457  1719  1720  0
1457  1720  1236  0
981  1238  1714  0
1721  1714  1238  0
1233  1461  1722  0
1723  1722  1461  0
1716  1464  1724  0
1725  1724  1464  0
1464  1716  1241  0
1236  1469  1237  0
1236  1720  1469  0
987  1465  1238  0
1463  1458  1474  0
1726  1458  1715  0
1727  1725  1464  0
1464  1468  1727  0
1728  1468  1475  0
988  1471  1465  0
1721  1238  1465  0
1466  1729  1247  0
1461  1255  1730  0
1467  1474  1473  0
1726  1474  1458  0
1475  1731  1728  0
1732  1476  1470  0
1247  1733  1479  0
1484  1734  1255  0
1255  1734  1730  0
1472  1735  1480  0
1472  1473  1735  0
1474  1726  1736  0
1474  1736  1473  0
1476  1732  1737  0
1476  1737  1249  0
1478  1250  1483  0
1484  1018  1491  0
1735  1473  1738  0
1473  1736  1738  0
1482  1490  1739  0
1482  1739  1740  0
1487  1249  1737  0
1487  1737  1741  0
1487  1741  1742  0
1487  1742  1488  0
1251  1479  1743  0
1251  1743  1254  0
1489  1480  1744  0
1480  1735  1744  0
1735  1738  1745  0
1735  1745  1744  0
1490  1271  1739  0
1483  1258  1746  0
1254  1743  1499  0
1254  1499  1268  0
1259  1489  1493  0
1747  1493  1489  0
1489  1744  1747  0
1739  1271  1497  0
1258  1495  1748  0
1749  1492  1269  0
1262  1493  1750  0
1751  1750  1493  0
1752  1495  1496  0
1036  1502  1269  0
1749  1269  1502  0
1262  1750  1753  0
1278  1277  1504  0
1494  1504  1277  0
1754  1755  1756  0
1757  1756  1755  0
1755  1758  1757  0
1496  1501  1752  0
1279  1500  1502  0
1753  1503  1262  0
1498  1289  1759  0
1498  1759  1760  0
1498  1760  1761  0
1504  1762  1505  0
1756  1757  1763  0
1756  1763  1764  0
1756  1764  1765  0
1756  1765  1754  0
1757  1758  1766  0
1757  1766  1763  0
1758  1767  1768  0
1758  1768  1766  0
1501  1769  1752  0
1289  1295  1759  0
1505  1770  1290  0
1763  1766  1771  0
1763  1771  1772  0
1763  1772  1773  0
1763  1773  1764  0
1501  1514  1769  0
1511  1512  1293  0
1295  1516  1759  0
1290  1770  1774  0
1290  1774  1513  0
1775  1773  1772  0
1771  1766  1776  0
1771  1777  1772  0
1507  1778  1506  0
1509  1779  1510  0
1510  1780  1511  0
1510  1779  1780  0
1781  1780  1779  0
1511  1780  1512  0
1782  1515  1512  0
1516  1294  1783  0
1520  1783  1294  0
1513  1774  1517  0
1784  1517  1774  0
1517  1518  1298  0
1517  1784  1518  0
1777  1775  1772  0
1785  1514  1519  0
1786  1506  1778  0
1506  1786  1508  0
1787  1508  1786  0
1508  1787  1509  0
1509  1787  1779  0
1788  1779  1787  0
1781  1779  1788  0
1300  1515  1525  0
1789  1515  1782  0
1783  1520  1790  0
1521  1790  1520  0
1783  1790  1791  0
1792  1522  1518  0
1519  1302  1785  0
1793  1785  1302  0
1523  1525  1526  0
1525  1515  1794  0
1789  1794  1515  0
1795  1525  1794  0
1796  1790  1797  0
1798  1797  1790  0
1791  1790  1796  0
1799  1796  1797  0
1790  1521  1798  0
1800  1798  1521  0
1521  1304  1800  0
1527  1800  1304  0
1528  1522  1801  0
1792  1801  1522  0
1302  1306  1802  0
1302  1802  1793  0
1531  1526  1795  0
1526  1525  1795  0
1803  1804  1799  0
1803  1805  1806  0
1803  1806  1804  0
1799  1797  1807  0
1799  1807  1803  0
1797  1798  1808  0
1797  1808  1807  0
1798  1800  1809  0
1798  1809  1808  0
1800  1527  1810  0
1800  1810  1811  0
1800  1811  1809  0
1527  1528  1810  0
1308  1533  1314  0
1306  1535  1812  0
1306  1812  1802  0
1529  1813  1535  0
1529  1536  1813  0
1536  1310  1539  0
1536  1539  1814  0
1815  1816  1530  0
1815  1530  1524  0
1815  1524  1531  0
1803  1807  1817  0
1803  1817  1805  0
1807  1808  1817  0
1808  1809  1818  0
1808  1818  1817  0
1314  1533  1819  0
1814  1539  1542  0
1530  1820  1537  0
1540  1537  1820  0
1805  1817  1821  0
1817  1818  1821  0
1534  1315  1822  0
1314  1819  1077  0
1546  1077  1819  0
1823  1542  1541  0
1820  1530  1816  0
1543  1540  1824  0
1315  1545  1822  0
1547  1322  1321  0
1547  1823  1541  0
1824  1540  1820  0
1544  1543  1824  0
1084  1825  1549  0
1084  1548  1825  0
1824  1826  1544  0
1550  1544  1826  0
1827  1333  1094  0
1828  1826  1824  0
1094  1551  1827  0
1096  1829  1339  0
1096  1097  1830  0
1096  1830  1829  0
1097  1337  1555  0
1097  1555  1830  0
1562  1828  1831  0
1562  1831  1832  0
1828  1556  1826  0
1826  1556  1552  0
1826  1552  1550  0
1553  1339  1833  0
1339  1834  1833  0
1835  1347  1561  0
1835  1836  1837  0
1835  1837  1347  0
1561  1832  1835  0
1561  1562  1832  0
1828  1562  1557  0
1828  1557  1556  0
1837  1346  1347  0
1837  1838  1346  0
1561  1560  1562  0
1341  1558  1839  0
1840  1839  1558  0
1841  1559  1838  0
1841  1842  1559  0
1559  1346  1838  0
1125  1567  1843  0
1844  1843  1567  0
1843  1845  1125  0
1355  1125  1845  0
1356  1355  1845  0
1845  1558  1356  0
1115  1356  1558  0
1845  1840  1558  0
1559  1842  1358  0
1571  1358  1842  0
1846  1344  1563  0
1846  1847  1344  0
1848  1344  1847  0
1344  1848  1345  0
1564  1345  1848  0
1566  1352  1849  0
1354  1569  1567  0
1844  1567  1569  0
1569  1570  1850  0
1364  1574  1148  0
1364  1851  1574  0
1361  1576  1852  0
1576  1853  1852  0
1576  1577  1853  0
1854  1855  1856  0
1854  1856  1583  0
1854  1583  1857  0
1854  1857  1858  0
1854  1858  1859  0
1857  1583  1585  0
1857  1860  1858  0
1575  1861  1579  0
1579  1861  1862  0
1579  1862  1580  0
1578  1368  1863  0
1864  1865  1866  0
1864  1867  1865  0
1855  1867  1868  0
1868  1856  1855  0
1856  1584  1583  0
1585  1586  1587  0
1585  1587  1857  0
1587  1588  1869  0
1870  1869  1588  0
1871  1372  1580  0
1580  1872  1871  0
1866  1873  1874  0
1874  1593  1864  0
1592  1864  1593  0
1874  1864  1866  0
1864  1592  1867  0
1595  1867  1592  0
1596  1867  1595  0
1867  1596  1868  0
1875  1868  1596  0
1868  1875  1856  0
1597  1584  1856  0
1588  1589  1870  0
1876  1870  1589  0
1598  1876  1589  0
1372  1871  1383  0
1376  1599  1590  0
1599  1877  1590  0
1874  1878  1879  0
1879  1591  1593  0
1879  1593  1874  0
1880  1856  1875  0
1856  1880  1597  0
1598  1383  1881  0
1882  1881  1383  0
1598  1881  1883  0
1598  1883  1876  0
1383  1871  1882  0
1388  1884  1599  0
1885  1879  1886  0
1887  1885  1886  0
1879  1885  1609  0
1879  1609  1591  0
1596  1600  1880  0
1596  1880  1875  0
1888  1881  1889  0
1888  1883  1881  0
1882  1871  1890  0
1388  1604  1884  0
1887  1891  1885  0
1887  1892  1891  0
1591  1609  1602  0
1880  1600  1893  0
1880  1603  1597  0
1894  1895  1888  0
1894  1888  1889  0
1894  1896  1895  0
1889  1881  1897  0
1881  1882  1898  0
1881  1898  1897  0
1882  1890  1898  0
1604  1606  1899  0
1604  1899  1900  0
1901  1899  1606  0
1610  1885  1891  0
1885  1610  1609  0
1609  1608  1602  0
1614  1602  1608  0
1602  1614  1600  0
1893  1600  1614  0
1902  1880  1893  0
1880  1902  1603  0
1605  1603  1902  0
1903  1896  1894  0
1894  1889  1903  0
1904  1903  1889  0
1889  1897  1904  0
1905  1904  1897  0
1897  1898  1906  0
1897  1906  1905  0
1606  1607  1901  0
1907  1892  1901  0
1892  1907  1891  0
1908  1891  1907  0
1909  1891  1908  0
1891  1909  1610  0
1893  1910  1902  0
1911  1902  1910  0
1902  1911  1605  0
1612  1605  1911  0
1896  1903  1912  0
1913  1912  1903  0
1896  1912  1914  0
1915  1914  1912  0
1903  1904  1913  0
1916  1913  1904  0
1904  1905  1916  0
1615  1901  1607  0
1901  1615  1907  0
1616  1610  1909  0
1614  1613  1619  0
1614  1619  1917  0
1614  1917  1893  0
1893  1917  1910  0
1912  1913  1918  0
1912  1918  1919  0
1912  1919  1915  0
1913  1916  1918  0
1907  1615  1618  0
1907  1618  1908  0
1908  1618  1623  0
1908  1623  1909  0
1909  1623  1616  0
1616  1620  1613  0
1918  1916  1920  0
1623  1400  1626  0
1623  1626  1616  0
1616  1626  1921  0
1616  1921  1620  0
1620  1921  1619  0
1619  1921  1922  0
1630  1921  1626  0
1923  1921  1630  0
1630  1631  1924  0
1630  1924  1923  0
1925  1633  1632  0
1632  1634  1925  0
1634  1635  1925  0
1631  1633  1924  0
1926  1924  1633  0
1633  1925  1926  0
1927  1926  1925  0
1928  1927  1925  0
1637  1929  1638  0
1639  1638  1929  0
1929  1930  1639  0
1929  1931  1930  0
1930  1931  1932  0
1933  1934  1935  0
1936  1935  1934  0
1934  1637  1936  0
1636  1936  1637  0
1641  1937  1938  0
1936  1636  1939  0
1936  1939  1940  0
1641  1938  1410  0
1938  1941  1410  0
1939  1942  1940  0
1410  1941  1411  0
1411  1941  1943  0
1411  1943  1413  0
1943  1941  1944  0
1645  1413  1945  0
1645  1945  1644  0
1946  1651  1947  0
1948  1651  1946  0
1949  1646  1950  0
1646  1659  1950  0
1949  1647  1646  0
1949  1947  1647  0
1947  1651  1647  0
1651  1948  1652  0
1948  1951  1652  0
1948  1952  1951  0
1655  1953  1656  0
1954  1659  1658  0
1955  1954  1658  0
1658  1648  1666  0
1658  1666  1955  0
1956  1955  1666  0
1669  1652  1951  0
1957  1664  1663  0
1664  1958  1655  0
1664  1655  1654  0
1656  1959  1665  0
1656  1953  1960  0
1656  1960  1959  0
1666  1660  1675  0
1666  1675  1956  0
1961  1956  1675  0
1669  1962  1670  0
1669  1951  1963  0
1669  1963  1962  0
1678  1964  1663  0
1663  1965  1957  0
1663  1964  1965  0
1966  1965  1964  0
1967  1679  1671  0
1671  1665  1967  0
1673  1968  1672  0
1672  1969  1417  0
1681  1417  1969  0
1672  1968  1970  0
1672  1970  1969  0
1681  1969  1971  0
1675  1667  1683  0
1675  1683  1972  0
1675  1972  1961  0
1962  1973  1974  0
1962  1974  1670  0
1964  1678  1975  0
1964  1975  1976  0
1964  1976  1977  0
1964  1977  1966  0
1678  1679  1978  0
1678  1978  1975  0
1679  1967  1979  0
1679  1979  1978  0
1980  1681  1971  0
1683  1981  1972  0
1670  1974  1982  0
1670  1982  1684  0
1974  1973  1983  0
1974  1983  1982  0
1984  1977  1976  0
1984  1985  1977  0
1976  1975  1986  0
1987  1986  1975  0
1680  1988  1674  0
1682  1681  1980  0
1683  1684  1981  0
1684  1989  1981  0
1990  1982  1983  0
1680  1421  1988  0
1991  1988  1421  0
1992  1993  1682  0
1682  1993  1420  0
1684  1982  1994  0
1990  1994  1982  0
1686  1991  1421  0
1420  1993  1995  0
1420  1995  1685  0
1996  1686  1690  0
1685  1997  1687  0
1432  1998  1693  0
1424  1999  1688  0
1690  1426  1996  0
1694  1425  2000  0
1425  1687  2000  0
2001  1998  1432  0
1426  1428  2002  0
1426  2002  1996  0
2000  2003  1694  0
1694  2003  1691  0
1691  1435  1429  0
1691  2003  2004  0
1691  2004  1435  0
1432  1431  1701  0
1432  1701  2001  0
1689  2005  1695  0
1695  1699  1434  0
1695  2005  2006  0
1695  2006  1699  0
1428  1219  2007  0
1428  2007  2002  0
1435  2004  1702  0
1437  1700  2008  0
1437  2008  1698  0
2009  1439  1697  0
1439  2009  1443  0
2010  1443  2009  0
1701  1430  2011  0
1430  1444  1707  0
1430  1707  2011  0
1699  2006  1709  0
2007  1219  2012  0
1702  2013  1703  0
1702  1703  1441  0
1443  2010  1447  0
2014  1447  2010  0
1707  1708  2015  0
1707  2015  2016  0
1707  2016  2011  0
1708  1709  2017  0
1708  2017  2015  0
2018  2017  1709  0
1219  1445  2012  0
2019  1706  1705  0
1447  2014  1710  0
2015  2020  2021  0
2015  2021  2016  0
2015  2017  2022  0
2015  2022  2020  0
2017  2018  2022  0
2023  2012  1445  0
1445  1450  2023  0
1712  2023  1450  0
1452  1713  1451  0
2013  2024  1703  0
1704  1703  2024  0
1704  2025  1705  0
2019  1705  2025  0
1453  2026  1454  0
2021  2020  1717  0
1459  1717  2020  0
2027  2021  1717  0
2020  2022  1459  0
1718  1459  2022  0
2022  2028  1718  0
1713  1452  2029  0
978  1226  2030  0
1711  2030  1226  0
1233  1722  1453  0
2031  1453  1722  0
1453  2031  2026  0
1454  2026  1715  0
1716  2027  1717  0
1719  1718  2032  0
1460  978  2030  0
1460  2030  2033  0
1722  1723  2031  0
1715  2026  2034  0
1720  1719  2035  0
1720  2035  1469  0
1466  1460  2033  0
1466  2033  2036  0
1466  2036  1729  0
1461  2037  1723  0
2038  1715  2034  0
1715  2038  1726  0
1727  1468  1728  0
1469  2035  1470  0
1465  2039  1721  0
1730  2037  1461  0
2040  1465  1471  0
2039  1465  2040  0
1733  1247  1729  0
2037  1730  1734  0
1731  1475  1482  0
1731  1482  1740  0
2041  1731  1740  0
2042  1737  1732  0
1477  2043  1471  0
1477  1478  2043  0
2044  2043  1478  0
2045  1479  1733  0
2046  1484  1491  0
1484  2047  1734  0
2037  1734  2047  0
2048  1738  1736  0
1736  1726  2049  0
1736  2049  2050  0
1736  2050  2048  0
1740  1739  2041  0
1741  1737  2051  0
2042  2051  1737  0
2052  2044  1478  0
1479  2045  1743  0
2046  1491  1492  0
2053  1745  1738  0
2054  2053  1738  0
1738  2048  2054  0
2055  2054  2048  0
2048  2050  2055  0
2041  1739  2056  0
1488  1742  1494  0
1741  2057  1742  0
1478  1483  2052  0
1746  2052  1483  0
1748  1746  1258  0
1743  2058  1499  0
1749  2046  1492  0
2059  1739  1497  0
2059  2056  1739  0
1746  1748  2060  0
1495  2061  1748  0
1499  2058  2062  0
1499  2062  1500  0
1493  1747  1751  0
1747  1744  2063  0
1744  1745  2063  0
1745  2053  2063  0
2053  2054  2064  0
2053  2064  2065  0
2053  2065  2063  0
2059  1497  1498  0
2059  1498  1761  0
1494  1742  1762  0
1495  1752  2061  0
2066  1500  2062  0
1500  2066  1502  0
1749  1502  2066  0
1751  1747  2067  0
1747  2063  2067  0
1504  1494  1762  0
2068  2069  2070  0
2071  2070  2069  0
2070  1755  1754  0
2070  1754  2068  0
2070  2071  1755  0
2072  1755  2071  0
1755  2072  1758  0
1758  2072  1767  0
2073  2074  1750  0
1753  1750  2074  0
1750  1751  2073  0
2075  1505  1762  0
2068  1754  2076  0
1765  2076  1754  0
2077  1767  2072  0
1767  2077  1768  0
1752  1769  2078  0
2074  2079  1753  0
1503  1753  2079  0
2080  2079  2074  0
1760  1759  2081  0
2082  2081  1759  0
1505  2075  1770  0
2068  2076  2083  0
2084  2076  1765  0
1765  1764  2084  0
1773  2084  1764  0
1768  2077  2085  0
1768  2085  1766  0
1766  2085  2086  0
1766  2086  1776  0
2087  2078  1769  0
1759  1516  2082  0
1783  2082  1516  0
1770  2088  1774  0
1774  2088  2089  0
1775  2084  1773  0
1771  1776  1777  0
1776  2086  2090  0
1776  2090  1777  0
1769  1514  2087  0
1780  1781  1782  0
1780  1782  1512  0
2082  1783  2091  0
1783  1791  2091  0
1774  2089  1784  0
1784  2089  2092  0
1784  2092  1518  0
1518  2092  1792  0
1775  1777  2093  0
1775  2093  2094  0
1514  1785  2095  0
1514  2095  2087  0
1507  1503  1778  0
1788  2096  1781  0
2097  1789  1782  0
1793  2095  1785  0
1778  2098  1786  0
1787  1786  2098  0
1787  2099  1788  0
1789  2097  1794  0
2100  1794  2097  0
1804  2101  1799  0
2102  1799  2101  0
1804  2103  2101  0
1799  2102  2104  0
2104  1796  1799  0
2105  1796  2104  0
1796  2105  1791  0
1528  1801  1810  0
1795  2106  1531  0
1795  2107  2106  0
1795  1794  2108  0
1795  2108  2107  0
1794  2100  2108  0
2109  2108  2100  0
1804  1806  2103  0
2110  2103  1806  0
2111  1809  1811  0
1532  2112  1533  0
1533  2112  2113  0
1793  1802  2114  0
2115  2114  1802  0
1802  1812  2115  0
1813  1812  1535  0
1813  1536  2116  0
1814  2116  1536  0
2106  2117  1531  0
1531  2117  1815  0
2106  2107  2118  0
2108  2118  2107  0
1806  1805  2110  0
1818  1809  2111  0
1532  1534  2119  0
1533  2113  1819  0
2116  2115  1812  0
1812  1813  2116  0
2116  1814  1542  0
1816  2120  2121  0
2120  1816  1815  0
2120  1815  2117  0
1805  1821  2122  0
1822  2119  1534  0
1819  2113  1546  0
1321  1546  2123  0
1546  2113  2123  0
2116  1542  1823  0
2116  1823  2124  0
2121  2125  2126  0
2121  2120  2127  0
2121  2127  2128  0
2121  2128  2125  0
2121  2126  1820  0
2121  1820  1816  0
1822  1545  2129  0
1321  2123  1547  0
2130  1547  2123  0
2124  1547  2130  0
1547  2124  1823  0
2126  2131  1820  0
2132  1549  1825  0
1549  2132  1545  0
2125  2133  1832  0
2125  2128  2134  0
2125  2134  2133  0
2125  1832  2135  0
2125  2135  2126  0
2126  2135  2131  0
1820  2131  1824  0
1333  2136  1548  0
2137  1548  2136  0
1333  1827  2136  0
2138  2133  2134  0
2135  1832  1831  0
2135  1831  2131  0
2131  1831  1828  0
2131  1828  1824  0
1339  1829  1834  0
1836  2133  2138  0
1835  2133  1836  0
2133  1835  1832  0
1553  1551  1338  0
1833  1834  2139  0
1555  1554  2140  0
1341  2140  1554  0
1839  2140  1341  0
2138  1838  1836  0
1837  1836  1838  0
2138  2141  1838  0
1839  1840  2142  0
2143  2142  1840  0
1841  1838  2144  0
2141  2144  1838  0
1841  2144  1842  0
2145  2146  2147  0
2148  2147  2146  0
1846  2146  2145  0
2145  1847  1846  0
2145  2149  1847  0
1843  1844  2150  0
1843  2150  1845  0
1845  2150  2143  0
1845  2143  1840  0
1842  2151  1571  0
1571  2151  2152  0
2146  2153  2154  0
2146  2154  2148  0
2146  1846  2153  0
1563  2153  1846  0
1847  2155  1848  0
1848  2155  1564  0
1565  1564  2156  0
1565  2156  1849  0
1565  1849  1352  0
1569  1850  1844  0
1571  1851  1364  0
1571  2152  1851  0
1563  1361  2153  0
2156  2157  1849  0
1849  2157  2158  0
1849  2158  1566  0
2159  1566  2158  0
1566  2159  1568  0
2160  1568  2159  0
2161  1574  1851  0
2153  1361  1852  0
2153  1852  2162  0
1568  2160  1572  0
2163  1572  2160  0
1572  2163  2164  0
2164  1570  1573  0
2164  1573  1572  0
1850  1570  2164  0
1854  2165  2166  0
1859  2165  1854  0
2165  1859  2167  0
1858  2167  1859  0
1574  2161  1575  0
2168  1575  2161  0
1861  1575  2168  0
1852  2169  2162  0
1852  1853  2170  0
1852  2170  2169  0
2171  1853  1577  0
1577  1578  2171  0
1863  2171  1578  0
2166  2172  1865  0
1865  1855  2166  0
2166  1855  1854  0
1858  1860  2173  0
2174  2173  1860  0
1860  1857  2175  0
1587  2175  1857  0
1860  2175  2174  0
2176  2175  1587  0
1863  1368  2177  0
1581  2177  1368  0
1866  1865  2178  0
1865  1867  1855  0
1587  1869  2176  0
2179  2176  1869  0
1870  2179  1869  0
1862  2180  1580  0
1580  2180  1872  0
2177  1581  1590  0
1582  1590  1581  0
2177  1590  2181  0
2182  2181  1590  0
1873  2183  1874  0
2184  1873  1866  0
2185  2179  1870  0
1870  1876  1883  0
1870  1883  2185  0
1877  2186  2182  0
1877  1599  2187  0
1877  2187  2186  0
1877  2182  1590  0
2188  1886  1878  0
2188  1878  2189  0
2188  2189  2190  0
1878  1886  1879  0
1878  1874  2183  0
1878  2183  2189  0
2185  1883  1895  0
2185  1895  2191  0
2185  2191  2192  0
1871  1872  2193  0
2194  1599  1884  0
2194  1884  2195  0
2194  2187  1599  0
1887  2196  1892  0
1887  2188  2196  0
1887  1886  2188  0
2191  2197  2192  0
1895  1883  1888  0
1890  1871  2193  0
2195  1884  1900  0
1884  1604  1900  0
2196  2198  1892  0
2191  1895  1896  0
2191  1896  1914  0
2191  1914  2199  0
2191  2199  2197  0
1906  1898  1890  0
1900  1899  2200  0
1899  1901  2198  0
1899  2198  2200  0
2198  1901  1892  0
1914  2201  2199  0
1914  1915  2201  0
2202  2201  1915  0
1905  1906  2203  0
1905  2203  1916  0
1920  1916  2203  0
1915  1919  2202  0
2204  2202  1919  0
1917  2205  1910  0
1919  1918  2204  0
2206  2204  1918  0
1918  1920  2206  0
2207  1910  2205  0
1910  2207  1911  0
2208  1911  2207  0
1911  2208  1612  0
2209  1612  2208  0
1619  1922  1917  0
1917  1922  2205  0
2207  2205  1922  0
2207  2210  2208  0
2211  2208  2210  0
2208  2211  2209  0
1921  1923  1922  0
2212  1922  1923  0
2213  1922  2212  0
1922  2213  2207  0
2214  2207  2213  0
2207  2214  2210  0
2215  2210  2214  0
2210  2215  2211  0
1923  1924  2212  0
2212  1924  2213  0
1926  2213  1924  0
2213  1926  2214  0
1927  2214  1926  0
2214  1927  2215  0
1928  2215  1927  0
2216  2217  2218  0
2216  2218  2219  0
2220  2217  1637  0
2220  1637  1934  0
2220  2221  2222  0
2220  2222  2217  0
2220  1934  2223  0
2220  2223  2221  0
2217  2216  1637  0
2216  2219  1929  0
2216  1929  1637  0
2219  2224  1931  0
2219  1931  1929  0
2223  1934  1933  0
2223  1933  2225  0
1931  2224  2226  0
1931  2226  1932  0
1932  2226  2227  0
1933  1935  2225  0
1935  1936  2228  0
1936  1940  2229  0
1936  2229  2228  0
2229  1940  1942  0
2229  1942  2230  0
1938  1937  2231  0
2232  1642  2233  0
1938  2234  1941  0
1944  1941  2234  0
1938  2231  2234  0
1642  1643  2235  0
2236  1943  1944  0
1643  1644  2237  0
1644  1945  2237  0
2238  1945  1413  0
1413  1943  2238  0
2239  2238  1943  0
1943  2236  2239  0
2240  2239  2236  0
2237  1945  2241  0
2242  2241  1945  0
2237  2241  2243  0
1945  2238  2242  0
2239  2242  2238  0
2239  2240  2244  0
1947  2245  2241  0
2241  2242  1947  0
1946  1947  2242  0
2242  2239  1946  0
2246  1946  2239  0
2239  2244  2246  0
2247  2244  2240  0
2248  2246  2244  0
2249  2250  1950  0
1949  1950  2250  0
2250  2245  1949  0
1947  1949  2245  0
1946  2246  1948  0
2246  2248  1948  0
1952  1948  2248  0
2251  1952  2248  0
2249  1950  2252  0
2253  2252  1950  0
1950  1659  2253  0
1954  2253  1659  0
1954  1955  2254  0
1955  2255  2254  0
2255  1955  1956  0
1952  2251  1951  0
1956  2256  2255  0
1951  2251  2257  0
1951  2257  1963  0
1664  1957  1958  0
1655  1958  2258  0
1655  2258  2259  0
1655  2259  1953  0
1953  2259  2260  0
1953  2260  1960  0
1960  2260  2261  0
1960  2261  1959  0
1956  1961  2256  0
1963  2257  1962  0
1959  2261  2262  0
1959  2262  1665  0
1968  1673  2263  0
1969  2264  1971  0
1969  1970  2264  0
2265  1961  1972  0
2266  1966  1977  0
1967  1665  2267  0
2262  2267  1665  0
1673  2268  2263  0
1673  1674  2268  0
2269  2268  1674  0
2270  1980  1971  0
1971  2264  2271  0
1971  2271  2270  0
1972  1981  2265  0
1989  2265  1981  0
1973  1962  2272  0
1973  2272  2273  0
1973  2273  1983  0
1977  1985  2266  0
2274  1987  1975  0
1975  1978  2274  0
1979  2274  1978  0
1979  1967  2275  0
2267  2275  1967  0
2269  1674  1988  0
1682  1980  1992  0
1980  2270  1992  0
2276  1992  2270  0
1989  1684  2277  0
1994  2277  1684  0
2277  1994  2278  0
2279  2278  1994  0
1983  2273  1990  0
2280  2273  2281  0
2282  1988  1991  0
2280  1990  2273  0
1993  1992  2283  0
1993  2283  2284  0
1993  2284  1995  0
1994  1990  2285  0
2286  2287  1693  0
2286  1693  1998  0
1686  2288  1991  0
1995  1997  1685  0
1998  2289  2286  0
1996  2288  1686  0
1997  2000  1687  0
1997  1995  2290  0
1997  2290  2000  0
1998  2001  2291  0
1998  2291  2289  0
1688  2292  1689  0
1688  1999  2292  0
1996  2002  2293  0
1996  2293  2294  0
2003  2295  2004  0
2003  2000  2295  0
1689  2292  2005  0
2002  2007  2293  0
2295  2296  2004  0
2004  2296  2297  0
2004  2297  1702  0
1698  2298  1696  0
1696  2298  2299  0
1696  2299  1697  0
1697  2299  2009  0
1701  2300  2001  0
2012  2301  2007  0
1702  2297  2302  0
1702  2302  2013  0
1700  2303  2008  0
1700  1706  2303  0
2304  2303  1706  0
2305  2010  2009  0
2010  2305  2014  0
2306  2014  2305  0
1709  2006  2018  0
2307  2301  2012  0
2013  2302  2024  0
2304  1706  2019  0
2308  2309  2016  0
2016  2021  2308  0
2310  2022  2018  0
2311  2307  2012  0
2012  2023  2311  0
2312  2023  1712  0
2029  1712  1713  0
2024  2313  1704  0
1704  2313  2025  0
2025  2314  2019  0
1711  1710  2315  0
1710  2014  2316  0
2306  2316  2014  0
1710  2316  2315  0
2027  2308  2021  0
2022  2310  2028  0
2029  1452  1714  0
2029  1714  2317  0
2314  2025  2313  0
2030  1711  2318  0
1711  2315  2318  0
2031  2319  2026  0
2320  1716  1724  0
2320  2321  1716  0
1716  2321  2027  0
2028  2032  1718  0
1714  1721  2317  0
2031  1723  2322  0
2031  2322  2319  0
2319  2034  2026  0
1725  2320  1724  0
1725  2323  2320  0
2032  2035  1719  0
2032  2324  2035  0
2033  2030  2325  0
2322  2326  2319  0
2327  2319  2326  0
2319  2327  2034  0
2038  2034  2327  0
2328  2323  1725  0
2329  2328  1725  0
1725  1727  2329  0
2330  2329  1727  0
2035  2331  1470  0
2325  2036  2033  0
2037  2332  1723  0
1723  2332  2322  0
2333  2322  2332  0
2322  2333  2326  0
1726  2038  2334  0
1727  1728  2330  0
2335  2330  1728  0
1728  1731  2335  0
2336  2335  1731  0
1470  2331  1732  0
2337  1732  2331  0
1471  2043  2040  0
1729  2036  2338  0
2339  1729  2338  0
2037  2340  2332  0
2334  2049  1726  0
1731  2041  2336  0
2341  1732  2337  0
2342  2043  2343  0
2043  2044  2343  0
2344  2343  2044  0
2043  2342  2040  0
1733  1729  2339  0
1733  2339  2045  0
1484  2046  2047  0
2047  2345  2037  0
2340  2037  2345  0
2049  2334  2050  0
2346  2050  2334  0
2041  2347  2336  0
2042  1732  2341  0
2042  2341  2051  0
2046  2348  2047  0
2056  2347  2041  0
2057  1741  2051  0
1746  2060  2349  0
1746  2349  2052  0
1743  2045  2058  0
2046  1749  2350  0
2055  2050  2351  0
2055  2351  2054  0
2050  2346  2352  0
2050  2352  2351  0
2056  2353  2354  0
1748  2061  2355  0
1748  2355  2060  0
1749  2356  2350  0
2054  2351  2357  0
2054  2357  2064  0
2351  2352  2357  0
2059  2353  2056  0
1742  2057  2358  0
1742  2358  1762  0
2359  2061  1752  0
2066  2356  1749  0
2067  2063  2360  0
2065  2360  2063  0
2065  2064  2361  0
2064  2357  2362  0
2363  2362  2357  0
2357  2364  2363  0
2357  2352  2364  0
2059  2365  2353  0
2059  1761  2365  0
1762  2358  2366  0
2367  2368  2369  0
2368  2069  2369  0
2068  2369  2069  0
2368  2370  2069  0
2069  2370  2071  0
2071  2370  2072  0
2371  2072  2370  0
1752  2078  2359  0
2073  1751  2372  0
2373  2372  1751  0
1751  2067  2373  0
2360  2373  2067  0
2360  2065  2374  0
2064  2362  2361  0
2375  2363  2364  0
1761  1760  2365  0
2376  2365  1760  0
1762  2366  2075  0
2377  2378  2369  0
2369  2378  2367  0
2369  2068  2377  0
2083  2377  2068  0
2077  2072  2371  0
2359  2078  2379  0
2359  2379  2380  0
2080  2074  2381  0
2073  2381  2074  0
2065  2361  2382  0
2375  2362  2363  0
1760  2081  2383  0
1760  2383  2376  0
2384  1770  2075  0
2076  2084  2385  0
2076  2385  2083  0
2077  2386  2085  0
2387  2085  2386  0
2085  2388  2389  0
2085  2389  2086  0
2085  2387  2388  0
2380  2388  2387  0
2388  2379  2389  0
2388  2380  2379  0
2379  2078  2087  0
2080  2390  2079  0
2383  2081  2391  0
2383  2391  2392  0
2383  2392  2376  0
2081  2082  2091  0
2081  2091  2391  0
1770  2384  2088  0
2088  2393  2089  0
2084  1775  2385  0
2086  2389  2090  0
2389  2379  2394  0
2379  2087  2394  0
2390  2395  2396  0
2390  2396  2397  0
2390  2397  1503  0
2390  1503  2079  0
2391  2091  2105  0
2391  2105  2398  0
2391  2398  2392  0
2089  2393  2399  0
2089  2399  2092  0
2092  2399  2400  0
2092  2400  2401  0
2092  2401  1792  0
1775  2094  2385  0
1777  2090  2093  0
2090  2389  2402  0
2090  2402  2093  0
2389  2394  2402  0
2394  2087  2095  0
2403  2394  2095  0
1778  1503  2397  0
2404  1781  2096  0
1781  2404  1782  0
2097  1782  2404  0
2101  2405  2406  0
2406  2405  2407  0
2406  2102  2101  0
2406  2408  2102  0
2104  2102  2398  0
2102  2408  2398  0
2398  2105  2104  0
1791  2105  2091  0
1792  2401  2409  0
2094  2093  2410  0
2402  2410  2093  0
2095  1793  2403  0
2397  2411  1778  0
2098  1778  2411  0
2098  2412  1787  0
2099  1787  2412  0
2099  2413  1788  0
2414  2096  1788  0
2096  2414  2404  0
2415  2404  2414  0
2404  2415  2097  0
2416  2100  2097  0
2405  2101  2103  0
1801  1792  2417  0
2409  2417  1792  0
1793  2114  2403  0
2418  2098  2411  0
2412  2098  2418  0
2412  2419  2099  0
2413  2099  2419  0
2414  1788  2413  0
2100  2416  2109  0
2405  2103  2420  0
2421  2420  2103  0
2103  2110  2421  0
1811  1810  2422  0
1811  2422  2111  0
2423  2111  2422  0
2424  1810  1801  0
1532  2425  2112  0
2426  2112  2425  0
1532  2119  2425  0
2112  2426  2113  0
2427  2113  2426  0
2114  2115  2428  0
2114  2428  2429  0
2114  2429  2403  0
2118  2108  2430  0
2108  2109  2431  0
2108  2431  2430  0
2110  1805  2122  0
2110  2122  2432  0
2110  2432  2421  0
1818  2111  2423  0
1818  2423  2433  0
1818  2433  1821  0
2122  1821  2433  0
2428  2434  2429  0
2115  2116  2428  0
2117  2435  2120  0
2117  2106  2435  0
2106  2118  2436  0
2118  2430  2436  0
1822  2129  2119  0
2113  2427  2437  0
2113  2437  2123  0
2123  2437  2434  0
2434  2428  2130  0
2434  2130  2123  0
2428  2116  2124  0
2428  2124  2130  0
2120  2435  2127  0
2129  1545  2132  0
2128  2127  2438  0
1548  2137  1825  0
1825  2137  2132  0
2134  2128  2439  0
2438  2439  2128  0
2440  2138  2134  0
2439  2440  2134  0
2136  1827  2441  0
2442  2441  1827  0
2443  2139  1834  0
1834  1829  2443  0
1830  2443  1829  0
1830  1555  2444  0
2445  2444  1555  0
1555  2140  2445  0
2446  2445  2140  0
2138  2440  2141  0
2447  2141  2440  0
1827  1551  2442  0
2448  2442  1551  0
1551  1553  2448  0
2449  2448  1553  0
1553  1833  2449  0
2139  2449  1833  0
1839  2446  2140  0
2447  2450  2141  0
2446  1839  2142  0
2450  2144  2141  0
2451  2452  2453  0
2452  2454  2453  0
2452  2451  2147  0
2455  2147  2451  0
2145  2147  2455  0
2150  2456  2143  0
2143  2456  2142  0
2452  2457  2454  0
2452  2147  2148  0
2452  2148  2457  0
2145  2458  2149  0
2149  2155  1847  0
1844  2459  2150  0
1842  2460  2151  0
2457  2148  2461  0
2148  2154  2461  0
2155  2149  2462  0
2155  2462  1564  0
1564  2462  2156  0
1844  1850  2463  0
2152  2464  2161  0
2152  2161  1851  0
2154  2153  2162  0
2154  2162  2465  0
2154  2465  2461  0
2157  2466  2158  0
2158  2466  2160  0
2158  2160  2159  0
1850  2164  2467  0
2166  2468  2172  0
2468  2469  2172  0
2470  2468  2166  0
2166  2165  2470  0
2167  2470  2165  0
2167  1858  2173  0
2168  2471  1861  0
1861  2471  2472  0
2169  2473  2162  0
1865  2172  2178  0
2469  2178  2172  0
2173  2174  2474  0
2475  2474  2174  0
2176  2174  2175  0
1861  2472  1862  0
1866  2178  2184  0
2476  2184  2178  0
2174  2176  2475  0
2176  2179  2477  0
2176  2477  2475  0
2478  2475  2477  0
1862  2479  2180  0
2181  2182  2480  0
2481  2183  1873  0
1873  2184  2481  0
2482  2481  2184  0
2184  2476  2482  0
2185  2477  2179  0
2180  2483  1872  0
2484  1872  2483  0
2485  2188  2190  0
2485  2190  2486  0
2487  2188  2485  0
2190  2488  2486  0
2190  2189  2488  0
2189  2183  2489  0
2189  2489  2488  0
2183  2481  2490  0
2183  2490  2489  0
2477  2185  2192  0
2477  2192  2491  0
2477  2491  2478  0
1872  2484  2193  0
2194  2195  2187  0
2487  2492  2196  0
2487  2196  2188  0
2192  2197  2493  0
2192  2493  2491  0
2193  2494  1890  0
2195  1900  2495  0
1900  2200  2496  0
1900  2496  2495  0
2200  2492  2496  0
2492  2200  2198  0
2492  2198  2196  0
2197  2199  2497  0
2197  2497  2493  0
1890  2494  1906  0
2199  2201  2498  0
2199  2498  2497  0
2499  2203  1906  0
2499  1906  2494  0
2499  2494  2500  0
2499  2500  2501  0
2499  2501  2203  0
2201  2202  2502  0
2201  2502  2498  0
2203  2501  2503  0
2203  2503  1920  0
1920  2503  2504  0
2206  1920  2504  0
2206  2504  2505  0
2206  2505  2204  0
2506  2507  2508  0
2509  2508  2507  0
2506  2510  2507  0
2511  2506  2512  0
2508  2512  2506  0
2511  2510  2506  0
2508  2509  2513  0
2509  2514  2513  0
2515  2513  2514  0
2516  2517  2518  0
2519  2518  2517  0
2517  2511  2222  0
2217  2222  2511  0
2517  2516  2511  0
2511  2512  2217  0
2218  2217  2512  0
2512  2508  2218  0
2520  2218  2508  0
2508  2513  2521  0
2515  2521  2513  0
2508  2521  2520  0
2519  2517  2221  0
2222  2221  2517  0
2218  2520  2219  0
2224  2219  2520  0
2520  2521  2224  0
2522  2221  2223  0
2519  2221  2522  0
2522  2223  2225  0
2224  2523  2226  0
2524  2226  2523  0
2226  2524  2227  0
2525  2227  2524  0
2228  2225  1935  0
2228  2229  2526  0
2527  2526  2229  0
2229  2230  2527  0
1937  2528  2231  0
2233  1642  2235  0
2233  2235  2529  0
2233  2529  2530  0
2531  2231  2532  0
2231  2531  2234  0
2235  1643  2237  0
2235  2237  2533  0
2235  2533  2529  0
2234  2531  2534  0
2234  2534  1944  0
1944  2534  2236  0
2237  2243  2535  0
2237  2535  2533  0
2236  2536  2240  0
2236  2534  2536  0
2243  2241  2537  0
2243  2537  2535  0
2538  2250  2249  0
2538  2249  2539  0
2538  2540  2541  0
2538  2541  2250  0
2538  2539  2540  0
2250  2541  2542  0
2250  2542  2245  0
2245  2542  2537  0
2537  2241  2245  0
2244  2247  2248  0
2539  2249  2252  0
2539  2252  2543  0
2248  2247  2544  0
2248  2544  2251  0
2252  2253  2545  0
2252  2545  2543  0
2253  1954  2254  0
2253  2254  2545  0
2254  2255  2546  0
2547  2546  2255  0
2548  2547  2255  0
2255  2256  2548  0
2549  2251  2550  0
2256  1961  2548  0
2551  2548  1961  0
2251  2549  2257  0
2552  2260  2259  0
2260  2553  2261  0
2260  2552  2553  0
2554  2261  2553  0
2555  2257  2556  0
2557  1957  1965  0
1957  2558  1958  0
2258  1958  2558  0
1957  2557  2558  0
2259  2258  2559  0
2261  2554  2262  0
2560  2262  2554  0
1968  2561  1970  0
1968  2263  2561  0
2562  2561  2263  0
1970  2561  2264  0
1961  2265  2551  0
2257  2555  1962  0
2272  1962  2555  0
2563  2272  2555  0
1966  2266  1965  0
2557  1965  2266  0
2560  2267  2262  0
2564  2270  2271  0
2565  2271  2264  0
2271  2565  2564  0
2566  2564  2565  0
2567  2265  1989  0
1989  2277  2567  0
2272  2563  2281  0
2272  2281  2273  0
2568  2281  2563  0
2266  2569  2557  0
2270  2564  2276  0
2277  2278  2567  0
2278  2279  2570  0
2281  2568  2280  0
2266  2571  2569  0
1979  2275  2274  0
1988  2282  2269  0
2269  2282  2572  0
1992  2276  2283  0
1990  2280  2573  0
1990  2573  2285  0
2574  2282  1991  0
1994  2285  2575  0
1994  2575  2279  0
2576  2279  2575  0
2287  2577  2571  0
2287  2286  2577  0
1991  2288  2574  0
2578  2574  2288  0
2285  2576  2575  0
2577  2286  2289  0
2579  2580  2581  0
2582  2288  1996  0
2288  2582  2578  0
2583  2578  2582  0
2584  1995  2284  0
2291  2585  2289  0
2580  2579  1999  0
2586  1999  2579  0
2582  1996  2294  0
2587  2294  2293  0
1995  2584  2290  0
2291  2588  2585  0
2300  2291  2001  0
1999  2589  2292  0
1999  2586  2589  0
2007  2590  2293  0
2591  2000  2290  0
2000  2591  2295  0
2295  2591  2296  0
2592  2297  2296  0
1698  2008  2298  0
2298  2593  2299  0
2299  2593  2009  0
2291  2300  2594  0
2292  2589  2005  0
2595  2005  2589  0
2005  2596  2006  0
2005  2595  2596  0
2590  2007  2301  0
2590  2301  2597  0
2297  2592  2302  0
2303  2598  2008  0
2008  2598  2298  0
2593  2599  2009  0
2300  1701  2600  0
1701  2011  2600  0
2011  2016  2309  0
2011  2309  2601  0
2596  2602  2018  0
2596  2018  2006  0
2301  2307  2603  0
2301  2603  2597  0
2302  2592  2604  0
2309  2308  2605  0
2602  2310  2018  0
2604  2024  2302  0
2304  2019  2606  0
2304  2606  2607  0
2306  2608  2316  0
2306  2609  2608  0
2610  2605  2321  0
2605  2308  2027  0
2605  2027  2321  0
2310  2602  2611  0
2311  2023  2612  0
2023  2312  2612  0
1712  2029  2312  0
2024  2604  2613  0
2024  2613  2313  0
2313  2614  2314  0
2314  2615  2606  0
2314  2606  2019  0
2616  2318  2315  0
2617  2616  2315  0
2315  2316  2617  0
2316  2608  2617  0
2610  2320  2618  0
2320  2610  2321  0
2310  2619  2028  0
2310  2611  2619  0
2311  2612  2620  0
2612  2312  2621  0
2312  2029  2621  0
2622  2621  2029  0
2029  2317  2622  0
2623  2622  2317  0
2313  2613  2614  0
2615  2314  2614  0
2030  2318  2325  0
2616  2325  2318  0
2624  2320  2625  0
2323  2625  2320  0
2624  2618  2320  0
2626  2028  2619  0
2028  2626  2032  0
2324  2032  2626  0
2317  1721  2623  0
2625  2323  2627  0
2323  2328  2627  0
2324  2628  2331  0
2324  2331  2035  0
1721  2039  2629  0
1721  2629  2623  0
2325  2630  2036  0
2327  2334  2038  0
2328  2329  2627  0
2329  2330  2631  0
2331  2632  2337  0
2331  2628  2633  0
2331  2633  2632  0
2632  2633  2634  0
2036  2630  2338  0
2332  2635  2333  0
2326  2333  2636  0
2326  2636  2327  0
2327  2636  2334  0
2632  2634  2637  0
2632  2637  2337  0
2040  2342  2039  0
2332  2340  2635  0
2638  2336  2347  0
2341  2337  2637  0
2344  2342  2343  0
2639  2344  2044  0
2047  2348  2345  0
2640  2345  2348  0
2345  2640  2340  0
2340  2641  2635  0
2334  2642  2346  0
2334  2636  2643  0
2334  2643  2642  0
2056  2354  2347  0
2347  2354  2638  0
2644  2638  2354  0
2051  2341  2645  0
2044  2052  2646  0
2349  2646  2052  0
2044  2646  2639  0
2045  2647  2058  0
2046  2350  2348  0
2648  2348  2350  0
2348  2649  2640  0
2348  2648  2649  0
2352  2346  2642  0
2650  2354  2353  0
2645  2057  2051  0
2355  2349  2060  0
2058  2647  2062  0
2651  2062  2647  0
2062  2356  2066  0
2062  2651  2356  0
2648  2350  2356  0
2642  2652  2352  0
2057  2653  2358  0
2349  2355  2654  0
2355  2061  2359  0
2655  2352  2652  0
2352  2655  2364  0
2353  2365  2650  0
2368  2656  2370  0
2370  2656  2657  0
2370  2657  2371  0
2374  2065  2382  0
2364  2658  2375  0
2659  2375  2658  0
2660  2075  2366  0
2367  2378  2661  0
2367  2661  2662  0
2367  2663  2368  0
2368  2663  2664  0
2368  2664  2656  0
2371  2657  2665  0
2371  2665  2077  0
2077  2666  2386  0
2077  2665  2666  0
2380  2667  2359  0
2380  2668  2667  0
2073  2372  2381  0
2373  2360  2669  0
2360  2374  2669  0
2382  2361  2670  0
2361  2362  2671  0
2376  2672  2365  0
2075  2660  2384  0
2661  2673  2662  0
2674  2662  2673  0
2378  2377  2675  0
2378  2675  2661  0
2377  2083  2676  0
2377  2676  2675  0
2666  2677  2386  0
2386  2677  2668  0
2386  2668  2387  0
2387  2668  2380  0
2390  2080  2678  0
2390  2678  2395  0
2374  2382  2679  0
2670  2679  2382  0
2671  2670  2361  0
2375  2671  2362  0
2376  2392  2672  0
2680  2672  2392  0
2088  2384  2681  0
2088  2681  2393  0
2399  2393  2673  0
2393  2681  2674  0
2393  2674  2673  0
2673  2661  2399  0
2400  2399  2661  0
2661  2675  2400  0
2682  2400  2675  0
2675  2676  2682  0
2683  2676  2083  0
2083  2385  2683  0
2398  2408  2392  0
2392  2408  2680  0
2400  2682  2401  0
2385  2094  2410  0
2385  2410  2684  0
2685  2684  2410  0
2402  2394  2686  0
2403  2686  2394  0
2420  2407  2405  0
2408  2406  2407  0
2401  2682  2687  0
2401  2687  2409  0
2417  2409  2687  0
2410  2688  2685  0
2410  2402  2688  0
2686  2688  2402  0
2396  2689  2411  0
2396  2411  2397  0
2415  2416  2097  0
2424  1801  2417  0
2688  2426  2690  0
2688  2690  2685  0
2688  2686  2691  0
2688  2691  2426  0
2686  2403  2429  0
2686  2429  2691  0
2418  2692  2412  0
2412  2692  2419  0
2413  2693  2414  0
2416  2694  2109  0
2421  2695  2420  0
2423  2422  2696  0
2697  2423  2696  0
1810  2424  2422  0
2425  2698  2690  0
2425  2690  2426  0
2426  2691  2427  0
2689  2699  2411  0
2418  2700  2692  0
2419  2701  2413  0
2413  2701  2693  0
2431  2109  2694  0
2432  2122  2433  0
2432  2433  2702  0
2697  2433  2423  0
2703  2425  2119  0
2437  2427  2691  0
2691  2429  2437  0
2434  2437  2429  0
2411  2699  2418  0
2435  2106  2704  0
2436  2704  2106  0
2705  2436  2430  0
2430  2431  2706  0
2430  2706  2705  0
2129  2703  2119  0
2707  2703  2129  0
2707  2129  2132  0
2127  2435  2438  0
2708  2438  2435  0
2435  2704  2708  0
2709  2708  2704  0
2441  2710  2711  0
2711  2137  2441  0
2136  2441  2137  0
2439  2438  2712  0
2708  2712  2438  0
2713  2710  2714  0
2713  2715  2710  0
2710  2441  2714  0
2443  2716  2717  0
2443  2717  2718  0
2716  2443  1830  0
2716  1830  2444  0
2716  2444  2719  0
2716  2719  2717  0
2440  2439  2447  0
2439  2712  2447  0
2712  2708  2720  0
2713  2714  2721  0
2714  2722  2721  0
2714  2441  2442  0
2714  2442  2722  0
2139  2718  2723  0
2724  2139  2723  0
2139  2443  2718  0
2444  2445  2719  0
2445  2446  2725  0
2447  2712  2726  0
2442  2448  2722  0
2449  2139  2724  0
2446  2142  2725  0
2447  2727  2450  0
2728  2453  2454  0
2728  2729  2730  0
2728  2730  2453  0
2453  2730  2731  0
2453  2731  2451  0
2451  2731  2732  0
2456  2733  2725  0
2725  2142  2456  0
2144  2450  2727  0
2144  2727  1842  0
2451  2732  2455  0
2455  2458  2145  0
2455  2734  2458  0
2150  2735  2456  0
2150  2459  2735  0
2460  1842  2727  0
2454  2457  2736  0
2737  2736  2457  0
1844  2463  2459  0
2151  2460  2738  0
2457  2461  2737  0
2739  2737  2461  0
2458  2740  2149  0
2149  2740  2462  0
2462  2740  2741  0
2462  2741  2156  0
1850  2467  2463  0
2463  2467  2742  0
2152  2151  2464  0
2461  2465  2739  0
2743  2739  2465  0
2156  2741  2157  0
2744  2157  2741  0
2157  2744  2466  0
2466  2744  2160  0
2745  2160  2744  0
2160  2745  2163  0
2746  2163  2745  0
2164  2163  2467  0
2163  2746  2467  0
2470  2167  2747  0
2161  2464  2168  0
2748  2168  2464  0
2471  2168  2748  0
2748  2749  2471  0
2750  2471  2749  0
2465  2162  2743  0
2473  2743  2162  0
2751  2469  2468  0
2468  2470  2751  0
2167  2173  2752  0
2167  2752  2747  0
2173  2474  2752  0
2471  2750  2472  0
2753  2472  2750  0
2170  2754  2169  0
2170  1853  2754  0
1853  2171  2754  0
2171  1863  2755  0
1863  2177  2181  0
1863  2181  2755  0
2178  2469  2756  0
2178  2756  2476  0
2474  2475  2757  0
2472  2753  1862  0
2479  1862  2753  0
2758  2476  2756  0
2475  2478  2757  0
2180  2479  2759  0
2180  2759  2483  0
2476  2760  2482  0
2476  2758  2760  0
2761  2186  2187  0
2761  2762  2763  0
2761  2763  2186  0
2761  2187  2764  0
2761  2764  2762  0
2186  2763  2182  0
2485  2486  2765  0
2485  2765  2487  0
2486  2488  2766  0
2488  2489  2766  0
2489  2490  2767  0
2489  2767  2768  0
2490  2481  2767  0
2481  2482  2769  0
2481  2769  2767  0
2482  2760  2769  0
2760  2758  2770  0
2195  2764  2187  0
2765  2496  2492  0
2492  2487  2765  0
2771  2768  2767  0
2772  2771  2767  0
2767  2769  2772  0
2773  2769  2760  0
2760  2770  2773  0
2491  2493  2774  0
2193  2775  2494  0
2764  2195  2776  0
2495  2776  2195  0
2495  2496  2777  0
2771  2778  2768  0
2779  2772  2769  0
2769  2773  2779  0
2780  2493  2497  0
2493  2780  2781  0
2500  2781  2780  0
2493  2781  2782  0
2783  2781  2500  0
2771  2772  2784  0
2785  2784  2772  0
2772  2779  2785  0
2786  2785  2779  0
2779  2773  2787  0
2779  2787  2786  0
2788  2786  2787  0
2497  2498  2780  0
2789  2780  2498  0
2780  2789  2500  0
2501  2500  2789  0
2500  2494  2783  0
2790  2783  2494  0
2791  2778  2771  0
2792  2784  2785  0
2785  2786  2792  0
2498  2502  2789  0
2793  2789  2502  0
2789  2794  2501  0
2503  2501  2794  0
2789  2793  2794  0
2795  2794  2793  0
2771  2784  2791  0
2796  2791  2784  0
2792  2796  2784  0
2792  2786  2797  0
2788  2797  2786  0
2502  2202  2798  0
2502  2798  2793  0
2505  2504  2503  0
2796  2792  2799  0
2796  2799  2800  0
2202  2204  2798  0
2204  2505  2798  0
2801  2510  2511  0
2510  2801  2802  0
2510  2802  2803  0
2507  2510  2804  0
2507  2804  2509  0
2509  2805  2514  0
2509  2804  2806  0
2509  2806  2805  0
2805  2806  2807  0
2805  2807  2808  0
2516  2801  2511  0
2514  2805  2808  0
2521  2515  2809  0
2515  2810  2809  0
2521  2811  2224  0
2224  2811  2812  0
2224  2812  2523  0
2225  2813  2522  0
2225  2228  2814  0
2526  2815  2228  0
2526  2527  2815  0
2528  2532  2231  0
2528  2816  2532  0
2532  2817  2531  0
2532  2816  2817  0
2529  2533  2818  0
2819  2817  2816  0
2820  2531  2817  0
2531  2820  2534  0
2535  2821  2533  0
2533  2821  2818  0
2822  2818  2821  0
2820  2817  2819  0
2823  2534  2820  0
2534  2823  2536  0
2541  2821  2542  0
2541  2822  2821  0
2821  2535  2542  0
2537  2542  2535  0
2536  2823  2240  0
2824  2240  2823  0
2825  2826  2827  0
2828  2827  2826  0
2826  2829  2828  0
2830  2828  2829  0
2539  2831  2540  0
2831  2832  2540  0
2540  2832  2541  0
2833  2541  2832  0
2824  2247  2240  0
2827  2828  2834  0
2835  2834  2828  0
2830  2835  2828  0
2836  2837  2831  0
2831  2539  2836  0
2539  2543  2838  0
2539  2838  2836  0
2247  2824  2839  0
2247  2839  2840  0
2247  2840  2544  0
2543  2841  2838  0
2543  2545  2842  0
2543  2842  2841  0
2545  2254  2842  0
2254  2546  2842  0
2544  2550  2251  0
2548  2551  2843  0
2549  2844  2556  0
2549  2556  2257  0
2259  2845  2552  0
2553  2552  2554  0
2551  2846  2843  0
2258  2558  2559  0
2259  2559  2845  0
2561  2562  2847  0
2561  2847  2848  0
2561  2848  2264  0
2551  2265  2849  0
2551  2849  2846  0
2555  2556  2850  0
2555  2850  2563  0
2557  2851  2558  0
2558  2851  2852  0
2558  2852  2559  0
2560  2554  2853  0
2560  2853  2854  0
2263  2268  2562  0
2562  2855  2847  0
2264  2848  2856  0
2264  2856  2565  0
2265  2567  2849  0
2570  2567  2278  0
2568  2563  2850  0
2557  2569  2851  0
2857  2851  2569  0
2854  2267  2560  0
2269  2858  2268  0
2859  2268  2858  0
2268  2859  2562  0
2855  2562  2859  0
2568  2860  2280  0
2861  2280  2860  0
2862  2569  2571  0
2274  2275  2863  0
2275  2267  2863  0
2864  2863  2267  0
2267  2854  2864  0
2269  2572  2858  0
2276  2564  2865  0
2866  2564  2566  0
2279  2867  2570  0
2867  2868  2570  0
2280  2861  2573  0
2869  2573  2861  0
2571  2870  2862  0
2274  2863  2871  0
2872  2871  2863  0
2572  2282  2574  0
2276  2865  2873  0
2276  2873  2283  0
2874  2875  2867  0
2868  2867  2875  0
2867  2279  2576  0
2867  2576  2874  0
2573  2869  2285  0
2571  2577  2870  0
2574  2578  2876  0
2283  2877  2284  0
2283  2873  2877  0
2874  2576  2878  0
2576  2285  2879  0
2576  2879  2878  0
2285  2869  2879  0
2289  2880  2577  0
2577  2880  2870  0
2581  2872  2881  0
2581  2881  2882  0
2581  2882  2579  0
2578  2583  2876  0
2284  2877  2883  0
2284  2883  2584  0
2585  2884  2289  0
2585  2588  2884  0
2289  2884  2880  0
2294  2587  2582  0
2588  2291  2594  0
2586  2885  2589  0
2587  2886  2582  0
2582  2886  2583  0
2584  2887  2290  0
2290  2887  2591  0
2293  2888  2587  0
2889  2587  2888  0
2293  2590  2888  0
2296  2591  2592  0
2598  2890  2298  0
2891  2298  2890  0
2298  2891  2593  0
2593  2891  2599  0
2594  2300  2892  0
2600  2892  2300  0
2600  2011  2601  0
2590  2597  2888  0
2893  2888  2597  0
2304  2607  2303  0
2598  2303  2607  0
2009  2599  2305  0
2609  2305  2599  0
2305  2609  2306  0
2309  2605  2601  0
2894  2601  2605  0
2597  2603  2893  0
2895  2893  2603  0
2592  2896  2604  0
2897  2608  2609  0
2610  2898  2605  0
2894  2605  2898  0
2603  2307  2899  0
2603  2899  2895  0
2307  2311  2620  0
2307  2620  2899  0
2616  2617  2900  0
2608  2897  2617  0
2901  2618  2624  0
2901  2624  2902  0
2901  2902  2903  0
2901  2903  2904  0
2618  2901  2905  0
2618  2905  2610  0
2611  2906  2619  0
2620  2612  2907  0
2612  2621  2907  0
2613  2908  2614  0
2613  2604  2908  0
2325  2616  2909  0
2902  2624  2625  0
2902  2910  2903  0
2619  2906  2911  0
2619  2911  2626  0
