#!ascii file
1628  1412  1854  0
1857  1858  1626  0
1626  1632  1857  0
1627  1855  1629  0
1859  1860  1851  0
1851  1856  1861  0
1633  1630  1417  0
1854  1862  1628  0
1863  1628  1862  0
1629  1864  1430  0
1865  1430  1864  0
1851  1861  1859  0
1866  1861  1856  0
1628  1863  1631  0
1867  1631  1863  0
1634  1631  1867  0
1857  1632  1868  0
1869  1868  1632  0
1632  1428  1869  0
1634  1867  1870  0
1869  1428  1638  0
1865  1636  1430  0
1634  1870  1637  0
1637  1871  1433  0
1643  1638  1438  0
1643  1869  1638  0
1865  1644  1636  0
1865  1872  1644  0
1639  1873  1874  0
1639  1874  1640  0
1641  1640  1875  0
1641  1875  1444  0
1639  1443  1876  0
1639  1876  1873  0
1444  1875  1877  0
1444  1877  1646  0
1642  1436  1647  0
1443  1649  1876  0
1878  1876  1649  0
1650  1646  1879  0
1650  1879  1652  0
1880  1445  1249  0
1642  1668  1446  0
1653  1654  1881  0
1882  1881  1654  0
1654  1655  1882  0
1655  1656  1882  0
1883  1882  1656  0
1884  1658  1648  0
1449  1659  1649  0
1878  1649  1659  0
1880  1249  1661  0
1642  1647  1885  0
1647  1452  1885  0
1452  1662  1885  0
1656  1657  1883  0
1886  1883  1657  0
1657  1658  1886  0
1884  1886  1658  0
1664  1665  1659  0
1887  1659  1665  0
1659  1888  1878  0
1889  1878  1888  0
1890  1667  1660  0
1891  1264  1668  0
1892  1662  1663  0
1663  1893  1892  0
1665  1669  1887  0
1894  1887  1669  0
1455  1464  1895  0
1672  1896  1671  0
1672  1673  1896  0
1671  1896  1897  0
1671  1897  1674  0
1674  1898  1675  0
1899  1675  1898  0
1674  1897  1900  0
1674  1900  1898  0
1898  1900  1901  0
1898  1901  1899  0
1669  1676  1894  0
1667  1260  1091  0
1667  1091  1670  0
1667  1464  1260  0
1675  1899  1902  0
1675  1902  1678  0
1670  1091  1272  0
1670  1272  1677  0
1903  1481  1904  0
1903  1904  1905  0
1903  1905  1906  0
1906  1907  1908  0
1906  1905  1907  0
1907  1682  1908  0
1907  1909  1682  0
1682  1680  1908  0
1682  1910  1683  0
1683  1910  1911  0
1684  1912  1673  0
1684  1913  1912  0
1678  1902  1914  0
1678  1914  1915  0
1678  1915  1685  0
1676  1479  1916  0
1687  1677  1695  0
1677  1272  1695  0
1903  1906  1482  0
1903  1482  1481  0
1906  1917  1482  0
1906  1908  1917  0
1908  1680  1681  0
1908  1681  1917  0
1683  1911  1689  0
1918  1689  1911  0
1468  1685  1919  0
1915  1919  1685  0
1468  1919  1691  0
1920  1691  1919  0
1916  1479  1921  0
1922  1921  1479  0
1694  1686  1687  0
1687  1695  1694  0
1481  1697  1904  0
1923  1904  1697  0
1112  1482  1917  0
1917  1924  1112  0
1917  1681  1924  0
1925  1924  1681  0
1681  1692  1925  0
1473  1925  1692  0
1689  1918  1690  0
1926  1690  1918  0
1693  1690  1926  0
1472  1913  1684  0
1472  1476  1913  0
1927  1913  1476  0
1479  1700  1922  0
1928  1922  1700  0
1696  1929  1697  0
1923  1697  1929  0
1112  1924  1487  0
1925  1473  1930  0
1473  1698  1930  0
1926  1931  1693  0
1693  1931  1932  0
1693  1932  1927  0
1693  1927  1476  0
1691  1920  1699  0
1700  1701  1933  0
1700  1933  1928  0
1480  1934  1696  0
1696  1934  1929  0
1699  1920  1935  0
1699  1935  1288  0
1701  1936  1933  0
1937  1707  1710  0
1937  1938  1707  0
1703  1706  1939  0
1703  1939  1704  0
1706  1288  1935  0
1706  1935  1939  0
1701  1492  1940  0
1701  1940  1936  0
1710  1709  1941  0
1942  1713  1705  0
1492  1714  1940  0
1943  1940  1714  0
1944  1707  1945  0
1711  1716  1715  0
1946  1716  1711  0
1494  1713  1947  0
1942  1947  1713  0
1494  1947  1717  0
1714  1718  1943  0
1948  1943  1718  0
1707  1944  1719  0
1731  1719  1944  0
1709  1720  1941  0
1949  1941  1720  0
1950  1151  1715  0
1721  1950  1715  0
1509  1722  1728  0
1951  1948  1718  0
1720  1952  1949  0
1950  1725  1151  0
1726  1950  1721  0
1726  1727  1953  0
1727  1728  1954  0
1734  1955  1956  0
1734  1957  1955  0
1734  1956  1513  0
1731  1958  1732  0
1959  1733  1519  0
1959  1519  1739  0
1959  1960  1733  0
1959  1739  1961  0
1733  1960  1957  0
1733  1957  1734  0
1718  1723  1951  0
1723  1735  1951  0
1737  1732  1958  0
1737  1958  1962  0
1737  1962  1963  0
1737  1963  1744  0
1720  1738  1952  0
1964  1739  1520  0
1964  1961  1739  0
1521  1513  1965  0
1521  1965  1742  0
1742  1966  1740  0
1735  1743  1963  0
1744  1963  1743  0
1738  1746  1751  0
1302  1725  1967  0
1302  1967  1523  0
1520  1748  1964  0
1747  1522  1968  0
1747  1968  1748  0
1757  1968  1522  0
1740  1969  1741  0
1740  1966  1969  0
1970  1969  1966  0
1971  1969  1970  0
1745  1744  1743  0
1751  1760  1972  0
1761  1972  1760  0
1751  1972  1973  0
1972  1761  1763  0
1972  1763  1974  0
1763  1975  1974  0
1763  1762  1765  0
1763  1765  1975  0
1976  1975  1765  0
1977  1976  1765  0
1765  1767  1977  0
1523  1978  1752  0
1755  1979  1756  0
1980  1757  1741  0
1741  1969  1980  0
1971  1980  1969  0
1772  1743  1528  0
1743  1772  1745  0
1761  1764  1763  0
1981  1767  1768  0
1752  1982  1769  0
1983  1771  1756  0
1768  1548  1984  0
1776  1553  1985  0
1549  1986  1550  0
1553  1559  1985  0
1987  1988  1989  0
1987  1990  1988  0
1988  1779  1989  0
1988  1990  1991  0
1988  1782  1779  0
1988  1991  1782  0
1782  1991  1992  0
1782  1993  1784  0
1782  1992  1993  0
1548  1788  1984  0
1989  1542  1987  0
1989  1994  1542  0
1989  1779  1790  0
1784  1993  1995  0
1784  1995  1787  0
1786  1787  1996  0
1559  1558  1997  0
1989  1790  1998  0
1989  1998  1994  0
1999  1998  1790  0
1790  1781  1999  0
1786  1996  1796  0
2000  1796  1996  0
1788  1186  1792  0
1797  1792  1567  0
1343  1789  1793  0
1998  1999  2001  0
1999  1781  2002  0
1794  2002  1781  0
1794  1795  2003  0
2004  2003  1795  0
2005  2004  1795  0
1795  1796  2005  0
2006  2005  1796  0
2000  2006  1796  0
1793  1789  2007  0
2003  2002  1794  0
1573  1800  1797  0
1570  1575  2008  0
1799  2008  1575  0
1570  2008  2009  0
1800  1581  2010  0
1799  2011  2008  0
1581  1802  2010  0
1583  1798  2012  0
2011  1799  1804  0
1580  2013  1585  0
1585  2013  1808  0
1803  2014  1802  0
1803  1805  2014  0
1583  2012  1806  0
2011  1804  2015  0
1804  2016  2017  0
1804  2017  2015  0
1808  2013  2018  0
1805  1809  2019  0
1805  2020  2014  0
1809  1596  1814  0
1809  1814  2019  0
2021  1811  1810  0
1804  1386  2016  0
2022  1808  2018  0
1808  2022  1594  0
1812  1594  2022  0
1805  2019  2023  0
1805  2023  2020  0
2019  1814  2024  0
2019  2024  2023  0
1814  1815  2025  0
1814  2025  2024  0
1815  1816  2026  0
1815  2026  2025  0
1816  1604  1817  0
1816  1817  2026  0
1811  2021  1818  0
2027  2021  2028  0
1386  1820  2029  0
1813  2030  1821  0
2031  2025  2026  0
2026  1817  2031  0
2032  2031  1817  0
1817  1818  2032  0
1818  2021  2032  0
2027  2032  2021  0
1612  1821  1613  0
2033  1613  1821  0
1610  1613  2034  0
2035  2036  2037  0
2036  2038  2037  0
2038  2036  2039  0
2038  2040  2041  0
2038  2039  2040  0
2040  2039  2042  0
2035  2037  2043  0
2044  2043  2037  0
2037  2038  2045  0
2038  2041  2045  0
2041  2046  2045  0
2037  2045  2044  0
2047  2044  2045  0
2046  2047  2045  0
2048  2049  2050  0
2049  2048  1822  0
1825  1822  2048  0
2049  1822  1826  0
2051  2049  1826  0
1825  2052  1829  0
2053  1836  1835  0
1838  1836  2053  0
2053  2054  1838  0
1827  1840  1826  0
1826  1840  2055  0
1826  2055  2051  0
1829  2052  1830  0
2056  1830  2052  0
2057  2058  1844  0
1844  2059  1842  0
1844  2058  2059  0
2059  1835  1837  0
2059  1837  1842  0
1838  2054  2060  0
1838  2060  1839  0
2054  2061  2060  0
2061  2062  2063  0
2061  2063  2060  0
2064  2062  2061  0
2062  2065  2063  0
2062  2064  2065  0
2065  2066  1847  0
2065  1847  2063  0
2067  1847  2066  0
1840  2068  2055  0
1830  2056  1841  0
2057  1844  1852  0
1839  2060  2069  0
1839  2069  1846  0
2060  2063  2070  0
2060  2070  2069  0
2063  1848  2070  0
2063  1847  1848  0
1847  2067  1616  0
2071  1616  2067  0
1616  2071  1614  0
2072  1614  2071  0
1614  2072  1849  0
1614  1849  1615  0
1840  1621  2073  0
1841  2056  1850  0
2074  1850  2056  0
1852  1851  1860  0
1846  2069  2075  0
1846  2075  1853  0
2069  2070  2076  0
2069  2076  2075  0
2070  1630  2076  0
2070  1848  1630  0
1848  1225  1630  0
1854  1849  2072  0
1621  1626  1858  0
1858  2073  1621  0
1856  1853  1866  0
2077  1866  1853  0
1853  2078  2077  0
1853  2075  2078  0
2079  2078  2075  0
2075  2076  2079  0
2072  1862  1854  0
1629  1855  1864  0
1859  2080  1860  0
1862  2081  1863  0
1858  1857  2082  0
1868  2082  1857  0
1864  2083  1865  0
2084  1859  1861  0
1861  1866  2085  0
1861  2085  2084  0
1866  2077  2086  0
1866  2086  2087  0
1870  1867  1863  0
1868  1869  2088  0
2087  2085  1866  0
1635  2089  1633  0
1863  2090  1870  0
2088  1869  1643  0
2091  1865  2083  0
1635  1445  2089  0
1870  2092  1637  0
2093  1637  2092  0
1637  2093  1871  0
1871  1643  1433  0
2088  1643  1871  0
2091  1872  1865  0
2094  1873  2095  0
1873  2094  1874  0
2096  1874  2094  0
1874  2096  1640  0
1875  1640  2096  0
1445  1880  2089  0
1872  2097  1644  0
2095  1873  2098  0
1873  1876  2098  0
2099  1646  1877  0
1646  2099  2100  0
1646  2100  1879  0
1879  2100  2101  0
1879  2101  2102  0
1876  1878  2103  0
1876  2103  2104  0
1876  2104  2098  0
2105  2104  2103  0
1879  2102  1652  0
1642  1885  1668  0
1663  1653  1893  0
2106  1893  1653  0
1653  1881  2106  0
2107  2106  1881  0
1881  1882  2108  0
1881  2108  2107  0
1648  1645  2109  0
1644  2109  1645  0
1648  2109  2110  0
1648  2110  1884  0
1878  1889  2103  0
2111  2103  1889  0
2103  2111  2105  0
2112  2105  2111  0
1668  1885  1891  0
2113  1891  1885  0
2114  1892  1893  0
2115  2114  1893  0
1893  2106  2115  0
2107  2115  2106  0
1659  1887  1888  0
2116  1888  1887  0
1888  2116  1889  0
2117  1889  2116  0
1889  2117  2111  0
2118  2111  2117  0
2111  2118  2112  0
1660  1652  2119  0
1660  2119  1890  0
1455  1895  2120  0
1455  2120  1661  0
1892  2113  1885  0
1885  1662  1892  0
1900  2121  1901  0
1900  2122  2121  0
2123  2121  2122  0
2124  2121  2123  0
2121  2124  1901  0
2125  1901  2124  0
1887  1894  2126  0
1887  2126  2116  0
2127  2117  2116  0
2117  2127  2118  0
1890  2128  1464  0
1890  1464  1667  0
1890  2119  2128  0
1891  2129  1264  0
1896  1673  2130  0
1896  2131  1897  0
2132  1897  2131  0
1897  2132  1900  0
2122  1900  2132  0
1901  2125  1899  0
2133  1899  2125  0
1894  2134  2126  0
1688  1264  2129  0
1673  1912  2130  0
1899  2133  1902  0
1894  1676  1916  0
1894  1916  2134  0
1905  2135  1907  0
1907  2135  1909  0
1909  2136  1682  0
1682  2136  1910  0
1915  1914  2137  0
1915  2137  2138  0
1914  1902  2139  0
1914  2139  2137  0
1902  2133  2139  0
1910  2136  2140  0
1910  2140  1911  0
1911  2140  2141  0
1911  2141  1918  0
1927  1912  1913  0
1919  1915  2142  0
2138  2142  1915  0
1919  2142  2143  0
1919  2143  1920  0
1921  1922  1916  0
2144  1916  1922  0
1480  1688  1934  0
1918  2141  2145  0
1918  2145  1926  0
1926  2145  2146  0
1926  2146  1931  0
1920  2143  2147  0
1922  2148  2144  0
1922  1928  2148  0
1929  2149  2150  0
1929  2150  1923  0
1930  1487  1924  0
1924  1925  1930  0
1932  2151  1927  0
1928  1933  2152  0
1934  2149  1929  0
1487  1930  2153  0
1487  2153  1128  0
1930  1698  2154  0
1930  2154  2153  0
1920  2147  1935  0
2155  1935  2147  0
1933  1936  2156  0
1933  2156  2152  0
1937  1710  2157  0
1937  2157  1938  0
1710  2158  2157  0
2158  2159  2157  0
2158  2160  2159  0
2160  2161  2159  0
1128  2153  2162  0
2153  2163  2162  0
2153  2154  2163  0
2154  1698  1702  0
2154  1702  2163  0
1704  1942  1705  0
1939  1935  2164  0
1935  2155  2164  0
1936  1940  2165  0
1936  2165  2156  0
1707  1938  1945  0
2166  1945  1938  0
1710  1941  2158  0
2167  2160  2158  0
1128  2162  1946  0
1128  1946  1711  0
2162  2163  1946  0
1712  2163  1702  0
1946  2163  1712  0
2168  2169  2170  0
2170  2169  2171  0
1940  1943  2165  0
2172  2165  1943  0
1941  1949  2158  0
2173  2158  1949  0
2158  2173  2167  0
1946  1712  1716  0
2174  2168  2170  0
2170  2171  2174  0
1943  1948  2172  0
2175  2172  1948  0
1944  1945  2176  0
1944  2176  1731  0
1949  2177  2173  0
2178  1954  1728  0
1728  1722  2178  0
1947  1722  1717  0
2179  2168  1955  0
1956  1955  2168  0
2180  2179  1955  0
2168  2174  1956  0
2181  1956  2174  0
2174  2171  2182  0
2174  2182  2183  0
2174  2183  2181  0
1948  1951  2175  0
1731  2176  1958  0
1949  1952  2177  0
1967  1725  1950  0
1726  1967  1950  0
2184  1953  1727  0
1727  1954  2184  0
1955  1957  2185  0
1955  2185  2180  0
1956  2181  1513  0
1726  1953  1967  0
2186  1959  1961  0
1959  2186  1960  0
2187  1960  2186  0
2188  1960  2187  0
1960  2188  1957  0
2185  1957  2188  0
1513  2181  1965  0
2181  2183  1965  0
2189  1965  2183  0
1951  1735  1963  0
1951  1963  1962  0
1952  1738  2190  0
1965  2189  1742  0
2191  1742  2189  0
1742  2191  1966  0
1738  1751  2190  0
1973  2190  1751  0
1973  1972  2192  0
1974  2192  1972  0
1973  2192  2193  0
1973  2193  2190  0
1975  2192  1974  0
2192  1975  2194  0
2192  2194  2193  0
1975  1976  2194  0
1523  1967  1978  0
1964  1748  2195  0
2196  2195  1748  0
2197  2196  1748  0
2198  2197  1748  0
1748  1968  2198  0
2199  2198  1968  0
1968  1757  2199  0
2200  2199  1757  0
2201  1971  1970  0
1970  1966  2202  0
1970  2202  2203  0
1970  2203  2201  0
1981  1977  1767  0
1977  1981  1976  0
1752  1978  2204  0
1752  2204  1982  0
1982  1770  1769  0
1982  2204  1770  0
1754  2205  1753  0
1770  2205  1754  0
1753  2205  2206  0
1753  2206  1755  0
1755  2206  2207  0
1755  2207  1979  0
1757  1980  2200  0
1980  1971  2200  0
2208  2200  1971  0
1971  2201  2208  0
2209  1981  1768  0
1756  1979  2210  0
1756  2210  1983  0
1991  1771  1983  0
1983  2211  1991  0
1768  1984  2209  0
2212  2209  1984  0
1771  1991  1990  0
1771  1990  1542  0
2213  1991  2211  0
1549  1776  1986  0
2214  1986  1776  0
1542  1990  1987  0
1991  2213  1992  0
2215  1993  1992  0
1993  2215  1995  0
2216  2217  2218  0
2216  2219  2220  0
2216  2220  2217  0
2218  2221  2216  0
2218  2222  2221  0
2222  2223  2221  0
2224  2221  2223  0
2225  1985  1559  0
1571  1542  1994  0
2226  1787  1995  0
1787  2226  1996  0
2227  1996  2226  0
1996  2228  2229  0
1996  2227  2228  0
2230  2231  2219  0
2219  2231  2220  0
2219  2216  2230  0
2216  2221  2230  0
2232  2230  2221  0
2233  2232  2221  0
2221  2224  2233  0
2234  1789  1344  0
1344  1550  2234  0
1550  1986  2234  0
1986  2214  2234  0
1559  1997  2225  0
2235  1997  1558  0
1571  1994  2236  0
2004  2005  2237  0
2238  2237  2005  0
2005  2006  2238  0
1996  2229  2000  0
2239  2000  2229  0
2229  2228  2239  0
2240  2241  2242  0
2242  2241  2243  0
2244  2243  2241  0
2242  2231  2240  0
2245  2240  2231  0
2231  2230  2245  0
2230  2232  2246  0
1792  1797  2247  0
2248  1789  2234  0
1558  1566  2009  0
1558  2009  2235  0
1566  1570  2009  0
1571  2236  1572  0
2249  2236  1994  0
1994  1998  2249  0
2250  2249  1998  0
1998  2001  2250  0
2251  2250  2001  0
2001  1999  2251  0
2002  2251  1999  0
2003  2004  2252  0
2006  2000  2238  0
2253  2238  2000  0
2000  2239  2253  0
2254  2255  2244  0
2254  2256  2257  0
2254  2257  2255  0
2244  2241  2254  0
2245  2258  2240  0
1797  1800  2246  0
1797  2246  2259  0
1789  2248  2007  0
1572  2236  2249  0
2250  2251  2260  0
2250  2260  2261  0
2250  2261  2249  0
2002  2003  2251  0
2003  2262  2251  0
2241  2240  2258  0
2241  2258  2254  0
1793  2007  2263  0
1793  2263  1798  0
2007  2248  2264  0
2007  2264  2263  0
2009  2008  2265  0
1572  2249  2013  0
2260  2266  2261  0
2260  2251  2262  0
2260  2262  2266  0
2256  2267  2257  0
2256  2254  2268  0
2256  2268  2267  0
2254  2258  2269  0
2254  2269  2268  0
1798  2263  2270  0
2271  2270  2263  0
2263  2264  2271  0
2265  2008  2272  0
2011  2272  2008  0
1572  2013  1580  0
1798  2270  2012  0
2273  2265  2272  0
2015  2272  2011  0
2014  2274  1802  0
2020  2274  2014  0
1810  1806  2012  0
2012  2275  1810  0
2012  2270  2275  0
2276  2275  2277  0
2275  2270  2278  0
2275  2278  2277  0
2277  2278  2279  0
2277  2279  2276  0
2280  2273  2272  0
2272  2015  2280  0
2017  2280  2015  0
2013  2281  2018  0
1810  2275  2021  0
2028  2021  2275  0
2275  2276  2028  0
2282  2273  2280  0
2283  2280  2017  0
2284  2283  2017  0
2017  2016  2284  0
2029  2284  2016  0
2016  1386  2029  0
1812  2030  1813  0
1812  2022  2285  0
1812  2285  2030  0
2020  2023  2286  0
2287  2286  2023  0
2023  2024  2287  0
2288  2287  2024  0
2024  2289  2288  0
2028  2276  2027  0
2280  2283  2282  0
2284  2029  2290  0
2284  2290  2291  0
2029  2292  2290  0
2029  1820  2292  0
2024  2025  2289  0
2025  2031  2293  0
2025  2293  2289  0
2031  2032  2293  0
2032  2027  2294  0
2032  2294  2293  0
2290  2295  2291  0
2290  2292  2295  0
2292  1820  2296  0
1820  1610  2034  0
1820  2034  2296  0
1821  2297  2033  0
2296  2034  2298  0
2034  1613  2299  0
2034  2299  2298  0
1613  2033  2299  0
2300  2301  2302  0
2301  2303  2302  0
2301  2304  2303  0
2300  2302  2305  0
2302  2303  2306  0
2303  2307  2306  0
2303  2308  2307  0
2302  2306  2305  0
2306  2307  2039  0
2306  2309  2305  0
2307  2308  2042  0
2307  2042  2039  0
2308  2310  2042  0
2308  2311  2310  0
2310  2311  2312  0
2309  2306  2036  0
2309  2036  2035  0
2313  2309  2035  0
2306  2039  2036  0
2314  2042  2310  0
2310  2315  2314  0
2316  2317  2318  0
2316  2318  2319  0
2320  2321  2043  0
2043  2321  2313  0
2043  2313  2035  0
2042  2314  2040  0
2322  2040  2314  0
2314  2323  2322  0
2314  2324  2323  0
2323  2324  2325  0
2326  2327  2316  0
2316  2319  2326  0
2328  2320  2043  0
2329  2046  2041  0
2041  2040  2329  0
2330  2329  2040  0
2040  2322  2330  0
2331  2330  2322  0
2322  2323  2331  0
2332  2331  2323  0
2323  2325  2332  0
2327  2326  2333  0
2048  2333  2326  0
2327  2333  2334  0
2335  2334  2333  0
2326  2319  2048  0
2319  2318  2336  0
2043  2044  2328  0
2047  2328  2044  0
2337  2047  2046  0
2338  2337  2046  0
2046  2329  2338  0
2339  2338  2329  0
2329  2330  2339  0
2330  2331  2339  0
2340  2339  2331  0
2341  2340  2331  0
2331  2332  2341  0
2342  2341  2332  0
2332  2335  2342  0
2335  2333  2342  0
2050  2342  2333  0
2333  2048  2050  0
1825  2048  2319  0
2319  2336  1825  0
2341  2342  2343  0
2342  2344  2343  0
2342  2050  2051  0
2049  2051  2050  0
1825  2336  2052  0
2345  2052  2336  0
2342  2051  2344  0
2051  2055  2344  0
2346  2052  2345  0
2347  2348  2058  0
2347  2349  2348  0
2350  2348  2349  0
2347  2058  2351  0
2347  2351  2349  0
2348  2059  2058  0
2348  2350  2059  0
2059  2350  1835  0
2352  1835  2350  0
1835  2352  2053  0
2353  2053  2352  0
2354  2053  2353  0
2053  2354  2054  0
2355  2054  2354  0
2054  2355  2061  0
2356  2061  2355  0
2055  2068  2357  0
2055  2357  2344  0
2052  2346  2056  0
2058  2057  2358  0
2058  2358  2351  0
2061  2356  2064  0
2359  2064  2356  0
2064  2359  2065  0
2067  2066  2065  0
2360  2056  2346  0
2057  1852  2361  0
2057  2361  2358  0
2067  2362  2071  0
2068  1840  2073  0
2056  2360  2074  0
1852  1860  2363  0
1852  2363  2361  0
2364  2071  2362  0
2071  2364  2072  0
2365  2366  2367  0
2368  2367  2366  0
2365  2369  2366  0
2370  2363  1860  0
2371  2079  2076  0
2076  1630  2371  0
2072  2364  1862  0
2073  1858  2372  0
2373  2372  1858  0
2082  2373  1858  0
2074  2374  2375  0
2074  2375  1850  0
1850  2375  1855  0
1855  2376  1864  0
2080  2370  1860  0
2077  2078  2377  0
2077  2377  2378  0
2078  2079  2377  0
2079  2371  2377  0
1633  2377  2371  0
2371  1630  1633  0
1862  2364  2379  0
1862  2379  2081  0
2088  2082  1868  0
2080  1859  2380  0
2084  2380  1859  0
2077  2378  2086  0
2081  2090  1863  0
2380  2084  2381  0
2382  2378  2377  0
2088  1871  2093  0
2083  2383  2091  0
2384  2091  2383  0
2094  2385  2096  0
2094  2386  2385  0
2387  2385  2386  0
2094  2095  2386  0
2385  2387  2096  0
2388  2096  2387  0
2087  2086  2101  0
2087  2101  2100  0
2087  2100  2085  0
2086  2378  2101  0
2092  1870  2090  0
2091  2384  1872  0
2389  1872  2384  0
2096  2388  1875  0
1875  2099  1877  0
1875  2388  2099  0
2084  2099  2388  0
2085  2100  2099  0
2101  2378  2390  0
2378  2382  2390  0
2095  2098  2391  0
2098  2104  2392  0
2098  2392  2391  0
2392  2104  2105  0
2101  2390  2102  0
2089  1880  2393  0
1644  2097  2109  0
2097  1872  2394  0
2097  2394  2109  0
2109  2394  2395  0
2109  2395  2110  0
1652  2102  2119  0
2107  2108  2396  0
2397  2396  2108  0
2108  1882  2397  0
1882  1883  2397  0
2398  2397  1883  0
1883  1886  2398  0
2399  2400  2124  0
2401  2124  2400  0
2402  2399  2124  0
2400  2403  2401  0
2403  2400  2404  0
2403  2404  2405  0
1661  2120  2406  0
1661  2406  1880  0
2113  2129  1891  0
2407  2113  1892  0
1892  2114  2407  0
2115  2407  2114  0
2398  1886  2408  0
2409  2408  1886  0
1886  1884  2409  0
2110  2409  1884  0
2122  2410  2123  0
2402  2123  2410  0
2123  2402  2124  0
2124  2401  2125  0
2116  2126  2127  0
2127  2411  2118  0
2118  2411  2412  0
2128  1895  1464  0
1895  2128  2119  0
1896  2130  2131  0
2131  2413  2132  0
2131  2130  2413  0
2132  2413  2122  0
2410  2122  2413  0
2125  2401  2133  0
2401  2403  2414  0
2401  2414  2415  0
2126  2416  2127  0
2417  2127  2416  0
2126  2134  2418  0
2126  2418  2416  0
2411  2127  2417  0
2129  2419  1688  0
1912  2420  2130  0
2133  2401  2415  0
2133  2415  2421  0
2133  2421  2139  0
2134  1916  2418  0
1904  1923  1905  0
2138  2137  2422  0
2138  2422  2423  0
2137  2139  2424  0
2137  2424  2422  0
2139  2421  2424  0
1916  2144  2418  0
2425  2418  2144  0
1905  1923  2135  0
2136  1909  2426  0
2136  2427  2140  0
2136  2426  2427  0
2141  2140  2427  0
2142  2138  2423  0
2142  2423  2428  0
2142  2428  2143  0
2144  2148  2425  0
2429  2425  2148  0
1688  2430  1934  0
2141  2431  2145  0
2429  2148  1928  0
1934  2430  2149  0
2150  2149  2432  0
2145  2431  2146  0
1931  2146  1932  0
2151  2433  1927  0
1928  2152  2429  0
2434  2429  2152  0
2157  2159  2435  0
2436  2435  2159  0
2159  2161  2436  0
2437  2436  2161  0
1932  2146  2151  0
2147  2438  2155  0
2439  2155  2438  0
2152  2156  2440  0
2152  2440  2434  0
2434  2440  2441  0
2161  2160  2442  0
2161  2442  2443  0
2161  2443  2437  0
2155  2439  2164  0
2444  2164  2439  0
2156  2445  2440  0
2441  2440  2445  0
2156  2165  2445  0
2160  2167  2442  0
1704  1939  2446  0
1704  2446  1942  0
1939  2164  2444  0
1939  2444  2446  0
2168  2447  2169  0
2168  2179  2447  0
2169  2448  2171  0
2449  2171  2448  0
2165  2172  2450  0
2165  2450  2445  0
2451  1945  2166  0
2167  2173  2442  0
2452  2442  2173  0
2442  2452  2443  0
2453  2443  2452  0
1942  2454  1947  0
2171  2449  2182  0
2172  2175  2450  0
2455  2450  2175  0
1945  2451  2456  0
1945  2456  2176  0
2457  2173  2177  0
2458  2173  2457  0
2173  2458  2452  0
1954  2459  2184  0
2459  1954  2460  0
2178  2460  1954  0
2178  1722  2461  0
1722  1947  2461  0
2454  2461  1947  0
2179  2180  2462  0
2182  2463  2183  0
2175  1951  2455  0
1962  2455  1951  0
2455  1962  2176  0
1958  2176  1962  0
2455  2176  2464  0
2456  2464  2176  0
2177  2465  2457  0
2457  2465  2466  0
2457  2466  2458  0
2452  2458  2467  0
2452  2467  2453  0
1953  2184  2468  0
2180  2185  2469  0
2183  2463  2470  0
2177  1952  2465  0
1953  2468  1967  0
1978  1967  2468  0
1961  2471  2186  0
2472  2186  2471  0
1961  2473  2471  0
2186  2472  2187  0
2474  2187  2472  0
2187  2474  2188  0
2469  2188  2474  0
2188  2469  2185  0
2183  2470  2189  0
1952  2190  2465  0
2465  2190  2193  0
2465  2193  2475  0
1961  1964  2473  0
2189  2470  2191  0
2476  2191  2470  0
2191  2476  1966  0
2477  1966  2476  0
2194  2478  2193  0
2194  1976  2478  0
2197  2198  2479  0
2199  2200  2480  0
1966  2477  2202  0
2481  1976  1981  0
2204  2482  1770  0
2205  1770  2482  0
2207  2210  1979  0
2207  2483  2210  0
1981  2209  2481  0
2484  2481  2209  0
2210  2485  1983  0
2200  2208  2486  0
2208  2201  2487  0
2208  2487  2486  0
2201  2203  2488  0
2201  2488  2487  0
2484  2209  2489  0
2222  2489  2209  0
2490  2484  2489  0
2209  2212  2222  0
1776  2491  2492  0
1776  1985  2491  0
2211  1983  2493  0
2211  2493  2213  0
2213  2493  2494  0
1992  2213  2494  0
2494  2495  1992  0
2487  2496  2486  0
2487  2488  2497  0
2487  2497  2496  0
2218  2217  2490  0
2490  2217  2498  0
2490  2489  2218  0
2222  2218  2489  0
2222  2212  2223  0
1776  2492  2214  0
1985  2499  2491  0
1992  2495  2215  0
2500  2215  2495  0
2215  2500  1995  0
2226  1995  2500  0
2501  2226  2500  0
2226  2502  2227  0
2228  2227  2502  0
2226  2501  2502  0
2502  2496  2228  0
2486  2496  2502  0
2503  2228  2496  0
2496  2497  2503  0
2504  2497  2505  0
2506  2507  2508  0
2506  2509  2507  0
2510  2507  2509  0
2507  2510  2511  0
2511  2512  2513  0
2511  2513  2507  0
2514  2512  2511  0
2512  2220  2513  0
2498  2512  2514  0
2512  2217  2220  0
2512  2498  2217  0
2223  2212  1788  0
2223  1788  2224  0
2212  1984  1788  0
1985  2225  2515  0
2503  2497  2516  0
2497  2504  2516  0
2517  2508  2518  0
2517  2519  2508  0
2506  2508  2519  0
2517  2518  2519  0
2508  2507  2243  0
2507  2513  2242  0
2507  2242  2243  0
2513  2220  2231  0
2513  2231  2242  0
2224  1788  2247  0
2224  2247  2233  0
1788  1792  2247  0
2225  1997  2235  0
2225  2235  2520  0
2225  2520  2515  0
2252  2004  2237  0
2252  2237  2521  0
2252  2521  2522  0
2523  2252  2522  0
2237  2238  2524  0
2237  2524  2521  0
2238  2525  2524  0
2253  2525  2238  0
2228  2503  2526  0
2228  2526  2239  0
2503  2516  2527  0
2503  2527  2526  0
2518  2508  2255  0
2518  2255  2528  0
2508  2243  2244  0
2508  2244  2255  0
2232  2233  2259  0
2232  2259  2246  0
2233  2247  2259  0
1797  2259  2247  0
2529  2234  2214  0
2214  2492  2529  0
2235  2530  2520  0
2531  2262  2252  0
2003  2252  2262  0
2531  2252  2523  0
2239  2532  2253  0
2239  2526  2533  0
2526  2527  2533  0
2528  2255  2534  0
2257  2534  2255  0
2535  2258  2245  0
2245  2230  2535  0
2536  2535  2230  0
2230  2246  2536  0
2529  2248  2234  0
2530  2235  2537  0
2538  2530  2537  0
2261  2013  2249  0
2531  2539  2262  0
2239  2533  2532  0
2534  2257  2540  0
2534  2540  2541  0
2535  2269  2258  0
1800  2536  2246  0
2248  2529  2264  0
2529  2542  2264  0
2537  2235  2265  0
2235  2009  2265  0
2261  2543  2013  0
2266  2262  2539  0
2257  2267  2544  0
2257  2544  2540  0
2267  2545  2544  0
2269  2535  2546  0
2269  2546  2547  0
2269  2547  2268  0
2535  2536  2548  0
2535  2548  2546  0
2536  2010  2548  0
2536  1800  2010  0
2264  2542  2271  0
2537  2265  2549  0
2537  2549  2550  0
2537  2550  2538  0
2281  2013  2543  0
2281  2543  2551  0
2267  2268  2547  0
2267  2547  2545  0
2270  2271  2278  0
2271  2542  2278  0
2552  2278  2542  0
2549  2553  2550  0
2549  2265  2273  0
2549  2273  2553  0
2281  2551  2554  0
2555  2281  2554  0
2278  2552  2279  0
2556  2279  2552  0
2553  2273  2557  0
2281  2555  2018  0
2558  2018  2555  0
2559  2020  2286  0
2274  2020  2559  0
2560  2559  2286  0
2279  2556  2276  0
2561  2276  2556  0
2282  2557  2273  0
2018  2558  2022  0
2562  2022  2558  0
2285  2022  2562  0
2286  2287  2560  0
2563  2560  2287  0
2287  2288  2563  0
2561  2027  2276  0
2564  2565  2557  0
2557  2282  2564  0
2566  2564  2282  0
2282  2283  2566  0
2291  2566  2283  0
2283  2284  2291  0
2285  2297  2030  0
1821  2030  2297  0
2567  2288  2289  0
2289  2293  2567  0
2294  2568  2293  0
2293  2568  2567  0
2569  2294  2027  0
2027  2561  2569  0
2566  2291  2570  0
2571  2570  2291  0
2291  2295  2571  0
2298  2299  2572  0
2562  2572  2299  0
2033  2297  2299  0
2299  2297  2562  0
2285  2562  2297  0
2573  2568  2294  0
2574  2573  2294  0
2569  2574  2294  0
2575  2295  2292  0
2292  2296  2575  0
2296  2298  2575  0
2572  2575  2298  0
2576  2577  2578  0
2576  2578  2579  0
2576  2580  2577  0
2577  2580  2581  0
2582  2304  2583  0
2582  2583  2584  0
2582  2584  2585  0
2582  2586  2587  0
2582  2587  2304  0
2586  2579  2587  0
2586  2576  2579  0
2577  2581  2588  0
2583  2304  2301  0
2583  2301  2300  0
2583  2300  2589  0
2583  2589  2584  0
2577  2588  2590  0
2577  2590  2578  0
2304  2587  2308  0
2304  2308  2303  0
2587  2311  2308  0
2587  2579  2312  0
2587  2312  2311  0
2579  2578  2312  0
2578  2590  2591  0
2578  2591  2312  0
2590  2592  2591  0
2593  2591  2592  0
2300  2305  2594  0
2300  2594  2589  0
2312  2591  2595  0
2591  2593  2596  0
2591  2596  2595  0
2593  2597  2596  0
2593  2598  2597  0
2599  2597  2598  0
2305  2600  2594  0
2305  2309  2600  0
2312  2595  2315  0
2312  2315  2310  0
2597  2599  2316  0
2597  2316  2596  0
2599  2601  2317  0
2599  2317  2316  0
2602  2317  2601  0
2309  2313  2600  0
2603  2600  2313  0
2315  2595  2324  0
2315  2324  2314  0
2595  2596  2324  0
2596  2316  2327  0
2596  2327  2324  0
2317  2602  2318  0
2321  2603  2313  0
2334  2325  2324  0
2324  2327  2334  0
2325  2334  2332  0
2335  2332  2334  0
2318  2604  2336  0
2328  2047  2605  0
2606  2605  2047  0
2047  2337  2606  0
2338  2606  2337  0
2338  2339  2607  0
2608  2607  2339  0
2609  2608  2339  0
2339  2340  2609  0
2343  2340  2341  0
2338  2607  2610  0
2611  2610  2607  0
2609  2340  2608  0
2612  2608  2340  0
2340  2343  2612  0
2336  2604  2613  0
2336  2613  2345  0
2614  2615  2349  0
2350  2349  2615  0
2614  2616  2615  0
2617  2614  2349  0
2615  2616  2350  0
2616  2618  2350  0
2343  2344  2612  0
2344  2619  2612  0
2345  2613  2620  0
2345  2620  2346  0
2349  2351  2617  0
2350  2618  2352  0
2352  2621  2353  0
2352  2618  2621  0
2353  2621  2354  0
2354  2622  2355  0
2355  2622  2356  0
2619  2344  2357  0
2619  2357  2623  0
2351  2358  2617  0
2621  2624  2354  0
2354  2624  2622  0
2359  2625  2065  0
2065  2625  2362  0
2065  2362  2067  0
2346  2620  2626  0
2346  2626  2360  0
2627  2628  2629  0
2627  2630  2628  0
2627  2629  2631  0
2627  2631  2630  0
2358  2361  2632  0
2357  2068  2073  0
2357  2073  2372  0
2629  2628  2367  0
2629  2633  2631  0
2628  2365  2367  0
2628  2634  2365  0
2361  2363  2635  0
2625  2636  2637  0
2625  2637  2362  0
2362  2637  2364  0
2374  2360  2626  0
2360  2374  2074  0
2629  2367  2638  0
2629  2638  2633  0
2367  2368  2638  0
2365  2639  2369  0
2365  2634  2639  0
2640  2639  2634  0
2641  2639  2640  0
2363  2370  2635  0
2642  2635  2370  0
2372  2373  2643  0
2374  2644  2375  0
2645  2375  2644  0
2375  2376  1855  0
2375  2645  2376  0
2646  2368  2366  0
2641  2369  2639  0
2080  2647  2370  0
2080  2380  2647  0
2648  2647  2380  0
2637  2379  2364  0
1864  2376  2083  0
2376  2645  2649  0
2376  2649  2083  0
2366  2369  2646  0
2650  2646  2369  0
2380  2381  2648  0
2651  2648  2381  0
2370  2647  2642  0
2652  2653  2377  0
2377  1633  2652  0
1633  2089  2652  0
2379  2654  2081  0
2090  2081  2654  0
2093  2643  2373  0
2373  2082  2093  0
2088  2093  2082  0
2083  2649  2383  0
2651  2381  2387  0
2651  2387  2386  0
2651  2386  2655  0
2377  2653  2382  0
2652  2089  2656  0
2386  2095  2657  0
2387  2381  2388  0
2381  2084  2388  0
2084  2085  2099  0
2090  2654  2092  0
2384  2383  2658  0
2095  2391  2659  0
2095  2659  2657  0
2656  2089  2393  0
2391  2392  2660  0
2391  2660  2659  0
2392  2105  2661  0
2392  2661  2660  0
2382  2662  2390  0
2663  1872  2389  0
1872  2663  2394  0
2664  2394  2663  0
2665  2666  2667  0
2105  2112  2661  0
2118  2661  2112  0
2120  2102  2390  0
2390  2662  2120  0
2394  2664  2395  0
2668  2666  2399  0
2400  2399  2666  0
2668  2669  2666  0
2668  2399  2669  0
2670  2669  2399  0
2666  2665  2400  0
2404  2400  2665  0
2118  2412  2671  0
2672  2671  2412  0
2102  2120  2119  0
2406  2393  1880  0
2115  2107  2396  0
2673  2115  2396  0
2396  2397  2674  0
2408  2397  2398  0
2399  2402  2670  0
2404  2675  2676  0
2404  2676  2405  0
2677  2405  2676  0
2412  2678  2672  0
1895  2119  2120  0
2120  2662  2406  0
2113  2407  2679  0
2407  2115  2673  0
2674  2397  2680  0
2681  2680  2397  0
2397  2408  2681  0
2682  2409  2110  0
2110  2395  2682  0
2410  2683  2684  0
2410  2684  2402  0
2410  2685  2683  0
2402  2684  2670  0
2403  2405  2414  0
2113  2679  2129  0
2409  2686  2408  0
2409  2682  2686  0
2413  2130  2687  0
2413  2687  2688  0
2413  2688  2685  0
2413  2685  2410  0
2414  2405  2689  0
2414  2689  2690  0
2414  2690  2415  0
2412  2691  2678  0
2412  2411  2691  0
2130  2420  2687  0
2421  2415  2692  0
2421  2692  2693  0
2415  2690  2692  0
2418  2694  2416  0
2695  2678  2691  0
2678  2695  2696  0
2420  1912  2697  0
1912  1927  2697  0
2423  2422  2698  0
2422  2424  2698  0
2424  2421  2693  0
2424  2693  2698  0
2418  2425  2694  0
2430  1688  2419  0
2419  2699  2430  0
2700  2135  1923  0
2135  2700  1909  0
2701  2426  1909  0
1927  2433  2697  0
2702  2697  2433  0
2423  2698  2428  0
2703  2428  2698  0
2704  2425  2429  0
2696  2705  2706  0
2707  2706  2705  0
1923  2150  2708  0
2432  2708  2150  0
1923  2708  2700  0
2426  2701  2427  0
2709  2427  2701  0
2427  2709  2141  0
2431  2141  2709  0
2143  2428  2710  0
2711  2710  2428  0
2143  2710  2147  0
2712  2147  2710  0
2429  2434  2704  0
2430  2699  2149  0
2431  2709  2713  0
2431  2713  2146  0
2147  2712  2438  0
2157  2435  2714  0
2157  2714  1938  0
2715  2435  2436  0
2436  2437  2715  0
2716  2715  2437  0
2716  2437  2443  0
2716  2443  2717  0
2146  2718  2151  0
2438  2712  2719  0
2438  2719  2439  0
2439  2720  2444  0
2439  2719  2720  0
2445  2721  2441  0
2445  2722  2721  0
1938  2714  2723  0
1938  2723  2166  0
2443  2453  2724  0
1942  2446  2725  0
2446  2444  2726  0
2446  2726  2725  0
2447  2179  2727  0
2169  2447  2728  0
2169  2728  2448  0
2448  2729  2449  0
2448  2728  2730  0
2448  2730  2729  0
2445  2450  2731  0
2445  2731  2722  0
2166  2723  2732  0
2166  2732  2451  0
2726  2733  2725  0
2734  2444  2720  0
2179  2462  2727  0
2735  2727  2462  0
2449  2729  2736  0
2729  2737  2736  0
2450  2455  2731  0
2738  2731  2455  0
2451  2732  2456  0
2739  2453  2467  0
2453  2739  2724  0
2459  2460  2184  0
2740  2460  2178  0
2178  2461  2740  0
2472  2726  2444  0
2471  2733  2726  0
2444  2734  2472  0
2180  2741  2462  0
2735  2462  2741  0
2180  2469  2741  0
2742  2741  2469  0
2182  2449  2463  0
2736  2463  2449  0
2455  2464  2738  0
2465  2475  2466  0
2743  2458  2466  0
2458  2743  2467  0
2467  2744  2739  0
2467  2743  2744  0
2468  2184  2745  0
2460  2745  2184  0
2468  2745  2482  0
2726  2472  2471  0
2474  2472  2734  0
2734  2746  2474  0
2742  2474  2746  0
2474  2742  2469  0
2463  2747  2470  0
2466  2475  2743  0
2468  2482  1978  0
2471  2473  2748  0
2749  2748  2473  0
2470  2747  2750  0
2475  2193  2478  0
2475  2478  2743  0
2473  1964  2195  0
2473  2195  2751  0
2473  2751  2749  0
2751  2195  2196  0
2470  2750  2476  0
2476  2752  2477  0
2476  2750  2752  0
2478  2753  2743  0
1978  2482  2204  0
2482  2745  2754  0
2754  2205  2482  0
2754  2755  2205  0
2196  2197  2756  0
2196  2756  2751  0
2197  2479  2757  0
2197  2757  2756  0
2198  2199  2480  0
2198  2480  2758  0
2198  2758  2479  0
2759  1976  2481  0
2759  2760  2478  0
2759  2478  1976  0
2205  2755  2206  0
2207  2206  2483  0
2483  2761  2210  0
2480  2200  2486  0
2480  2486  2762  0
2480  2762  2758  0
2477  2752  2763  0
2477  2763  2202  0
2202  2763  2203  0
2764  2498  2765  0
2764  2481  2484  0
2764  2484  2498  0
2764  2759  2481  0
2210  2761  2485  0
2485  2493  1983  0
2762  2486  2501  0
2203  2766  2488  0
2203  2763  2766  0
2767  2488  2766  0
2768  2769  2770  0
2769  2768  2514  0
2765  2514  2768  0
2498  2514  2765  0
2498  2484  2490  0
2492  2491  2771  0
2771  2491  2772  0
2773  2772  2491  0
2774  2773  2491  0
2493  2775  2494  0
2776  2494  2775  0
2494  2777  2495  0
2494  2776  2777  0
2778  2777  2776  0
2500  2495  2777  0
2777  2762  2500  0
2501  2500  2762  0
2501  2486  2502  0
2505  2497  2488  0
2488  2767  2505  0
2779  2505  2767  0
2780  2781  2782  0
2782  2783  2780  0
2509  2780  2783  0
2782  2784  2783  0
2785  2783  2784  0
2783  2510  2509  0
2783  2785  2510  0
2770  2510  2785  0
2511  2510  2769  0
2510  2770  2769  0
2769  2514  2511  0
2491  2499  2774  0
2786  2505  2779  0
2787  2505  2786  0
2781  2788  2789  0
2781  2789  2790  0
2781  2780  2788  0
2519  2788  2780  0
2780  2509  2519  0
2506  2519  2509  0
2499  1985  2515  0
2521  2791  2522  0
2521  2524  2792  0
2521  2792  2791  0
2524  2793  2792  0
2524  2794  2793  0
2504  2505  2795  0
2504  2795  2516  0
2505  2787  2796  0
2505  2796  2795  0
2788  2519  2518  0
2788  2518  2528  0
2788  2528  2789  0
2523  2522  2797  0
2524  2525  2794  0
2525  2253  2532  0
2525  2532  2798  0
2525  2798  2799  0
2525  2799  2794  0
2798  2532  2800  0
2798  2800  2801  0
2798  2801  2799  0
2516  2795  2527  0
2528  2534  2541  0
2528  2541  2789  0
2771  2802  2529  0
2771  2529  2492  0
2771  2803  2802  0
2539  2531  2523  0
2539  2523  2804  0
2527  2805  2533  0
2527  2795  2806  0
2527  2806  2805  0
2530  2538  2520  0
2807  2532  2533  0
2533  2805  2807  0
2806  2807  2805  0
2541  2540  2808  0
2529  2802  2542  0
2809  2542  2802  0
2810  2811  2812  0
2813  2811  2810  0
2811  2813  2814  0
2261  2266  2815  0
2539  2815  2266  0
2261  2815  2543  0
2816  2547  2546  0
2546  2548  2816  0
2550  2817  2538  0
2812  2818  2810  0
2551  2543  2819  0
2545  2547  2820  0
2821  2820  2547  0
2547  2816  2821  0
2274  2816  2548  0
2548  2010  2274  0
1802  2274  2010  0
2542  2809  2552  0
2822  2552  2809  0
2817  2550  2823  0
2553  2823  2550  0
2817  2823  2824  0
2818  2825  2810  0
2810  2825  2813  0
2826  2813  2825  0
2554  2551  2827  0
2554  2827  2555  0
2559  2828  2816  0
2816  2828  2821  0
2829  2821  2828  0
2816  2274  2559  0
2552  2822  2556  0
2823  2553  2830  0
2557  2830  2553  0
2823  2830  2831  0
2826  2832  2833  0
2555  2827  2558  0
2828  2559  2834  0
2828  2834  2829  0
2559  2560  2835  0
2559  2835  2834  0
2830  2557  2565  0
2830  2565  2836  0
2830  2836  2831  0
2825  2832  2826  0
2558  2837  2562  0
2558  2827  2838  0
2558  2838  2837  0
2560  2839  2835  0
2560  2563  2840  0
2560  2840  2839  0
2563  2288  2841  0
2563  2841  2840  0
2565  2564  2842  0
2565  2842  2836  0
2837  2838  2843  0
2837  2843  2572  0
2837  2572  2562  0
2288  2567  2844  0
2567  2568  2844  0
2569  2561  2845  0
2564  2566  2846  0
2564  2846  2842  0
2566  2570  2846  0
2570  2571  2847  0
2571  2295  2575  0
2571  2575  2843  0
2571  2843  2847  0
2575  2572  2843  0
2568  2573  2848  0
2573  2574  2848  0
2849  2850  2585  0
2851  2585  2850  0
2585  2851  2582  0
2586  2582  2851  0
2851  2576  2586  0
2851  2852  2576  0
2580  2576  2852  0
2580  2853  2581  0
2854  2581  2853  0
2849  2585  2584  0
2581  2854  2588  0
2855  2588  2854  0
2589  2856  2584  0
2592  2590  2588  0
2588  2855  2592  0
2857  2592  2855  0
2856  2589  2858  0
2594  2858  2589  0
2859  2860  2594  0
2592  2598  2593  0
2592  2857  2598  0
2861  2598  2857  0
2594  2600  2859  0
2862  2859  2600  0
2863  2862  2600  0
2598  2601  2599  0
2598  2861  2601  0
2864  2601  2861  0
2865  2601  2864  0
2601  2865  2602  0
2600  2603  2863  0
2866  2863  2603  0
2602  2604  2318  0
2321  2867  2868  0
2321  2320  2867  0
2869  2867  2320  0
2321  2868  2870  0
2321  2870  2603  0
2603  2870  2866  0
2604  2602  2871  0
2328  2869  2320  0
2872  2873  2874  0
2872  2875  2873  0
2869  2328  2876  0
2869  2876  2877  0
2328  2605  2878  0
2328  2878  2876  0
2605  2606  2879  0
2606  2338  2610  0
2607  2608  2880  0
2607  2880  2611  0
2604  2871  2613  0
2874  2873  2881  0
2882  2883  2616  0
2882  2616  2614  0
2882  2614  2884  0
2606  2885  2879  0
2606  2610  2885  0
2610  2611  2886  0
2610  2886  2885  0
2611  2880  2886  0
2880  2608  2887  0
2880  2887  2886  0
2608  2612  2887  0
2881  2873  2888  0
2881  2888  2889  0
2881  2889  2890  0
2881  2890  2874  0
2873  2891  2892  0
2873  2892  2888  0
2891  2893  2892  0
2614  2617  2894  0
2614  2894  2884  0
2616  2883  2895  0
2616  2895  2618  0
2887  2612  2896  0
2612  2619  2623  0
2612  2623  2896  0
2897  2620  2613  0
2617  2898  2894  0
2899  2618  2895  0
2900  2620  2897  0
2889  2901  2890  0
2889  2888  2901  0
2888  2892  2630  0
2888  2630  2901  0
2892  2902  2628  0
2892  2628  2630  0
2892  2893  2902  0
2903  2902  2893  0
2902  2904  2628  0
2904  2902  2903  0
2617  2358  2898  0
2632  2898  2358  0
2905  2618  2899  0
2618  2905  2621  0
2906  2621  2905  0
2621  2906  2624  0
2907  2624  2906  0
2908  2624  2907  0
2624  2908  2622  0
2359  2356  2622  0
2909  2910  2623  0
2901  2630  2911  0
2630  2631  2911  0
2912  2911  2631  0
2634  2628  2904  0
2904  2913  2634  0
2913  2914  2634  0
2905  2915  2906  0
2907  2906  2915  0
2908  2916  2622  0
2622  2916  2359  0
2917  2359  2916  0
2359  2917  2625  0
2623  2357  2909  0
2620  2900  2626  0
2631  2633  2912  0
2634  2914  2640  0
2918  2640  2914  0
2632  2361  2919  0
2920  2919  2361  0
2361  2635  2920  0
2907  2921  2908  0
2916  2908  2921  0
2917  2636  2625  0
2909  2357  2922  0
2372  2922  2357  0
2626  2923  2374  0
2374  2923  2644  0
2633  2638  2912  0
2638  2368  2924  0
2638  2924  2912  0
2640  2918  2925  0
2640  2925  2641  0
2916  2926  2917  0
2917  2926  2636  0
2636  2927  2637  0
2636  2928  2927  0
2644  2923  2929  0
2644  2929  2645  0
2368  2646  2930  0
2368  2930  2924  0
2369  2641  2931  0
2369  2931  2650  0
2641  2925  2931  0
2637  2927  2379  0
2645  2932  2649  0
2646  2650  2933  0
2646  2933  2934  0
2646  2934  2930  0
2650  2931  2935  0
2650  2935  2936  0
2650  2936  2933  0
2648  2651  2655  0
2647  2648  2937  0
2647  2937  2642  0
2379  2927  2938  0
2643  2093  2092  0
2649  2932  2939  0
2649  2939  2383  0
2933  2936  2934  0
2940  2379  2938  0
2379  2940  2654  0
2643  2092  2654  0
2383  2939  2658  0
2941  2942  2943  0
2944  2942  2941  0
2655  2386  2657  0
2653  2652  2945  0
2946  2384  2658  0
2947  2657  2659  0
2382  2653  2662  0
2653  2945  2662  0
2652  2656  2945  0
2384  2946  2389  0
2948  2389  2946  0
2949  2950  2942  0
2942  2944  2949  0
2665  2667  2951  0
2952  2951  2953  0
2951  2667  2953  0
2954  2953  2667  0
2951  2955  2665  0
2951  2952  2955  0
2956  2955  2952  0
2957  2955  2956  0
2659  2660  2947  0
2661  2947  2660  0
2393  2945  2656  0
2389  2948  2663  0
2958  2663  2948  0
2666  2669  2667  0
2669  2959  2667  0
2954  2667  2959  0
2665  2955  2404  0
2675  2404  2955  0
2955  2957  2675  0
2960  2675  2957  0
2661  2118  2671  0
2406  2662  2945  0
2945  2393  2406  0
2663  2958  2664  0
2669  2670  2959  0
2675  2960  2961  0
2675  2961  2676  0
2674  2680  2962  0
2674  2962  2396  0
2684  2683  2963  0
2670  2684  2959  0
2676  2961  2677  0
2673  2679  2407  0
2681  2408  2964  0
2683  2685  2965  0
2689  2405  2677  0
2689  2677  2966  0
2689  2966  2967  0
2689  2967  2968  0
2696  2969  2678  0
2679  2970  2129  0
2408  2686  2964  0
2688  2687  2971  0
2688  2971  2972  0
2688  2972  2685  0
2965  2685  2972  0
2689  2968  2690  0
2706  2969  2696  0
2973  2969  2706  0
2974  2969  2973  0
2970  2419  2129  0
2975  2693  2692  0
2692  2690  2975  0
2968  2975  2690  0
2416  2694  2417  0
2976  2411  2417  0
2411  2976  2691  0
2695  2691  2976  0
2973  2977  2974  0
2419  2970  2699  0
2697  2978  2420  0
2702  2978  2697  0
2979  2703  2698  0
2698  2693  2979  0
2980  2694  2425  0
2981  2695  2976  0
2706  2707  2973  0
2977  2973  2707  0
2982  2974  2977  0
2701  1909  2700  0
2703  2711  2428  0
2425  2704  2980  0
2695  2981  2696  0
2696  2981  2705  0
2983  2707  2705  0
2707  2983  2977  0
2982  2977  2983  0
2708  2432  2984  0
2708  2984  2985  0
2708  2985  2700  0
2700  2985  2986  0
2700  2986  2701  0
2701  2987  2709  0
2701  2986  2987  0
2433  2988  2702  0
2704  2434  2989  0
2704  2989  2980  0
2149  2699  2432  0
2987  2713  2709  0
2713  2718  2146  0
2151  2990  2433  0
2434  2441  2991  0
2434  2991  2989  0
2435  2992  2714  0
2435  2715  2992  0
2715  2993  2992  0
2715  2716  2994  0
2718  2990  2151  0
2712  2995  2996  0
2712  2996  2719  0
2441  2721  2991  0
2714  2992  2997  0
2714  2997  2998  0
2714  2998  2999  0
2992  3000  2997  0
2992  2993  3000  0
2443  3001  2717  0
2719  2996  2720  0
2730  2728  3002  0
2730  3003  2729  0
3003  2730  3004  0
3003  3004  3005  0
2714  2999  2723  0
2443  2724  3001  0
1942  2725  2454  0
3006  2720  2996  0
3007  2447  2727  0
2447  3008  2728  0
3002  2728  3008  0
2729  3003  2737  0
3009  2737  3003  0
3003  3005  3009  0
2738  2722  2731  0
2722  2738  3010  0
3011  3010  2732  0
2732  2723  3011  0
3012  3011  2723  0
3013  2454  3014  0
2454  2725  3014  0
2746  2734  2720  0
2720  3006  2746  0
2727  2735  3007  0
3015  2736  2737  0
3016  3015  2737  0
2738  2464  2732  0
2456  2732  2464  0
2738  2732  3010  0
3017  2724  2739  0
2460  2740  3018  0
3019  2740  2461  0
2461  2454  3019  0
3013  3019  2454  0
2725  2733  3020  0
2471  3020  2733  0
2742  2746  3006  0
2741  3021  2735  0
2741  2742  3021  0
2463  2736  3022  0
2463  3022  2747  0
3015  3022  2736  0
2739  3023  3017  0
2739  2744  3023  0
2460  3018  3024  0
2460  3024  2745  0
3020  2471  2748  0
2744  2743  3025  0
2748  2749  3026  0
2748  3026  3027  0
2745  3024  2754  0
2749  2751  3028  0
2749  3028  3026  0
2751  2756  3028  0
2750  2747  3029  0
2750  3029  3030  0
2750  3030  2752  0
2753  3025  2743  0
2754  3031  2755  0
2757  2479  2758  0
2757  3032  2756  0
2752  3030  3033  0
3034  2760  2759  0
3034  2759  2764  0
3034  3035  2760  0
2760  3035  2753  0
2760  2753  2478  0
2755  3031  2206  0
2206  3031  2761  0
2206  2761  2483  0
2757  2758  3036  0
2757  3036  3032  0
2758  2762  3036  0
2752  3033  2763  0
3037  2763  3033  0
3038  3039  3040  0
3041  3040  3039  0
3040  3041  2784  0
2785  2784  3041  0
3042  2768  3043  0
2768  2764  2765  0
2768  3042  2764  0
3034  2764  3042  0
2772  2773  3044  0
3045  2772  3044  0
2485  3046  2493  0
2775  2493  3046  0
3036  2778  3032  0
2778  3036  2777  0
2762  2777  3036  0
2763  3037  2766  0
3047  2766  3037  0
2766  3047  2767  0
2782  2781  3038  0
3038  2781  3048  0
2790  3048  2781  0
3038  3040  2782  0
2784  2782  3040  0
2785  3049  2770  0
3043  2770  3049  0
2770  3043  2768  0
3050  2772  3045  0
2773  2774  3051  0
2776  2775  3046  0
2767  3047  2779  0
3052  2779  3047  0
2772  3050  2771  0
2779  3052  2786  0
2786  3052  3053  0
2786  3053  2787  0
2790  2789  3054  0
3050  3055  3056  0
3057  2797  2522  0
3057  2522  2791  0
3057  3058  2797  0
2792  2793  3059  0
2792  3059  2791  0
2793  2794  2799  0
2793  2799  3060  0
2793  3060  3059  0
2799  3061  3060  0
2787  3062  2796  0
2787  3053  3062  0
3050  2803  2771  0
3050  3056  3063  0
3050  3063  2803  0
2499  2515  3064  0
2499  3064  2774  0
3065  3066  3067  0
3065  3067  3068  0
3065  3068  3069  0
2523  2797  2804  0
2799  2801  3061  0
2801  3070  3061  0
2789  2541  3071  0
3064  2515  2520  0
3066  3072  2812  0
3066  2812  2811  0
3066  2811  3067  0
3068  3067  3073  0
3068  3073  3074  0
3075  2539  2804  0
2800  2532  2807  0
2800  3076  2801  0
2800  2807  3076  0
2795  2796  3077  0
2795  3077  2806  0
2541  2808  3071  0
3064  2520  2538  0
3078  3072  3079  0
3072  3078  2812  0
2811  2814  3067  0
3080  3067  2814  0
3067  3080  3073  0
3081  3073  3080  0
3082  2815  3075  0
2539  3075  2815  0
3083  2807  2806  0
2806  3077  3083  0
2808  2540  2544  0
3084  2808  2544  0
3085  3086  3087  0
3088  3086  3085  0
3085  3089  3088  0
3090  2809  2802  0
3064  2538  2817  0
3064  2817  3091  0
3092  3091  2817  0
3093  3078  3079  0
2814  2813  3080  0
3094  3081  3080  0
3081  3094  3082  0
2819  3082  3094  0
3082  2819  2815  0
2543  2815  2819  0
2544  2545  3084  0
3095  3084  2545  0
3096  3095  2545  0
3087  3097  3085  0
