#!ascii file
34071  33708  33885  0
33886  34072  34073  0
33881  33883  34074  0
33881  34074  33880  0
33880  34074  34075  0
33880  34075  33885  0
33885  34075  34071  0
33886  34073  33711  0
33884  33888  33883  0
34074  33883  34076  0
33888  34076  33883  0
33890  34077  33273  0
33715  33273  34077  0
33713  33518  34078  0
33716  33715  34079  0
33716  34079  33717  0
33717  34079  33893  0
33281  33893  33718  0
34080  34081  33895  0
34080  33895  33721  0
34080  33721  34082  0
33894  34083  33528  0
33721  33899  34084  0
33721  34084  34082  0
33895  34081  34085  0
33895  34085  33896  0
33896  34086  33725  0
33894  33729  34087  0
33530  33718  34088  0
33719  33898  33900  0
33899  33902  34084  0
33725  34086  33904  0
33905  34087  33729  0
33904  34089  33728  0
33909  33728  34089  0
33904  34086  34090  0
33904  34090  34089  0
33901  34091  33906  0
34092  33903  33907  0
34089  34090  34093  0
33905  33299  34094  0
33911  34092  33907  0
34089  34095  33909  0
33916  33909  34095  0
34089  34093  34095  0
33912  34094  33299  0
34096  33545  33542  0
33542  33913  34096  0
34097  33913  33736  0
33736  33914  34097  0
34098  33914  33910  0
33910  33906  34099  0
33910  34099  34098  0
34092  33911  33915  0
34092  33915  34100  0
34095  34093  34101  0
34102  33735  33741  0
33545  34096  33742  0
34103  33742  34096  0
34098  34097  33914  0
33917  34095  34101  0
34095  33917  33916  0
33549  33920  33741  0
34102  33741  33920  0
33742  34104  33548  0
34105  33548  34104  0
33917  34106  33919  0
34107  33919  34106  0
33919  34107  33743  0
33918  33558  34108  0
33548  34105  34109  0
33548  34109  33744  0
33747  33925  33558  0
34108  33558  33925  0
34110  33921  34111  0
33921  34110  33922  0
34112  33922  34110  0
33922  34112  33748  0
33748  34112  33923  0
33924  33745  33923  0
33744  34109  33564  0
34113  33926  33928  0
33926  34114  33927  0
34111  33930  33929  0
33930  34111  33921  0
33753  34113  33928  0
33564  34115  33566  0
34113  33753  34116  0
33753  33931  34116  0
34117  34116  33931  0
33931  33757  34117  0
33757  33935  34117  0
34118  34117  33935  0
33935  33936  34118  0
34119  34118  33936  0
33936  33933  34119  0
34120  34119  33933  0
33933  33932  34120  0
33932  33934  34120  0
34121  34120  33934  0
33934  33937  34121  0
34122  34121  33937  0
33938  33566  34115  0
34123  34122  33937  0
33937  33759  34123  0
33940  34123  33759  0
33577  33938  34124  0
34125  33940  33764  0
34126  33577  34124  0
33577  34126  33941  0
33941  34126  33947  0
34127  33947  34126  0
33942  33941  33947  0
33761  33944  33762  0
33947  34127  33948  0
33954  33948  34127  0
34128  33762  33944  0
33762  34128  33763  0
33950  33763  34128  0
33766  33951  34129  0
33766  34130  33764  0
34125  33764  34130  0
33944  33958  34128  0
34131  34128  33958  0
34128  34131  33950  0
33951  33960  34129  0
34130  33766  34129  0
34132  33958  33962  0
33958  34132  34133  0
33958  34133  34131  0
34131  34133  33963  0
34131  33963  33950  0
33966  33964  34134  0
33964  33965  34134  0
33959  33774  33967  0
33954  33972  33952  0
33962  33968  34132  0
34133  33969  33963  0
33970  34135  33965  0
33965  34135  34136  0
33965  34136  34134  0
33968  33973  34137  0
33968  34137  34132  0
34132  34137  34138  0
34132  34138  34133  0
34133  34138  33969  0
33970  33974  34135  0
33972  34139  33971  0
33973  33961  34140  0
33973  34140  34137  0
34137  34140  34141  0
34137  34141  34138  0
34138  34141  33975  0
34138  33975  33969  0
33974  34136  34135  0
33974  33976  34142  0
33974  34142  34136  0
34139  34143  33971  0
33971  34143  33977  0
33977  34144  33961  0
33961  34144  34145  0
33961  34145  34140  0
34140  34145  34141  0
34141  34146  33975  0
34147  33975  34146  0
34141  34145  34148  0
34141  34148  34146  0
33975  34147  33979  0
34139  34149  34143  0
34143  34150  33977  0
34143  34149  34150  0
34151  34150  34149  0
33977  34150  34152  0
34144  33977  34153  0
33979  34147  33980  0
34154  33980  34147  0
33981  34155  33976  0
34156  33976  34155  0
33608  33603  34157  0
33603  33379  34157  0
33379  33782  34157  0
33782  33783  34158  0
33783  33982  34158  0
34150  34151  34159  0
34150  34159  34152  0
34152  34153  33977  0
33983  33980  34160  0
33983  34160  33787  0
33980  34154  34160  0
34161  33981  33794  0
34161  33794  33796  0
34161  34162  33981  0
33791  33792  34163  0
33792  33608  34164  0
33792  34164  34163  0
33608  34157  34164  0
34158  34165  33782  0
33787  34160  33984  0
33796  34166  34161  0
33796  33797  34166  0
33789  34167  33986  0
33789  33790  34168  0
33789  34168  34167  0
33790  34169  34168  0
34158  33605  34165  0
34158  33982  33605  0
33984  33801  33795  0
33984  34160  34170  0
33984  34170  33801  0
34171  33797  33800  0
34171  34166  33797  0
33800  33987  34172  0
33800  34172  34171  0
33987  33985  34173  0
33987  34173  34172  0
33985  33986  34173  0
33801  34170  33988  0
33605  33989  34174  0
33605  34174  34165  0
34175  33991  33990  0
34175  33990  34176  0
34175  34176  34177  0
33990  34178  34176  0
33990  33805  33988  0
33990  33988  34179  0
33990  34179  34178  0
33988  34170  34179  0
34174  33989  33992  0
34180  33994  34175  0
34180  34175  34181  0
34175  33994  33991  0
33999  34174  33995  0
33999  34182  34183  0
33999  34183  34174  0
34174  33992  33995  0
33994  34180  34184  0
33994  34184  33997  0
33999  33998  34182  0
33998  34001  34185  0
33814  34186  34001  0
33814  33813  34186  0
33997  34187  33631  0
34188  34004  34189  0
34188  34003  34004  0
34189  34004  34007  0
34189  34007  34190  0
34006  34008  34191  0
34006  34191  34007  0
34008  34192  34191  0
34008  33820  34192  0
33818  33817  34193  0
34009  34194  33825  0
33821  34002  34195  0
33821  34195  34015  0
34015  34195  34196  0
34015  34196  34016  0
34016  34197  34017  0
34016  34196  34197  0
33817  34013  34193  0
34018  34014  34194  0
34014  33825  34194  0
34017  34197  34019  0
34025  34026  34198  0
34027  34198  34026  0
33641  34018  34199  0
33641  34199  34028  0
34200  34012  33827  0
34019  34201  34020  0
34019  34197  34202  0
34019  34202  34201  0
34022  33426  34203  0
34024  34203  33426  0
34199  34204  34028  0
34028  34204  33842  0
34029  34200  33827  0
34020  34205  34035  0
34020  34201  34205  0
34205  34201  34206  0
33840  34022  34207  0
33840  34207  34208  0
33840  34208  34042  0
33848  33842  34045  0
34209  34046  34036  0
34037  34036  34046  0
34210  34209  34036  0
34211  34046  34209  0
34036  34035  34210  0
34035  34205  34210  0
34043  34042  34212  0
34208  34212  34042  0
34043  34212  34044  0
34213  34044  34212  0
34032  33836  33843  0
34029  34033  34214  0
34034  34214  34033  0
34034  33851  34215  0
33852  34046  34211  0
34039  34044  34048  0
34216  34048  34044  0
34044  34213  34216  0
33843  33659  34032  0
34051  34032  33659  0
33854  34032  34051  0
33660  33852  34211  0
34047  34048  34217  0
34048  34216  34217  0
33659  34050  34051  0
34052  34051  34050  0
34218  34215  33851  0
34211  34219  33660  0
33660  34219  34057  0
34220  34050  34054  0
34050  34055  34052  0
34220  34055  34050  0
33851  34053  34218  0
34221  34056  33665  0
33866  34222  33665  0
34057  34223  33860  0
34224  34054  33861  0
34055  34220  34058  0
34224  34058  34220  0
34053  34059  34218  0
34225  34222  33866  0
33861  34066  34224  0
34058  34224  34064  0
34226  34059  33865  0
33866  33867  34225  0
34227  34225  33867  0
34061  34228  33868  0
34065  33868  34228  0
34065  34229  33873  0
34224  34066  34064  0
33865  34067  34226  0
34230  34226  34067  0
33867  34068  34227  0
34067  34231  34230  0
34232  34230  34231  0
34069  33875  34233  0
34234  34233  33875  0
33875  33876  34234  0
34235  34234  33876  0
33876  33877  34235  0
34236  34235  33877  0
33877  33689  34236  0
34070  34236  33689  0
33886  34071  34072  0
34237  34072  34071  0
34071  34075  34238  0
34239  34238  34075  0
34239  34075  34074  0
34073  34240  33711  0
34241  33711  34240  0
34242  34076  33888  0
33711  34241  33889  0
34243  33888  33887  0
33888  34243  34242  0
33887  33891  34243  0
34244  34077  33890  0
34245  33715  34077  0
34079  33715  34245  0
34246  34079  34245  0
33892  34078  33518  0
34246  33893  34079  0
34083  33526  33528  0
34247  33894  34248  0
34247  34083  33894  0
34080  34249  34081  0
34248  33894  34087  0
34250  34082  34084  0
34085  34251  34086  0
34085  34086  33896  0
34252  33530  34088  0
33530  34252  33897  0
34253  33898  33897  0
33898  34253  33900  0
34084  33902  34254  0
34084  34254  34255  0
34084  34255  34250  0
33905  34256  34087  0
33900  34257  33901  0
34091  33901  34257  0
34254  33902  33903  0
34254  33903  34258  0
34251  34090  34086  0
33905  34094  34256  0
34258  33903  34092  0
34258  34092  34100  0
34259  34090  34260  0
34090  34259  34093  0
34261  34093  34259  0
34094  33912  34256  0
34091  34262  33906  0
34263  33906  34262  0
33912  33735  34264  0
33906  34263  34099  0
34100  33915  34265  0
34266  34101  34093  0
34266  34093  34261  0
34266  34261  34267  0
33735  34102  34264  0
34096  33913  34268  0
33913  34097  34268  0
34097  34098  34269  0
34097  34269  34268  0
34099  34270  34098  0
33915  33918  34271  0
33915  34271  34265  0
34101  34272  33917  0
34101  34266  34273  0
34101  34273  34272  0
33920  34107  34102  0
33742  34103  34104  0
34096  34268  34103  0
34268  34274  34103  0
34268  34269  34274  0
34269  34098  34270  0
34272  34106  33917  0
34272  34273  34106  0
33743  34107  33920  0
33918  34108  34271  0
34106  34273  34275  0
34106  34275  34107  0
33925  33746  34276  0
34112  34277  34278  0
34112  34279  33923  0
34112  34278  34280  0
34112  34280  34279  0
34279  33924  33923  0
34279  33746  33924  0
34279  34280  34276  0
34279  34276  33746  0
34114  34281  33927  0
34114  34282  34281  0
34281  34283  33929  0
34281  33929  33927  0
34281  34282  34284  0
34281  34284  34283  0
34283  34111  33929  0
34283  34284  34285  0
34283  34285  34286  0
34283  34286  34111  0
34111  34286  34110  0
34110  34286  34287  0
34110  34287  34112  0
34109  34288  33564  0
34109  34289  34288  0
34113  34290  33926  0
33926  34290  34114  0
33564  34288  34115  0
34116  34117  34291  0
34117  34292  34291  0
34117  34293  34292  0
34117  34118  34294  0
34117  34294  34293  0
34118  34295  34294  0
34118  34119  34296  0
34118  34296  34295  0
34119  34120  34296  0
34120  34121  34297  0
34121  34122  34298  0
34121  34298  34299  0
34121  34299  34297  0
34122  34123  34300  0
34122  34300  34298  0
34123  33940  34301  0
34123  34301  34300  0
33938  34302  34124  0
34129  33960  34303  0
33954  34304  33972  0
34134  34305  34306  0
34134  34306  33966  0
33966  34306  34307  0
33966  34307  33773  0
33773  34307  33967  0
33967  34307  34308  0
33967  34308  33959  0
33959  34308  34309  0
33959  34309  33960  0
33960  34309  34303  0
34303  34310  34129  0
34129  34310  34311  0
34129  34311  34130  0
33972  34304  34139  0
34134  34136  34305  0
34312  34305  34136  0
34313  34312  34136  0
34136  34142  34313  0
34314  34313  34142  0
34146  34148  34147  0
33976  34156  34142  0
34156  34314  34142  0
34144  34153  34145  0
34315  34145  34153  0
34145  34315  34148  0
34316  34148  34315  0
34148  34316  34147  0
34154  34147  34316  0
33981  34162  34155  0
34155  34314  34156  0
34157  33782  34317  0
34318  34152  34159  0
34152  34318  34153  0
34319  34153  34318  0
34153  34319  34315  0
34320  34315  34319  0
34315  34320  34316  0
34154  34316  34320  0
34161  34321  34162  0
34322  34169  33790  0
33790  33791  34322  0
34163  34322  33791  0
34165  34317  33782  0
34151  34323  34159  0
34318  34159  34323  0
34318  34324  34319  0
34325  34160  34154  0
34166  34326  34161  0
34327  34328  34329  0
34330  34327  34329  0
34160  34325  34170  0
34331  34170  34325  0
34332  34172  34173  0
34333  34332  34173  0
34173  33986  34333  0
33986  34167  34333  0
34167  34168  34334  0
34335  34334  34168  0
34168  34169  34335  0
34317  34165  34336  0
34177  34337  34338  0
34337  34177  34339  0
34328  34339  34177  0
34176  34328  34177  0
34328  34176  34329  0
34329  34176  34330  0
34178  34330  34176  0
34178  34179  34170  0
34178  34170  34331  0
34336  34165  34183  0
34174  34183  34165  0
34181  34177  34338  0
34175  34177  34181  0
34336  34183  34182  0
34340  34338  34341  0
34338  34340  34181  0
34180  34181  34340  0
33998  34185  34182  0
34180  34340  34184  0
34186  34185  34001  0
34342  33997  34184  0
34190  34007  34343  0
34191  34343  34007  0
33997  34342  34187  0
34186  33813  34344  0
33818  34344  33813  0
34345  34191  34192  0
34346  33631  34187  0
33631  34346  34002  0
34347  34002  34346  0
34347  34195  34002  0
34348  34195  34347  0
34196  34195  34348  0
34348  34349  34196  0
34350  34196  34349  0
34196  34350  34351  0
34196  34351  34197  0
34352  34351  34350  0
34009  34003  34353  0
34009  34353  34354  0
34009  34354  34194  0
33820  34012  34355  0
33820  34355  34192  0
34194  34354  34356  0
34194  34356  34018  0
34357  34018  34356  0
34197  34351  34202  0
34351  34352  34202  0
34358  34202  34352  0
34359  34013  34021  0
34359  34360  34013  0
34193  34013  34360  0
34198  34027  34361  0
34361  34027  34362  0
34199  34018  34357  0
34199  34357  34363  0
34012  34200  34364  0
34202  34358  34201  0
34358  34206  34201  0
34203  34365  34022  0
34027  34045  34362  0
34204  34199  34363  0
34204  34363  34366  0
34030  34359  34021  0
34030  34031  34367  0
34030  34367  34359  0
34207  34022  34365  0
34045  33842  34204  0
34045  34204  34362  0
34029  34214  34368  0
34029  34368  34200  0
34209  34210  34369  0
34209  34369  34370  0
34209  34370  34211  0
34210  34371  34369  0
34210  34205  34371  0
34031  34040  34372  0
34031  34372  34367  0
34208  34207  34373  0
34208  34373  34212  0
34214  34034  34374  0
34034  34215  34375  0
34034  34375  34374  0
34211  34370  34376  0
34040  34047  34372  0
34213  34212  34373  0
34213  34373  34377  0
34213  34377  34216  0
34211  34376  34219  0
34047  34217  34378  0
34047  34378  34372  0
34216  34377  34379  0
34215  34218  34380  0
33665  34222  34221  0
34217  34216  34379  0
34056  34221  34060  0
34057  34219  34223  0
34054  34224  34220  0
34218  34059  34381  0
34222  34225  34382  0
33860  34223  34383  0
33860  34383  34061  0
34061  34383  34384  0
34061  34384  34228  0
34059  34226  34385  0
34059  34385  34381  0
34060  34386  34387  0
34065  34228  34388  0
34065  34388  34229  0
34229  34388  34389  0
34229  34389  33873  0
34226  34230  34385  0
34068  34069  34390  0
34068  34390  34227  0
34069  34233  34390  0
33873  34389  34391  0
33873  34391  34070  0
34233  34234  34392  0
34234  34235  34393  0
34234  34393  34392  0
34070  34391  34236  0
34232  34394  34395  0
34394  34396  34395  0
34235  34236  34393  0
34237  34071  34397  0
34072  34237  34398  0
34072  34398  34073  0
34238  34397  34071  0
34073  34398  34240  0
34076  34399  34239  0
34076  34239  34074  0
34076  34242  34399  0
34242  34243  34400  0
33889  34241  34401  0
33889  34401  33890  0
34243  34402  34400  0
33890  34401  34244  0
33891  34403  34243  0
33891  33713  34403  0
34077  34244  34404  0
34077  34404  34245  0
33713  34078  34403  0
34245  34405  34246  0
34406  34407  34408  0
34406  34408  34409  0
34406  34410  34407  0
34409  34408  34411  0
34410  34412  34407  0
34409  34413  34083  0
34409  34083  34406  0
34413  33892  33526  0
34413  33526  34083  0
34413  34414  33892  0
34410  34406  34247  0
34406  34083  34247  0
33893  34246  34415  0
34410  34247  34416  0
34248  34416  34247  0
34410  34416  34412  0
33893  34415  33718  0
34080  34417  34249  0
34080  34082  34417  0
34418  34417  34082  0
34249  34419  34081  0
33897  34420  34253  0
34253  34421  33900  0
34082  34250  34418  0
34422  34418  34250  0
34081  34419  34085  0
34085  34423  34251  0
34085  34419  34423  0
34416  34248  34087  0
34424  34416  34087  0
33718  34415  34088  0
33900  34421  34257  0
34250  34255  34422  0
34423  34425  34251  0
34090  34251  34425  0
34426  34425  34423  0
34087  34256  34424  0
34427  34091  34257  0
34428  34255  34254  0
34260  34090  34425  0
34429  34425  34426  0
33912  34424  34256  0
34091  34427  34262  0
34430  34262  34427  0
34254  34258  34428  0
34431  34428  34258  0
34425  34429  34260  0
34260  34267  34259  0
34261  34259  34267  0
34432  34267  34260  0
34263  34262  34430  0
34258  34100  34431  0
34100  34265  34431  0
34433  34431  34265  0
34267  34432  34266  0
34434  34266  34432  0
34102  34107  34435  0
34436  34435  34107  0
34435  34264  34102  0
34099  34263  34270  0
34437  34270  34263  0
34271  34433  34265  0
34438  34266  34434  0
34275  34436  34107  0
34103  34274  34439  0
34440  34439  34274  0
34274  34269  34440  0
34441  34440  34269  0
34269  34270  34441  0
34442  34441  34270  0
34270  34437  34442  0
34276  34443  34444  0
34445  34276  34444  0
34444  34446  34445  0
34433  34271  34447  0
34433  34447  34446  0
34266  34438  34273  0
34448  34104  34103  0
34103  34439  34448  0
34449  34448  34439  0
34439  34440  34449  0
34440  34441  34450  0
34451  34450  34441  0
34441  34442  34451  0
34444  34443  34452  0
33925  34276  34445  0
34445  34447  33925  0
34108  33925  34447  0
34445  34446  34447  0
34447  34271  34108  0
34453  34273  34438  0
34273  34453  34275  0
34448  34105  34104  0
34454  34448  34449  0
34455  34456  34278  0
34278  34443  34280  0
34278  34456  34443  0
34443  34276  34280  0
34289  34109  34105  0
34105  34448  34289  0
34454  34289  34448  0
34112  34287  34277  0
34277  34287  34455  0
34457  34455  34287  0
34277  34455  34278  0
34290  34458  34114  0
34114  34458  34282  0
34459  34284  34282  0
34284  34459  34285  0
34460  34285  34459  0
34285  34460  34286  0
34457  34286  34460  0
34286  34457  34287  0
34289  34454  34288  0
34461  34288  34454  0
34462  34290  34113  0
34288  34461  34115  0
34113  34116  34462  0
34463  34462  34116  0
34116  34291  34463  0
33938  34115  34461  0
34464  34293  34294  0
34294  34295  34464  0
34465  34464  34295  0
34295  34296  34465  0
34466  34465  34296  0
34467  34466  34296  0
34296  34120  34467  0
34468  34467  34120  0
34120  34297  34468  0
34299  34468  34297  0
34467  34468  34469  0
34470  34468  34299  0
34299  34298  34471  0
34299  34471  34470  0
34472  34470  34471  0
34298  34300  34471  0
34473  34472  34471  0
34471  34300  34473  0
34300  34301  34473  0
33940  34474  34301  0
33940  34125  34474  0
34127  34126  34475  0
34125  34476  34474  0
34127  34477  33954  0
34130  34476  34125  0
34130  34311  34476  0
33954  34477  34304  0
34306  34478  34307  0
34306  34479  34478  0
34480  34478  34479  0
34307  34478  34481  0
34307  34481  34482  0
34307  34482  34308  0
34308  34482  34483  0
34308  34483  34484  0
34308  34484  34309  0
34309  34484  34485  0
34309  34485  34303  0
34303  34485  34310  0
34310  34485  34486  0
34310  34487  34311  0
34304  34488  34139  0
34305  34489  34306  0
34478  34480  34481  0
34310  34486  34487  0
34312  34490  34489  0
34312  34489  34305  0
34312  34313  34490  0
34491  34492  34493  0
34491  34493  34494  0
34491  34494  34495  0
34491  34495  34496  0
34491  34496  34492  0
34496  34497  34492  0
34496  34498  34497  0
34499  34313  34314  0
34499  34500  34501  0
34499  34501  34313  0
34313  34501  34490  0
34495  34502  34496  0
34496  34502  34498  0
34503  34149  34504  0
34499  34314  34155  0
34499  34155  34162  0
34503  34151  34149  0
34162  34321  34505  0
34151  34503  34323  0
34319  34324  34506  0
34319  34506  34320  0
34320  34506  34325  0
34320  34325  34154  0
34321  34161  34326  0
34321  34326  34505  0
34323  34503  34507  0
34323  34507  34339  0
34323  34339  34318  0
34318  34339  34328  0
34318  34328  34324  0
34324  34328  34327  0
34324  34327  34330  0
34324  34330  34506  0
34506  34330  34331  0
34506  34331  34325  0
34163  34164  34508  0
34164  34157  34509  0
34510  34338  34507  0
34507  34338  34337  0
34507  34337  34339  0
34330  34178  34331  0
34166  34171  34511  0
34172  34332  34512  0
34172  34512  34171  0
34333  34167  34513  0
34167  34334  34514  0
34167  34514  34513  0
34334  34335  34515  0
34334  34515  34514  0
34169  34322  34335  0
34322  34163  34516  0
34163  34508  34516  0
34509  34517  34164  0
34509  34157  34336  0
34157  34317  34336  0
34510  34341  34338  0
34322  34518  34335  0
34322  34516  34518  0
34508  34519  34516  0
34509  34336  34520  0
34509  34520  34517  0
34520  34336  34182  0
34520  34182  34185  0
34185  34521  34520  0
34521  34185  34186  0
34521  34186  34344  0
34521  34344  34522  0
34184  34523  34342  0
34344  33818  34524  0
34342  34525  34187  0
34187  34525  34346  0
33818  34526  34524  0
34188  34189  34527  0
34188  34527  34003  0
34346  34528  34347  0
34528  34348  34347  0
34529  34348  34528  0
34348  34529  34349  0
34530  34349  34529  0
34350  34349  34530  0
34530  34531  34350  0
34532  34350  34531  0
33818  34533  34526  0
34350  34532  34352  0
34360  34526  34533  0
34533  33818  34193  0
34192  34355  34534  0
34535  34536  34537  0
34532  34535  34537  0
34537  34352  34532  0
34533  34193  34360  0
34198  34538  34025  0
34538  34198  34361  0
34538  34361  34539  0
34540  34539  34361  0
34541  34540  34361  0
34361  34362  34541  0
34366  34541  34362  0
34542  34356  34354  0
34542  34357  34356  0
34543  34355  34012  0
34544  34536  34545  0
34536  34546  34545  0
34536  34544  34537  0
34547  34537  34544  0
34537  34547  34352  0
34358  34352  34547  0
34024  34025  34548  0
34363  34357  34549  0
34542  34549  34357  0
34366  34363  34549  0
34012  34364  34543  0
34550  34547  34544  0
34547  34550  34358  0
34358  34550  34206  0
34551  34203  34024  0
34552  34365  34203  0
34024  34548  34551  0
34204  34366  34362  0
34550  34553  34206  0
34552  34207  34365  0
34554  34364  34200  0
34369  34371  34555  0
34553  34555  34371  0
34367  34372  34556  0
34557  34556  34372  0
34207  34558  34373  0
34559  34373  34558  0
34200  34368  34560  0
34561  34560  34368  0
34200  34560  34554  0
34368  34214  34561  0
34562  34561  34214  0
34214  34374  34562  0
34371  34205  34553  0
34563  34377  34373  0
34564  34565  34560  0
34561  34562  34566  0
34567  34562  34374  0
34374  34375  34567  0
34375  34215  34567  0
34380  34567  34215  0
34376  34568  34219  0
34372  34378  34557  0
34377  34563  34379  0
34569  34379  34563  0
34560  34561  34564  0
34566  34564  34561  0
34570  34378  34217  0
34217  34379  34570  0
34569  34570  34379  0
34381  34571  34380  0
34380  34218  34381  0
34386  34060  34221  0
34572  34221  34222  0
34223  34573  34383  0
34574  34383  34573  0
34383  34574  34384  0
34575  34384  34574  0
34381  34385  34576  0
34577  34576  34385  0
34578  34382  34225  0
34384  34575  34228  0
34388  34228  34575  0
34579  34389  34388  0
34385  34230  34577  0
34580  34577  34230  0
34225  34227  34578  0
34390  34578  34227  0
34392  34390  34233  0
34389  34579  34391  0
34232  34581  34230  0
34230  34581  34580  0
34392  34393  34582  0
34583  34582  34393  0
34584  34236  34391  0
34395  34581  34232  0
34395  34396  34585  0
34393  34236  34583  0
34584  34583  34236  0
34238  34586  34237  0
34238  34237  34397  0
34238  34239  34586  0
34587  34586  34239  0
34240  34398  34588  0
34240  34588  34241  0
34399  34587  34239  0
34589  34399  34242  0
34400  34589  34242  0
34401  34241  34590  0
34591  34592  34593  0
34591  34594  34592  0
34595  34592  34594  0
34591  34593  34596  0
34244  34401  34597  0
34590  34597  34401  0
34244  34597  34404  0
34598  34599  34595  0
34595  34599  34600  0
34595  34594  34598  0
34407  34598  34594  0
34594  34591  34408  0
34594  34408  34407  0
34591  34596  34601  0
34601  34411  34591  0
34403  34602  34603  0
34403  34604  34602  0
34403  34603  34402  0
34403  34402  34243  0
34599  34605  34600  0
34591  34411  34408  0
34411  34606  34414  0
34411  34601  34607  0
34411  34607  34606  0
34604  34403  34078  0
34245  34404  34405  0
34598  34407  34608  0
34411  34414  34413  0
34411  34413  34409  0
34606  34078  33892  0
34606  33892  34414  0
34606  34604  34078  0
34599  34598  34609  0
34599  34609  34610  0
34599  34610  34611  0
34599  34611  34605  0
34598  34608  34609  0
34608  34407  34412  0
34246  34405  34612  0
34610  34609  34613  0
34246  34612  34415  0
34609  34608  34614  0
34609  34614  34613  0
34608  34412  34416  0
34608  34416  34614  0
34417  34615  34249  0
34417  34418  34616  0
34417  34616  34615  0
34249  34615  34617  0
34249  34617  34419  0
34614  34618  34613  0
34614  34416  34618  0
34420  33897  34619  0
34253  34420  34421  0
34620  34418  34422  0
34620  34422  34621  0
34620  34622  34616  0
34620  34616  34418  0
34620  34621  34622  0
34419  34623  34423  0
34419  34617  34623  0
34618  34416  34424  0
34088  34624  34252  0
34252  34624  34619  0
34252  34619  33897  0
34621  34422  34255  0
34621  34255  34625  0
34621  34625  34626  0
34621  34626  34622  0
34423  34623  34627  0
34423  34627  34426  0
34628  34618  34424  0
34257  34421  34427  0
34625  34255  34428  0
34625  34428  34629  0
34625  34629  34626  0
34426  34627  34630  0
34426  34630  34429  0
34628  34424  33912  0
34628  33912  34631  0
34430  34427  34632  0
34430  34632  34633  0
34634  34635  34636  0
34634  34637  34635  0
34635  34638  34636  0
34635  34637  34639  0
34635  34428  34638  0
34635  34639  34629  0
34635  34629  34428  0
34428  34431  34638  0
34429  34432  34260  0
34429  34630  34432  0
34640  34641  34642  0
34643  34640  34631  0
34643  33912  34264  0
34643  34631  33912  0
34644  34430  34633  0
34644  34633  34645  0
34634  34636  34646  0
34634  34646  34647  0
34634  34647  34648  0
34638  34649  34636  0
34638  34431  34649  0
34432  34630  34650  0
34640  34643  34435  0
34643  34264  34435  0
34651  34652  34644  0
34644  34652  34263  0
34644  34263  34430  0
34647  34646  34653  0
34646  34636  34654  0
34636  34649  34654  0
34649  34431  34433  0
34649  34433  34654  0
34432  34650  34434  0
34655  34640  34436  0
34655  34641  34640  0
34640  34435  34436  0
34652  34656  34437  0
34652  34437  34263  0
34657  34653  34658  0
34657  34647  34653  0
34653  34646  34452  0
34646  34654  34444  0
34646  34444  34452  0
34654  34446  34444  0
34654  34433  34446  0
34655  34275  34453  0
34655  34436  34275  0
34437  34451  34442  0
34437  34656  34451  0
34659  34660  34658  0
34659  34661  34660  0
34658  34653  34456  0
34658  34456  34659  0
34653  34452  34456  0
34438  34434  34662  0
34440  34450  34663  0
34440  34663  34449  0
34450  34451  34664  0
34450  34664  34663  0
34451  34656  34665  0
34451  34665  34664  0
34661  34659  34666  0
34659  34456  34666  0
34452  34443  34456  0
34438  34662  34667  0
34438  34667  34453  0
34453  34667  34668  0
34664  34665  34669  0
34664  34669  34663  0
34666  34670  34661  0
34666  34456  34455  0
34666  34455  34671  0
34666  34671  34670  0
34454  34449  34672  0
34449  34663  34672  0
34663  34669  34673  0
34663  34673  34672  0
34674  34460  34459  0
34675  34674  34676  0
34674  34459  34676  0
34674  34677  34460  0
34674  34675  34677  0
34677  34457  34460  0
34671  34677  34675  0
34677  34455  34457  0
34677  34671  34455  0
34678  34454  34672  0
34679  34678  34672  0
34673  34680  34672  0
34672  34680  34679  0
34681  34458  34682  0
34458  34462  34682  0
34683  34682  34462  0
34458  34681  34282  0
34676  34282  34681  0
34282  34676  34459  0
34684  34461  34454  0
34454  34678  34684  0
34685  34678  34679  0
34290  34462  34458  0
34461  34684  34686  0
34687  34686  34684  0
34685  34684  34678  0
34462  34463  34683  0
34686  34687  34688  0
34689  34291  34292  0
34292  34293  34689  0
34690  34689  34293  0
34461  34686  33938  0
34302  33938  34686  0
34686  34688  34302  0
34293  34464  34690  0
34691  34690  34464  0
34464  34465  34691  0
34465  34466  34691  0
34692  34691  34466  0
34466  34467  34692  0
34693  34692  34467  0
34467  34469  34693  0
34694  34693  34469  0
34695  34469  34468  0
34468  34470  34695  0
34472  34695  34470  0
34696  34124  34302  0
34697  34695  34472  0
34472  34473  34697  0
34698  34697  34473  0
34699  34124  34696  0
34700  34698  34473  0
34473  34301  34700  0
34474  34700  34301  0
34124  34699  34126  0
34475  34126  34699  0
34477  34127  34475  0
34477  34701  34304  0
34488  34304  34701  0
34492  34482  34481  0
34702  34482  34492  0
34482  34702  34483  0
34483  34702  34484  0
34703  34484  34702  0
34704  34484  34703  0
34484  34704  34485  0
34486  34485  34704  0
34306  34489  34479  0
34480  34479  34489  0
34480  34493  34481  0
34492  34481  34493  0
34497  34702  34492  0
34702  34497  34703  0
34705  34703  34497  0
34703  34705  34704  0
34706  34704  34705  0
34704  34706  34486  0
34707  34311  34487  0
34476  34311  34707  0
34139  34488  34708  0
34139  34708  34149  0
34709  34489  34490  0
34489  34709  34480  0
34710  34480  34709  0
34480  34710  34493  0
34494  34493  34710  0
34497  34498  34705  0
34711  34705  34498  0
34712  34705  34711  0
34705  34712  34706  0
34713  34486  34706  0
34714  34706  34712  0
34486  34713  34487  0
34708  34504  34149  0
34499  34715  34500  0
34716  34500  34715  0
34717  34490  34501  0
34490  34717  34709  0
34718  34709  34717  0
34709  34718  34710  0
34719  34710  34718  0
34710  34719  34494  0
34495  34494  34719  0
34502  34720  34498  0
34711  34498  34720  0
34721  34712  34711  0
34715  34499  34505  0
34162  34505  34499  0
34717  34722  34718  0
34719  34718  34722  0
34719  34723  34495  0
34724  34495  34723  0
34495  34724  34502  0
34725  34502  34724  0
34502  34725  34720  0
34726  34720  34725  0
34720  34726  34711  0
34721  34711  34726  0
34727  34715  34505  0
34728  34724  34723  0
34724  34728  34725  0
34729  34725  34728  0
34725  34729  34726  0
34730  34503  34731  0
34505  34326  34727  0
34511  34727  34326  0
34729  34732  34726  0
34730  34507  34503  0
34326  34166  34511  0
34733  34511  34171  0
34171  34512  34733  0
34332  34333  34734  0
34513  34734  34333  0
34507  34730  34510  0
34341  34510  34730  0
34332  34734  34512  0
34734  34513  34735  0
34513  34514  34735  0
34514  34515  34736  0
34514  34736  34737  0
34515  34335  34518  0
34508  34164  34517  0
34508  34517  34519  0
34736  34515  34738  0
34736  34738  34739  0
34518  34740  34515  0
34518  34516  34741  0
34518  34741  34740  0
34516  34519  34741  0
34739  34738  34742  0
34515  34740  34738  0
34741  34519  34522  0
34519  34517  34521  0
34519  34521  34522  0
34517  34520  34521  0
34742  34743  34739  0
34742  34744  34743  0
34742  34738  34745  0
34742  34745  34744  0
34738  34740  34746  0
34738  34746  34745  0
34740  34741  34524  0
34740  34524  34746  0
34741  34522  34524  0
34340  34523  34184  0
34743  34744  34747  0
34743  34747  34748  0
34743  34748  34749  0
34743  34749  34750  0
34744  34745  34747  0
34522  34344  34524  0
34748  34747  34751  0
34748  34751  34752  0
34747  34745  34746  0
34747  34746  34751  0
34189  34190  34753  0
34189  34753  34754  0
34190  34343  34755  0
34190  34755  34753  0
34343  34191  34755  0
34523  34756  34342  0
34342  34756  34525  0
34757  34758  34759  0
34757  34759  34760  0
34757  34761  34748  0
34757  34748  34758  0
34758  34752  34759  0
34758  34748  34752  0
34752  34751  34762  0
34751  34763  34762  0
34751  34746  34763  0
34746  34526  34763  0
34746  34524  34526  0
34527  34189  34754  0
34191  34345  34755  0
34346  34525  34764  0
34346  34764  34528  0
34528  34764  34765  0
34528  34765  34766  0
34528  34766  34529  0
34530  34529  34767  0
34530  34767  34531  0
34531  34767  34768  0
34531  34768  34532  0
34760  34759  34769  0
34760  34769  34770  0
34760  34770  34757  0
34759  34752  34771  0
34752  34762  34771  0
34762  34763  34772  0
34763  34526  34772  0
34773  34540  34774  0
34773  34775  34540  0
34773  34774  34776  0
34773  34776  34777  0
34003  34778  34353  0
34345  34192  34534  0
34769  34759  34779  0
34769  34780  34770  0
34759  34771  34779  0
34771  34762  34781  0
34762  34772  34781  0
34772  34526  34360  0
34539  34540  34782  0
34540  34541  34774  0
34776  34774  34783  0
34354  34353  34778  0
34354  34778  34542  0
34784  34546  34536  0
34536  34535  34784  0
34535  34532  34768  0
34769  34779  34785  0
34769  34785  34786  0
34769  34786  34787  0
34769  34787  34780  0
34779  34771  34788  0
34779  34788  34785  0
34771  34781  34789  0
34771  34789  34788  0
34781  34772  34360  0
34781  34360  34789  0
34025  34538  34539  0
34025  34539  34548  0
34541  34366  34549  0
34541  34549  34774  0
34774  34549  34790  0
34774  34790  34783  0
34542  34778  34791  0
34355  34543  34792  0
34355  34792  34534  0
34546  34793  34545  0
34786  34785  34794  0
34785  34788  34795  0
34785  34795  34794  0
34788  34789  34796  0
34788  34796  34795  0
34789  34360  34359  0
34789  34359  34796  0
34549  34542  34791  0
34549  34791  34790  0
34545  34793  34797  0
34545  34797  34544  0
34544  34798  34799  0
34544  34799  34550  0
34544  34797  34798  0
34550  34799  34553  0
34795  34796  34800  0
34795  34800  34801  0
34796  34359  34367  0
34796  34367  34800  0
34551  34548  34802  0
34364  34803  34543  0
34799  34555  34553  0
34800  34367  34556  0
34800  34556  34801  0
34804  34801  34556  0
34207  34552  34558  0
34551  34552  34203  0
34364  34554  34803  0
34805  34803  34554  0
34370  34369  34806  0
34807  34806  34369  0
34370  34806  34808  0
34370  34808  34376  0
34369  34555  34807  0
34799  34807  34555  0
34557  34804  34556  0
34558  34809  34559  0
34560  34565  34554  0
34554  34565  34805  0
34810  34805  34565  0
34568  34376  34808  0
34568  34808  34811  0
34373  34559  34563  0
34812  34563  34559  0
34559  34809  34812  0
34813  34814  34810  0
34810  34565  34813  0
34564  34813  34565  0
34566  34562  34815  0
34816  34815  34562  0
34562  34567  34816  0
34378  34817  34557  0
34570  34817  34378  0
34563  34812  34818  0
34563  34818  34569  0
34819  34814  34813  0
34813  34564  34820  0
34564  34566  34820  0
34821  34820  34566  0
34566  34815  34821  0
34822  34821  34815  0
34815  34816  34822  0
34816  34567  34822  0
34571  34822  34567  0
34567  34380  34571  0
34813  34820  34819  0
34823  34819  34820  0
34820  34821  34823  0
34824  34823  34821  0
34821  34822  34824  0
34825  34824  34822  0
34822  34571  34825  0
34381  34825  34571  0
34572  34826  34221  0
34221  34826  34386  0
34219  34568  34223  0
34573  34223  34568  0
34576  34577  34827  0
34828  34827  34577  0
34386  34829  34387  0
34830  34387  34829  0
34575  34831  34388  0
34832  34388  34831  0
34579  34388  34832  0
34580  34828  34577  0
34578  34390  34833  0
34834  34833  34390  0
34584  34391  34579  0
34580  34581  34835  0
34836  34835  34581  0
34390  34392  34834  0
34837  34834  34392  0
34392  34582  34837  0
34838  34837  34582  0
34581  34395  34836  0
34395  34585  34836  0
34839  34836  34585  0
34840  34839  34585  0
34582  34583  34838  0
34586  34841  34237  0
34842  34237  34841  0
34586  34587  34841  0
34237  34842  34398  0
34398  34842  34588  0
34843  34844  34845  0
34846  34845  34844  0
34844  34843  34847  0
34399  34848  34587  0
34399  34589  34848  0
34849  34241  34588  0
34850  34844  34851  0
34592  34851  34844  0
34850  34846  34844  0
34844  34847  34592  0
34593  34592  34847  0
34852  34596  34593  0
34400  34853  34589  0
34400  34402  34853  0
34241  34849  34590  0
34850  34851  34600  0
34595  34600  34851  0
34854  34850  34600  0
34851  34592  34595  0
34601  34596  34852  0
34852  34855  34601  0
34607  34601  34855  0
34852  34856  34855  0
34857  34607  34855  0
34607  34857  34858  0
34853  34603  34859  0
34602  34859  34603  0
34603  34853  34402  0
34860  34404  34597  0
34861  34854  34600  0
34607  34858  34606  0
34600  34605  34861  0
34604  34606  34858  0
34404  34862  34405  0
34863  34861  34605  0
34612  34405  34864  0
34862  34864  34405  0
34863  34605  34865  0
34605  34611  34865  0
34865  34611  34866  0
34611  34610  34867  0
34868  34867  34610  0
34611  34867  34866  0
34610  34613  34868  0
34615  34616  34869  0
34870  34617  34615  0
34622  34871  34616  0
34869  34616  34871  0
34617  34870  34623  0
34872  34623  34870  0
34613  34618  34628  0
34613  34628  34873  0
34613  34873  34868  0
34415  34874  34088  0
34624  34088  34874  0
34624  34875  34619  0
34876  34420  34619  0
34420  34876  34421  0
34877  34421  34876  0
34622  34626  34878  0
34623  34872  34627  0
34879  34627  34872  0
34880  34642  34881  0
34642  34882  34881  0
34642  34880  34883  0
34884  34883  34880  0
34883  34873  34631  0
34883  34884  34873  0
34873  34628  34631  0
34427  34421  34877  0
34427  34877  34885  0
34632  34427  34885  0
34626  34629  34886  0
34626  34886  34878  0
34627  34887  34630  0
34627  34879  34887  0
34642  34641  34888  0
34642  34888  34882  0
34642  34883  34640  0
34883  34631  34640  0
34648  34889  34890  0
34637  34891  34639  0
34639  34891  34886  0
34639  34886  34629  0
34887  34650  34630  0
34887  34879  34892  0
34887  34892  34650  0
34645  34651  34644  0
34648  34647  34889  0
34650  34892  34893  0
34641  34655  34894  0
34641  34894  34888  0
34889  34647  34895  0
34650  34896  34434  0
34651  34897  34652  0
34651  34898  34897  0
34657  34895  34647  0
34657  34658  34660  0
34655  34453  34899  0
34655  34899  34894  0
34897  34900  34652  0
34652  34900  34656  0
34434  34896  34667  0
34434  34667  34662  0
34900  34665  34656  0
34661  34670  34901  0
34661  34901  34660  0
34902  34903  34904  0
34902  34905  34903  0
34906  34907  34908  0
34906  34908  34909  0
34453  34668  34899  0
34665  34910  34911  0
34665  34911  34669  0
34665  34900  34910  0
34670  34671  34912  0
34670  34912  34903  0
34670  34903  34905  0
34670  34905  34901  0
34903  34912  34913  0
34903  34913  34904  0
34904  34913  34914  0
34913  34915  34914  0
34673  34669  34916  0
34669  34911  34917  0
34669  34917  34916  0
34911  34910  34917  0
34918  34676  34681  0
34918  34681  34919  0
34918  34920  34676  0
34676  34920  34921  0
34676  34921  34675  0
34675  34921  34922  0
34675  34922  34671  0
34671  34922  34923  0
34671  34923  34912  0
34913  34912  34915  0
34682  34919  34681  0
34680  34673  34916  0
34680  34916  34924  0
34683  34925  34682  0
34685  34926  34684  0
34679  34680  34685  0
34683  34463  34925  0
34687  34684  34926  0
34463  34291  34927  0
34291  34689  34927  0
34689  34690  34928  0
34688  34929  34302  0
34690  34691  34928  0
34691  34692  34930  0
34691  34930  34931  0
34692  34693  34694  0
34692  34694  34930  0
34694  34932  34930  0
34302  34929  34933  0
34302  34933  34696  0
34694  34469  34695  0
34694  34934  34932  0
34695  34697  34935  0
34695  34935  34694  0
34697  34698  34936  0
34697  34936  34935  0
34698  34937  34936  0
34698  34700  34937  0
34474  34476  34700  0
34475  34938  34477  0
34477  34938  34701  0
34701  34939  34488  0
34488  34939  34708  0
34487  34713  34707  0
34707  34940  34476  0
34708  34941  34942  0
34706  34714  34713  0
34713  34943  34707  0
34504  34708  34942  0
34500  34716  34501  0
34944  34501  34716  0
34501  34944  34717  0
34722  34717  34944  0
34712  34721  34714  0
34714  34721  34945  0
34946  34722  34944  0
34723  34719  34722  0
34726  34947  34721  0
34721  34947  34948  0
34945  34721  34948  0
34949  34716  34715  0
34950  34722  34946  0
34722  34950  34723  0
34951  34723  34950  0
34723  34951  34728  0
34726  34732  34947  0
34731  34952  34730  0
34953  34727  34511  0
34950  34954  34951  0
34955  34728  34951  0
34728  34955  34729  0
34729  34956  34732  0
34957  34732  34956  0
34958  34732  34957  0
34732  34958  34947  0
34959  34953  34511  0
34955  34951  34954  0
34955  34960  34729  0
34956  34729  34960  0
34952  34961  34730  0
34511  34733  34959  0
34730  34962  34341  0
34730  34961  34962  0
34963  34962  34961  0
34964  34733  34512  0
34512  34734  34964  0
34735  34964  34734  0
34735  34514  34965  0
34737  34965  34514  0
34966  34965  34737  0
34739  34737  34736  0
34967  34962  34963  0
34962  34967  34341  0
34737  34739  34968  0
34743  34968  34739  0
34737  34968  34966  0
34341  34967  34340  0
34750  34969  34968  0
34966  34968  34969  0
34968  34743  34750  0
34340  34970  34523  0
34971  34969  34972  0
34973  34972  34969  0
34974  34971  34972  0
34969  34750  34973  0
34749  34973  34750  0
34756  34523  34970  0
34761  34975  34972  0
34975  34974  34972  0
34976  34974  34975  0
34972  34973  34761  0
34748  34761  34973  0
34973  34749  34748  0
34977  34978  34753  0
34753  34978  34754  0
34753  34755  34977  0
34525  34756  34764  0
34979  34764  34756  0
34764  34979  34765  0
34980  34765  34979  0
34765  34980  34766  0
34981  34766  34980  0
34766  34981  34529  0
34767  34529  34981  0
34975  34761  34976  0
34757  34976  34761  0
34775  34773  34982  0
34777  34982  34773  0
34777  34776  34983  0
34984  34777  34983  0
34985  34983  34986  0
34987  34527  34754  0
34978  34987  34754  0
34988  34755  34345  0
34767  34989  34768  0
34976  34757  34990  0
34770  34990  34757  0
34976  34990  34991  0
34540  34775  34782  0
34776  34783  34983  0
34986  34983  34783  0
34992  34985  34986  0
34003  34527  34778  0
34527  34993  34778  0
34527  34987  34993  0
34345  34534  34988  0
34535  34994  34784  0
34784  34994  34995  0
34996  34995  34994  0
34994  34535  34768  0
34994  34768  34996  0
34989  34996  34768  0
34783  34790  34986  0
34791  34986  34790  0
34986  34791  34992  0
34997  34988  34534  0
34998  34784  34995  0
34999  34770  34780  0
34780  34787  34999  0
35000  34999  34787  0
34802  34548  34539  0
34539  35001  34802  0
34791  34778  34992  0
34993  34992  34778  0
34534  34792  34997  0
34784  34998  34546  0
34793  34546  34998  0
34543  35002  34792  0
34792  35002  34997  0
35003  34997  35002  0
35004  34797  34793  0
34787  34786  35000  0
34794  35000  34786  0
35005  34551  34802  0
35002  34543  34803  0
34797  35004  34798  0
35006  34798  35004  0
34798  34807  34799  0
34798  35006  34807  0
35007  34807  35006  0
34794  34795  35008  0
34794  35008  35009  0
34794  35009  35010  0
34794  35010  35000  0
34795  34801  34804  0
34795  34804  35008  0
34551  35005  34552  0
34805  35011  35002  0
34805  35002  34803  0
34805  35012  35011  0
34806  34807  35007  0
34806  35007  35013  0
34806  35013  34808  0
35009  35008  35014  0
35009  35015  35010  0
35008  34804  35014  0
34804  34557  35014  0
34552  35005  35016  0
34552  35016  34558  0
35012  34810  34814  0
35012  34814  35017  0
35012  35017  35018  0
35012  34805  34810  0
34808  35013  34811  0
35009  35014  35019  0
35014  34817  35019  0
35014  34557  34817  0
34809  34558  35016  0
34809  35020  34812  0
35021  35022  35017  0
35021  35017  34814  0
34817  34570  35019  0
34818  34812  35020  0
34818  35023  34569  0
35021  34814  34819  0
35021  34819  35024  0
35021  35024  35022  0
34570  34569  35025  0
34570  35025  35019  0
34569  35023  35025  0
35024  34819  35026  0
34819  34823  35027  0
34819  35027  35026  0
34823  35028  35027  0
34823  34824  35028  0
34824  34825  35028  0
34825  35029  35028  0
34825  34381  34576  0
34825  34576  34827  0
34825  34827  35029  0
34572  34222  35030  0
34568  34811  35031  0
34568  35031  34573  0
34573  35031  34574  0
34827  35032  35029  0
34386  34826  34829  0
34222  34382  35030  0
34382  35033  35030  0
34574  35031  35034  0
34574  35034  34575  0
34575  35034  35035  0
34575  35035  34831  0
35032  34827  34828  0
34829  35036  34830  0
34382  34578  35033  0
34578  34833  35037  0
34578  35037  35033  0
34831  35035  35038  0
34831  35038  34832  0
34832  35038  34579  0
35032  34828  35039  0
34828  34580  35040  0
34828  35040  35039  0
34833  35041  35037  0
34833  34834  35042  0
34833  35042  35041  0
34579  35038  35043  0
34579  35043  34584  0
34580  34835  35044  0
34580  35044  35040  0
34835  34836  35045  0
34835  35045  35044  0
34834  34837  35046  0
34834  35046  35042  0
34837  34838  35047  0
34837  35047  35046  0
34584  35043  35048  0
34836  34839  35049  0
34836  35049  35045  0
34839  34840  35050  0
34839  35050  35049  0
34838  34583  35051  0
34838  35051  35047  0
34583  34584  35048  0
34583  35048  35051  0
34840  35052  35050  0
35053  35054  35055  0
35053  35055  35056  0
35054  35057  35055  0
35058  34841  34587  0
35058  34587  34848  0
35058  35059  34841  0
34841  35059  34842  0
34842  35059  35060  0
34842  35060  34588  0
34845  34846  35061  0
34843  35062  34593  0
34843  34593  34847  0
34843  34845  35063  0
34843  35063  35062  0
35062  35063  35056  0
35062  35055  34856  0
35062  35056  35055  0
35055  35064  34856  0
35055  35057  35064  0
35057  35065  35064  0
35066  35067  34853  0
35066  35068  35067  0
35067  34848  34589  0
35067  34589  34853  0
35067  35068  35058  0
35067  35058  34848  0
34588  35060  34849  0
34846  34850  35069  0
34846  35069  35061  0
34593  35062  34852  0
35062  34856  34852  0
34856  35064  34855  0
35064  34857  34855  0
35064  35065  34859  0
35064  34859  34857  0
35070  34853  34859  0
35070  35071  35066  0
35070  35066  34853  0
34590  34849  35072  0
34590  35072  34597  0
34850  34854  35073  0
34850  35073  35069  0
35069  35073  35074  0
35069  35074  35075  0
35069  35075  35061  0
35074  35076  35075  0
34857  34859  34604  0
34857  34604  34858  0
34859  34602  34604  0
34597  35072  34860  0
34854  34861  35073  0
35073  35077  35074  0
35074  35077  35076  0
34404  34860  34862  0
35073  34861  34863  0
35073  34863  35077  0
35077  34863  35078  0
35077  35078  35079  0
35077  35079  35080  0
35077  35080  35076  0
35078  35081  35079  0
35079  35081  35082  0
34863  34865  35078  0
35081  35083  35082  0
35084  35082  35083  0
34866  35085  35086  0
34866  35086  34865  0
35087  35085  34866  0
34865  35088  35078  0
35081  35089  35083  0
35090  35083  35089  0
35091  35083  35090  0
35083  35091  35084  0
35087  34866  35092  0
34867  35092  34866  0
35087  35092  35093  0
35094  35093  35092  0
35078  35088  35081  0
35095  35081  35088  0
35081  35095  35089  0
34874  34415  34612  0
34870  34615  34869  0
35096  35094  35092  0
35092  34867  34880  0
34884  34880  34867  0
34867  34868  34884  0
35097  35090  35089  0
35090  35097  35091  0
35098  35091  35097  0
34875  35099  34619  0
35100  34619  35099  0
34619  35100  34876  0
34877  34876  35100  0
35101  34869  34871  0
35102  34871  34622  0
34869  35101  34870  0
35092  34880  34881  0
35092  34881  35096  0
34873  34884  34868  0
35103  34875  34624  0
34622  34878  35102  0
35104  35102  34878  0
35105  34879  34872  0
34881  34882  35096  0
35106  35096  34882  0
35107  34632  34885  0
34878  34886  35104  0
35108  35104  34886  0
35109  34879  35105  0
34882  34888  35106  0
35107  34645  34633  0
34633  34632  35107  0
35110  34637  34890  0
34637  35110  34891  0
35111  34891  35110  0
34891  35111  34886  0
35112  34886  35111  0
34886  35112  35108  0
35113  35108  35112  0
34879  35109  34892  0
34893  34892  35109  0
34894  35106  34888  0
35110  35114  35111  0
35115  35111  35114  0
35111  35115  35112  0
35116  35112  35115  0
35112  35116  35113  0
35117  35113  35116  0
34889  34895  34890  0
35118  34890  34895  0
34890  35118  35110  0
35119  35110  35118  0
35110  35119  35114  0
35120  35114  35119  0
35114  35120  35115  0
35121  35115  35120  0
35115  35121  35116  0
35122  35116  35121  0
