#!ascii file
35728  35931  35730  0
35932  35730  35931  0
35730  35932  35729  0
35933  35729  35932  0
35722  35511  35927  0
35742  35927  35511  0
35733  35734  35294  0
35521  35294  35734  0
35733  35934  35734  0
35734  35935  35514  0
35735  35514  35935  0
35936  35737  35517  0
35737  35937  35739  0
35726  35740  35930  0
35749  35930  35740  0
35729  35933  35519  0
35741  35519  35933  0
35938  35927  35742  0
35517  35744  35936  0
35739  35937  35738  0
35939  35940  35749  0
35941  35940  35939  0
35942  35741  35933  0
35943  35741  35942  0
35738  35944  35525  0
35749  35748  35939  0
35941  35939  35748  0
35308  35752  35755  0
35757  35744  35747  0
35758  35525  35944  0
35748  35753  35941  0
35760  35941  35753  0
35764  35941  35760  0
35941  35764  35945  0
35741  35943  35745  0
35745  35946  35750  0
35947  35742  35751  0
35750  35948  35754  0
35949  35948  35750  0
35754  35948  35751  0
35950  35535  35756  0
35766  35951  35757  0
35758  35952  35761  0
35953  35764  35763  0
35535  35950  35765  0
35954  35544  35761  0
35763  35955  35953  0
35767  35765  35772  0
35766  35768  35956  0
35769  35955  35763  0
35774  35773  35957  0
35774  35957  35768  0
35544  35954  35775  0
35770  35772  35771  0
35958  35771  35772  0
35773  35778  35959  0
35773  35959  35957  0
35785  35560  35775  0
35785  35960  35786  0
35961  35786  35960  0
35962  35786  35961  0
35786  35962  35562  0
35779  35562  35962  0
35771  35958  35963  0
35771  35963  35776  0
35776  35963  35780  0
35780  35964  35777  0
35323  35777  35965  0
35323  35965  35555  0
35555  35965  35781  0
35555  35781  35556  0
35782  35966  35783  0
35967  35783  35966  0
35968  35563  35781  0
35791  35564  35788  0
35792  35798  35805  0
35792  35805  35575  0
35575  35805  35782  0
35782  35805  35969  0
35782  35969  35966  0
35970  35783  35967  0
35783  35970  35793  0
35571  35794  35784  0
35964  35780  35963  0
35563  35968  35971  0
35563  35971  35787  0
35344  35795  35804  0
35787  35971  35972  0
35787  35972  35795  0
35805  35973  35969  0
35799  35974  35803  0
35582  35803  35975  0
35582  35975  35800  0
35804  35795  35976  0
35795  35972  35976  0
35801  35584  35791  0
35801  35791  35789  0
35584  35796  35791  0
35805  35806  35973  0
35806  35595  35977  0
35595  35807  35978  0
35595  35978  35977  0
35979  35980  35981  0
35583  35982  35591  0
35583  35804  35982  0
35807  35983  35978  0
35807  35598  35984  0
35807  35984  35983  0
35592  35591  35985  0
35598  35600  35986  0
35598  35986  35984  0
35597  35592  35987  0
35597  35987  35808  0
35600  35809  35986  0
35808  35987  35988  0
35809  35601  35810  0
35809  35810  35989  0
35808  35811  35355  0
35808  35988  35811  0
35989  35810  35812  0
35811  35814  35604  0
35814  35990  35813  0
35990  35991  35813  0
35813  35992  35815  0
35813  35991  35992  0
35812  35602  35816  0
35812  35816  35993  0
35812  35993  35994  0
35992  35995  35815  0
35605  35817  35606  0
35817  35815  35996  0
35817  35996  35606  0
35815  35995  35996  0
35607  35993  35816  0
35997  35998  35611  0
35611  35998  35607  0
35819  35999  36000  0
35819  35820  35999  0
35819  36000  35997  0
35819  35997  35610  0
35610  35997  35611  0
35370  35608  36001  0
35820  35371  36002  0
35820  36002  35999  0
35821  35370  36001  0
35612  35614  35613  0
35822  36003  36002  0
35822  36002  35371  0
35614  36004  35613  0
35613  36004  35824  0
35615  36005  35822  0
35614  35826  36006  0
35614  36006  36004  0
35824  36007  35616  0
35824  36004  36007  0
35616  35827  35376  0
35830  36005  35615  0
35830  36008  36005  0
35618  36009  35832  0
35616  36007  36010  0
35616  36010  35827  0
35827  36010  35831  0
35828  35831  36011  0
35828  36011  35829  0
35829  36011  36012  0
35829  36012  36008  0
35829  36008  35830  0
35832  35624  35621  0
35826  35833  36006  0
36013  36006  35833  0
35833  35834  36013  0
35835  36013  35834  0
36014  35842  36015  0
36016  36015  35842  0
36015  36016  36017  0
36018  36017  36016  0
35624  36019  35627  0
36013  35835  36020  0
35835  35836  36020  0
36021  36020  35836  0
35842  36014  36022  0
36023  36018  36024  0
35627  36019  35628  0
35628  36019  36025  0
35628  36025  35845  0
35836  35837  36021  0
36026  36021  35837  0
35838  36022  35841  0
35841  36022  36027  0
36022  35838  35842  0
35842  35843  36016  0
36016  35843  36018  0
36024  36018  35843  0
36024  36028  36023  0
35628  35845  35384  0
36029  36026  35837  0
35846  35646  35841  0
35843  35848  36024  0
36028  36024  35848  0
35845  36030  35844  0
35849  35844  36030  0
36031  35849  36030  0
36032  35849  36031  0
35837  35631  36029  0
36033  36029  35631  0
36034  36035  35851  0
35642  35846  35851  0
35851  35846  36034  0
35848  36036  36028  0
36037  36028  36036  0
35853  35634  36038  0
35635  36038  35634  0
35853  36038  36039  0
36040  36039  36038  0
36038  35635  36041  0
35855  36041  35635  0
36038  36041  36040  0
35864  36041  35855  0
35849  36032  35850  0
36042  35850  36032  0
35641  36033  35631  0
36033  35641  35862  0
36043  36033  35862  0
35653  36043  35862  0
36043  35653  35851  0
36035  36043  35851  0
35848  35852  36036  0
36044  36036  35852  0
36036  36044  36045  0
35854  35853  36046  0
36047  36046  35853  0
35864  35856  35857  0
35864  35857  36048  0
35858  35859  36049  0
36050  35859  35388  0
35388  35639  36050  0
36051  36052  35870  0
36053  35870  36052  0
35870  35657  36051  0
35658  36051  35657  0
35850  36042  35860  0
35866  35860  36042  0
35640  35860  35866  0
35852  36054  36044  0
36055  36044  36054  0
35854  36056  35633  0
35633  36056  35863  0
35639  35865  36057  0
36053  35868  35870  0
35869  35868  36053  0
35852  35867  36054  0
36055  36054  35867  0
35863  35664  35410  0
36058  35665  35664  0
35869  36059  35871  0
36060  35871  36059  0
35867  36061  36055  0
36062  36061  35867  0
36063  35665  36058  0
35873  35871  36060  0
36062  35867  35672  0
35665  36063  35874  0
36064  35872  35669  0
35875  36065  35876  0
35876  36065  35674  0
36066  35674  36065  0
35672  35879  36062  0
36067  36062  35879  0
35418  35881  35877  0
35877  36064  35669  0
35674  36066  35677  0
35884  35677  36066  0
35874  36068  35880  0
36069  35881  35882  0
35681  36070  35682  0
36070  36071  35682  0
36072  35682  36071  0
35685  36070  35681  0
36070  35685  35890  0
35883  35679  36073  0
36074  36073  35679  0
35884  36074  35679  0
35879  35878  36067  0
36075  36067  35878  0
35435  35895  35882  0
35895  36069  35882  0
36076  36069  35895  0
36077  35692  35682  0
36078  35890  35889  0
35889  35892  36078  0
35883  35893  35687  0
36079  35878  35885  0
35878  36079  36075  0
35895  35894  36076  0
35898  36076  35894  0
36077  35691  35692  0
36080  35691  36077  0
36081  35892  35891  0
35901  36079  35885  0
36079  35901  36075  0
36082  36075  35901  0
35689  35887  36083  0
35442  35691  35902  0
36080  35902  35691  0
35891  35896  36081  0
36081  35896  36084  0
35439  35897  35900  0
35901  35697  36085  0
35901  36085  36082  0
35697  35689  36085  0
35896  35899  36086  0
35896  36086  36084  0
35449  36087  35450  0
35259  35903  36088  0
35259  36088  35449  0
35899  35906  36086  0
36086  35906  35907  0
36086  35907  36084  0
36084  35907  36089  0
36090  35701  35700  0
35906  35458  35907  0
35907  36091  36089  0
36092  35453  35905  0
35451  35702  36093  0
35702  35455  36093  0
35701  36090  35454  0
35454  36094  35457  0
35907  35703  35909  0
35907  35909  36095  0
35907  36095  36091  0
35453  36092  36096  0
35455  35908  36093  0
35457  36094  36097  0
35909  36096  36095  0
35457  36098  35704  0
35704  36098  36099  0
35911  35704  36099  0
35912  35916  36100  0
35912  36100  35915  0
35915  36100  36101  0
35916  35715  35920  0
35916  35920  36100  0
36100  35920  36101  0
36101  36102  35915  0
35915  36102  36103  0
35915  36103  35917  0
35918  35917  36104  0
35918  36104  36105  0
35918  36105  35919  0
35919  36105  36106  0
35919  36106  35717  0
35920  35714  36107  0
35920  36107  36101  0
35714  35921  36107  0
35922  35717  36106  0
35922  36106  36108  0
35921  36109  36107  0
35922  36108  35721  0
35921  35720  35923  0
35921  35923  36109  0
35721  36108  36110  0
35721  36110  35497  0
35497  36110  35928  0
35725  35929  36111  0
35725  36111  35925  0
35925  36111  35926  0
35929  35930  36111  0
36111  35930  36112  0
36111  36112  35926  0
35926  36112  35931  0
35731  35934  35733  0
35731  36113  35934  0
35930  35749  35940  0
35930  35940  36112  0
36112  35940  36114  0
36112  36114  35931  0
35931  36115  36116  0
35931  36116  35932  0
35931  36114  36115  0
35932  36116  36117  0
35932  36117  36118  0
35932  36118  35933  0
35934  36119  35734  0
35734  36119  35935  0
35935  36120  35735  0
35735  35743  35736  0
35735  36120  36121  0
35735  36121  35743  0
35737  35936  35937  0
35933  36122  35942  0
35933  36118  36122  0
35743  36121  36123  0
35743  36123  35307  0
35937  35936  36124  0
35937  36124  35738  0
35738  36124  35944  0
35940  35941  35945  0
35940  35945  36125  0
35940  36125  36114  0
35942  36122  36126  0
35942  36126  35943  0
35752  35307  36123  0
35744  36127  35936  0
35944  36124  36128  0
35742  35947  35938  0
35755  35752  36129  0
35755  36129  35756  0
35744  35757  35951  0
35744  35951  36130  0
35744  36130  36127  0
36130  35951  36131  0
35944  36128  35758  0
35945  35764  36132  0
35945  36132  36133  0
35745  35943  36134  0
35745  36134  35946  0
35751  36135  35947  0
35756  36136  36137  0
35756  36137  35950  0
35758  36128  35952  0
35764  35953  36138  0
35764  36138  36132  0
35946  36139  35949  0
35946  35949  35750  0
35946  36134  36140  0
35946  36140  36139  0
35751  35948  36141  0
35951  35766  36131  0
35952  36142  35761  0
35949  36143  35948  0
35949  36139  36143  0
36141  36135  35751  0
35950  36137  36144  0
35950  36144  35765  0
35955  36145  35953  0
36144  36146  35765  0
35765  36146  35772  0
35954  35761  36147  0
35769  35779  35955  0
35962  36148  35779  0
35955  35779  36145  0
35772  36146  36149  0
35768  35957  35956  0
35954  36147  36150  0
35954  36150  35775  0
35962  35961  36151  0
35785  35775  35960  0
35966  36152  35967  0
36153  36152  35966  0
35970  35967  36154  0
35967  36152  36154  0
35778  35784  35959  0
35958  36155  35963  0
36156  35777  35964  0
35777  36156  35965  0
35968  35781  35965  0
35966  35969  36153  0
36157  36153  35969  0
35970  36158  35793  0
35784  35794  36159  0
36160  36159  35794  0
36161  35963  36155  0
35963  36161  35964  0
36156  36162  35965  0
35965  36162  35968  0
35788  35789  35791  0
36163  36157  35969  0
35794  35800  36160  0
36164  36165  36166  0
36167  36164  36168  0
36169  36167  36168  0
36168  35980  36170  0
36168  36170  36169  0
36171  35972  35971  0
35969  35973  36163  0
36172  36163  35973  0
35973  35806  36172  0
35977  36172  35806  0
36160  35800  35975  0
35981  36164  36166  0
36164  35981  36168  0
35980  36168  35981  0
36173  36170  35980  0
36170  36173  36174  0
36175  36174  36173  0
36166  36176  35981  0
36173  35980  35979  0
35804  35976  36177  0
35983  36178  35978  0
35981  36179  35979  0
35981  36180  36179  0
36181  36173  35979  0
36173  36181  36175  0
35985  35591  36182  0
35591  35982  36182  0
36183  36182  35982  0
35984  36184  35983  0
36185  35979  36179  0
36186  36179  36180  0
35979  36185  36181  0
35987  35592  35985  0
35985  36182  36187  0
35985  36187  35987  0
36188  35987  36187  0
36179  36186  36185  0
35987  36188  35988  0
36189  35988  36188  0
35809  36190  35986  0
36190  35809  35989  0
36191  36190  35989  0
35988  36189  35811  0
35811  36189  36192  0
35812  36191  35989  0
35811  36192  35814  0
35990  35814  36192  0
36192  36193  35990  0
36194  35990  36193  0
36191  35812  36195  0
35990  36194  35991  0
36196  35991  36194  0
36197  36196  36194  0
36198  36196  36197  0
36195  35812  35994  0
35991  36196  35992  0
36199  35992  36196  0
36200  36199  36196  0
36201  35995  35992  0
35992  36199  36200  0
35992  36200  36201  0
35996  35995  36202  0
36201  36202  35995  0
35996  36202  36203  0
35994  35993  35998  0
35607  35998  35993  0
35818  35606  36204  0
35606  35996  36204  0
36203  36204  35996  0
36000  35998  35997  0
36000  35994  35998  0
36205  35608  35818  0
36206  36000  35999  0
35608  36207  36001  0
35999  36002  36208  0
36003  36208  36002  0
36209  35821  36001  0
35821  36209  35823  0
36210  35823  36209  0
35822  36005  36003  0
36211  36212  36213  0
36015  36211  36213  0
36211  36214  36212  0
35823  36210  35825  0
36215  36015  36213  0
36211  36015  36017  0
36211  36017  36214  0
36214  36017  36216  0
36214  36216  36217  0
36214  36217  36218  0
36219  35618  35825  0
35618  36219  36009  0
36220  36009  36219  0
36007  36004  36221  0
36004  36006  36221  0
36010  36011  35831  0
36011  36222  36012  0
36015  36215  36014  0
36216  36223  36217  0
35832  36224  36019  0
35832  36019  35624  0
35832  36009  36224  0
36006  36013  36221  0
36013  36020  36221  0
36007  36225  36010  0
36226  36227  36027  0
36215  36022  36014  0
36017  36018  36216  0
36216  36018  36023  0
36216  36023  36228  0
36216  36228  36223  0
36019  36224  36229  0
36019  36229  36025  0
36025  36229  36230  0
36025  36230  36231  0
36020  36232  36221  0
36020  36021  36232  0
36226  36027  36215  0
36215  36027  36022  0
36023  36233  36228  0
36025  36231  35845  0
36231  36234  36030  0
36234  36235  36030  0
36234  36236  36235  0
36021  36026  36237  0
36021  36237  36232  0
36034  35846  36027  0
36034  36027  36238  0
36027  35846  35841  0
36231  36030  35845  0
36030  36235  36031  0
36235  36239  36031  0
36235  36240  36239  0
36026  36029  36237  0
36035  36034  36241  0
36031  36239  36242  0
36031  36242  36243  0
36031  36243  36032  0
36033  36043  36244  0
36033  36244  36029  0
36043  36035  36244  0
36037  36036  36245  0
36039  36047  35853  0
36041  35864  36048  0
36041  36048  36246  0
36041  36246  36040  0
36048  35857  36247  0
36048  36247  36246  0
36247  35857  35858  0
36247  35858  36049  0
36247  36049  36248  0
36032  36243  36042  0
36045  36245  36036  0
36046  36249  35854  0
36046  36047  36250  0
36046  36250  36249  0
36047  36251  36250  0
36049  35859  36050  0
36049  36050  36248  0
36050  35639  36057  0
36053  36052  36252  0
36051  35658  36042  0
36051  36042  36243  0
36051  36243  36052  0
36042  35658  35866  0
36044  36253  36045  0
36044  36055  36253  0
35854  36249  36056  0
36057  35865  36254  0
35869  36053  36255  0
35869  36255  36256  0
35869  36256  36059  0
35865  35872  36257  0
35865  36257  36254  0
36055  36061  36258  0
36061  36062  36259  0
35872  36064  36257  0
36060  36260  35873  0
35873  36260  35875  0
36063  36261  35874  0
35875  36262  36065  0
36065  36262  36263  0
36065  36263  36066  0
36062  36264  36259  0
36062  36067  36265  0
36062  36265  36264  0
35874  36261  36068  0
35877  36266  36267  0
35877  36267  36064  0
35877  35881  36266  0
36268  36073  36074  0
36268  36074  36269  0
36269  36074  35884  0
36269  35884  36066  0
35881  36069  36266  0
36071  36070  36270  0
36271  36270  36070  0
36070  35890  36271  0
36272  36271  35890  0
36078  36273  35890  0
35890  36273  36272  0
35883  36073  36274  0
35883  36274  36275  0
35883  36275  35893  0
36067  36075  36265  0
36276  36265  36075  0
35887  35880  36277  0
36278  36069  36076  0
36069  36278  36266  0
35682  36072  36077  0
36279  36078  35892  0
35892  36081  36279  0
35893  36275  36280  0
36277  36083  35887  0
36076  35898  36281  0
35893  36280  35897  0
36082  36276  36075  0
35689  36083  36085  0
36085  36083  36277  0
35898  35902  36281  0
36080  36281  35902  0
35897  36282  35900  0
36088  36087  35449  0
36088  35903  36283  0
35900  36282  35700  0
35905  35450  36284  0
36092  35905  36284  0
35903  35904  36283  0
36093  35904  35451  0
36090  35700  36285  0
36094  35454  36090  0
36286  36091  36095  0
36287  36286  36095  0
36092  36288  36096  0
36289  36290  35908  0
36095  36096  36287  0
36288  36287  36096  0
35908  35910  36289  0
36098  35457  36097  0
35910  35911  36291  0
36104  35917  36103  0
36292  36103  36102  0
36293  36105  36104  0
36101  36107  36102  0
36294  36102  36107  0
36292  36102  36295  0
36102  36294  36295  0
36105  36293  36106  0
36296  36106  36293  0
36109  36294  36107  0
36106  36296  36108  0
36110  36108  36296  0
36109  35923  36297  0
36298  36297  35923  0
35923  35924  36298  0
36110  36299  35928  0
35928  36299  35731  0
36113  35731  36299  0
36300  36298  35924  0
35934  36113  36119  0
36120  35935  36119  0
36116  36301  36117  0
36302  36117  36301  0
36116  36115  36301  0
36125  36301  36115  0
36117  36302  36118  0
35924  35927  36300  0
36120  36303  36121  0
36304  36121  36303  0
36125  36115  36114  0
35927  35938  36300  0
36305  36300  35938  0
36121  36304  36123  0
35936  36127  36124  0
36133  36125  35945  0
36125  36133  36306  0
36307  36306  36133  0
36122  36308  36126  0
35752  36123  36304  0
36127  36130  36124  0
36128  36124  36130  0
36133  36132  36307  0
36309  36307  36132  0
36134  35943  36126  0
36305  35938  35947  0
36304  36129  35752  0
36136  35756  36129  0
36130  36131  36128  0
36310  36305  35947  0
36311  36128  36131  0
36128  36311  35952  0
36132  36138  36309  0
36134  36312  36140  0
36310  35947  36135  0
36131  35766  36311  0
36311  36142  35952  0
36138  35953  36313  0
35948  36143  36141  0
35766  36314  36311  0
36311  36314  36142  0
36148  36145  35779  0
36148  36315  36145  0
36145  36313  35953  0
36316  36139  36140  0
36139  36317  36143  0
36139  36316  36317  0
36143  36317  36318  0
36143  36318  36141  0
35766  35956  36314  0
36314  36319  36142  0
36314  35956  36319  0
36142  36319  36147  0
36142  36147  35761  0
35961  36320  36151  0
36148  36151  36320  0
36151  36148  35962  0
35956  35957  36321  0
35956  36321  36319  0
36322  36147  36319  0
36147  36322  36150  0
36323  36150  36322  0
36150  35960  35775  0
36150  36323  35960  0
35960  36323  35961  0
35957  35959  36321  0
36324  36325  36326  0
36324  36326  36327  0
36324  36327  36328  0
36324  36328  36329  0
36330  35958  35772  0
36330  35772  36149  0
36331  36332  36333  0
36331  36333  36153  0
36153  36333  36334  0
36153  36334  36152  0
36152  36334  36154  0
36154  36335  35970  0
35784  36159  35959  0
36336  36337  36167  0
36336  36167  36329  0
36336  36329  36338  0
36329  36167  36169  0
36329  36169  36324  0
36324  36169  36325  0
36331  36153  36157  0
36331  36157  36339  0
36331  36339  36340  0
36331  36340  36332  0
35970  36335  36158  0
36337  36165  36164  0
36337  36164  36167  0
36337  36341  36165  0
36169  36170  36325  0
36325  36170  36342  0
36325  36342  36326  0
36155  36343  36161  0
36161  36343  36344  0
35964  36161  36156  0
36162  36156  36345  0
36157  36163  36339  0
36158  36346  35793  0
35793  36346  35799  0
36165  36341  36347  0
36165  36347  36166  0
36170  36174  36342  0
36342  36174  36348  0
36161  36344  36349  0
36161  36349  36156  0
36156  36349  36345  0
35971  35968  36350  0
35971  36350  36171  0
36339  36163  36351  0
36172  35977  36352  0
35799  36353  35974  0
35974  36353  35803  0
35975  35803  36354  0
35975  36354  36160  0
36166  36347  36176  0
36174  36175  36355  0
36174  36355  36348  0
35977  35978  36352  0
36176  36356  36180  0
36176  36180  35981  0
36176  36357  36356  0
35982  35804  36183  0
35804  36177  36183  0
36177  35976  36358  0
35972  36171  36359  0
35972  36359  35976  0
36178  35983  36184  0
36178  36184  36360  0
36175  36361  36355  0
36355  36361  36362  0
36182  36183  36187  0
36358  35976  36359  0
36184  35984  35986  0
36184  35986  36360  0
36180  36356  36363  0
36180  36363  36186  0
36175  36181  36361  0
36187  36364  36188  0
36183  36364  36187  0
36360  36190  36365  0
36360  36365  36366  0
36360  35986  36190  0
36186  36367  36185  0
36186  36363  36367  0
36181  36368  36361  0
36188  36364  36369  0
36188  36369  36189  0
36367  36370  36185  0
36367  36363  36371  0
36185  36370  36181  0
36181  36370  36368  0
36369  36372  36192  0
36369  36192  36189  0
36369  36364  36373  0
36369  36373  36372  0
36365  36190  36191  0
36365  36191  36374  0
36370  36367  36375  0
36192  36372  36193  0
36372  36376  36377  0
36372  36377  36193  0
36372  36378  36376  0
36374  36195  36379  0
36374  36191  36195  0
36370  36375  36380  0
36193  36377  36197  0
36193  36197  36194  0
36377  36381  36197  0
36377  36382  36381  0
36377  36376  36382  0
36197  36381  36198  0
36381  36382  36383  0
36381  36383  36198  0
36384  36374  36379  0
35994  36379  36195  0
36196  36198  36200  0
36385  36200  36198  0
36384  36379  36386  0
35994  36386  36379  0
36201  36387  36202  0
36388  36389  36387  0
36387  36201  36200  0
36387  36200  36388  0
36385  36388  36200  0
36390  36384  36386  0
36390  36386  36000  0
35994  36000  36386  0
36391  36390  36000  0
36204  36205  35818  0
36204  36203  36392  0
36202  36392  36203  0
36000  36206  36391  0
36393  36391  36206  0
35608  36205  36207  0
35999  36208  36206  0
36393  36206  36208  0
36209  36001  36207  0
36394  36208  36003  0
36208  36394  36393  0
36395  36396  36397  0
36394  36397  36396  0
36394  36213  36397  0
36212  36397  36213  0
36397  36212  36395  0
36218  36395  36212  0
36395  36218  36398  0
36003  36005  36394  0
36213  36394  36005  0
36212  36214  36218  0
36219  35825  36210  0
36226  36005  36008  0
36005  36226  36213  0
36215  36213  36226  0
36218  36217  36399  0
36225  36007  36221  0
36400  36011  36010  0
36011  36400  36222  0
36401  36222  36400  0
36222  36401  36012  0
36012  36227  36008  0
36226  36008  36227  0
36012  36401  36227  0
36217  36223  36399  0
36009  36220  36224  0
36229  36224  36220  0
36230  36229  36402  0
36402  36403  36230  0
36404  36405  36236  0
36406  36236  36405  0
36232  36225  36221  0
36225  36407  36010  0
36408  36010  36407  0
36225  36232  36407  0
36010  36408  36400  0
36409  36400  36408  0
36401  36410  36227  0
36027  36227  36410  0
36411  36223  36228  0
36412  36411  36228  0
36230  36413  36231  0
36234  36231  36413  0
36413  36404  36234  0
36236  36234  36404  0
36236  36406  36240  0
36410  36238  36027  0
36414  36238  36410  0
36228  36233  36412  0
36236  36240  36235  0
36415  36240  36406  0
36232  36237  36416  0
36244  36416  36237  0
36232  36416  36407  0
36417  36416  36244  0
36244  36035  36241  0
36244  36241  36417  0
36414  36417  36241  0
36034  36238  36241  0
36241  36238  36414  0
36023  36028  36233  0
36240  36415  36239  0
36237  36029  36244  0
36028  36037  36233  0
36418  36233  36037  0
36052  36242  36252  0
36243  36242  36052  0
36242  36239  36415  0
36418  36037  36245  0
36039  36419  36047  0
36248  36420  36247  0
36421  36422  36050  0
36423  36053  36252  0
36423  36252  36424  0
36249  36250  36425  0
36251  36425  36250  0
36251  36047  36426  0
36419  36426  36047  0
36251  36426  36427  0
36254  36050  36057  0
36423  36255  36053  0
36423  36428  36255  0
36256  36255  36428  0
36056  36249  36429  0
36425  36429  36249  0
36425  36251  36430  0
36427  36430  36251  0
36055  36258  36253  0
36431  35863  36056  0
36429  36425  36432  0
36433  36432  36425  0
36425  36430  36433  0
36256  36434  36059  0
35664  35863  36435  0
36431  36435  35863  0
35664  36435  36058  0
36059  36436  36060  0
36437  36060  36436  0
36258  36061  36259  0
36435  36438  36058  0
36058  36438  36063  0
36439  36257  36064  0
36060  36437  36260  0
36262  35875  36260  0
36440  36260  36437  0
36260  36440  36262  0
36441  36262  36440  0
36262  36441  36263  0
36442  36263  36441  0
36064  36267  36439  0
36263  36442  36066  0
36443  36066  36442  0
36267  36266  36444  0
36445  36272  36273  0
36268  36274  36073  0
36269  36066  36443  0
36269  36443  36268  0
36264  36265  36446  0
36265  36447  36446  0
36068  36448  36449  0
36068  36449  35880  0
36444  36278  36450  0
36278  36451  36450  0
36278  36444  36266  0
36273  36078  36279  0
36273  36279  36452  0
36273  36452  36445  0
36274  36453  36275  0
36265  36276  36454  0
36265  36454  36447  0
35880  36449  36277  0
36455  36277  36449  0
36278  36076  36456  0
36278  36456  36451  0
36072  36071  36457  0
36072  36457  36458  0
36072  36458  36077  0
36279  36081  36459  0
36279  36459  36452  0
36459  36081  36460  0
36076  36281  36461  0
36076  36461  36456  0
36077  36458  36462  0
36077  36462  36080  0
36276  36082  36463  0
36276  36463  36454  0
36277  36455  36464  0
36277  36464  36085  0
36084  36465  36081  0
36081  36465  36460  0
36082  36085  36463  0
36084  36089  36465  0
36087  36088  36466  0
36087  36466  36467  0
36087  36467  36468  0
36087  36468  35450  0
36088  36283  36469  0
36088  36469  36466  0
36282  36285  35700  0
36089  36470  36465  0
36284  35450  36468  0
35904  36093  36471  0
35904  36471  36283  0
36285  36472  36090  0
36089  36091  36470  0
36092  36284  36473  0
36092  36473  36288  0
36093  35908  36474  0
36093  36474  36471  0
36090  36475  36094  0
36091  36286  36470  0
35908  36290  36474  0
36097  36094  36476  0
36287  36288  36473  0
35910  36291  36289  0
36097  36476  36098  0
36291  35911  36477  0
35911  36099  36477  0
36103  36292  36478  0
36103  36478  36104  0
36104  36478  36293  0
36292  36295  36479  0
36293  36478  36480  0
36294  36109  36297  0
36294  36297  36295  0
36295  36297  36481  0
36295  36481  36479  0
36110  36296  36482  0
36110  36482  36299  0
36299  36483  36113  0
36299  36482  36483  0
36113  36483  36484  0
36113  36484  36119  0
36298  36300  36485  0
36119  36486  36303  0
36119  36303  36120  0
36119  36484  36486  0
36486  36487  36303  0
36301  36125  36488  0
36301  36488  36302  0
36302  36489  36118  0
36302  36488  36490  0
36302  36490  36489  0
36118  36491  36122  0
36118  36489  36491  0
36300  36492  36485  0
36303  36487  36304  0
36125  36306  36488  0
36488  36306  36493  0
36488  36493  36490  0
36304  36487  36494  0
36306  36307  36493  0
36308  36495  36126  0
36304  36494  36496  0
36126  36495  36134  0
36129  36304  36496  0
36129  36496  36136  0
36134  36495  36312  0
36136  36497  36137  0
36136  36496  36497  0
36138  36313  36309  0
36137  36497  36498  0
36315  36313  36145  0
36315  36499  36313  0
36310  36135  36500  0
36501  36500  36135  0
36502  36146  36144  0
36148  36320  36503  0
36503  36504  36148  0
36503  36505  36504  0
36504  36315  36148  0
36501  36135  36141  0
36320  36506  36507  0
36320  36323  36506  0
35961  36323  36320  0
36317  36508  36318  0
36317  36316  36508  0
36318  36501  36141  0
36146  36502  36509  0
36146  36509  36149  0
36319  36510  36506  0
36319  36506  36322  0
36319  36321  36510  0
36511  36510  36321  0
36322  36506  36323  0
36327  36512  36328  0
36321  35959  36511  0
36513  36511  35959  0
36338  36329  36328  0
36514  36327  36326  0
36515  36330  36149  0
36332  36516  36333  0
36517  36333  36516  0
36518  36516  36332  0
36334  36519  36154  0
36335  36154  36519  0
36520  36513  35959  0
35959  36159  36520  0
36337  36336  36521  0
36522  36521  36336  0
36336  36338  36522  0
36155  35958  36330  0
36332  36340  36518  0
36521  36341  36337  0
36326  36342  36348  0
36343  36155  36330  0
36346  36523  35799  0
36159  36160  36524  0
36525  36524  36160  0
36341  36526  36347  0
36345  36527  36162  0
36528  36162  36527  0
36162  36528  35968  0
36350  35968  36528  0
36351  36340  36339  0
36529  36351  36163  0
36163  36172  36529  0
36352  36529  36172  0
35799  36523  36353  0
36530  35803  36353  0
36354  35803  36530  0
36525  36160  36354  0
36531  36347  36526  0
36347  36531  36176  0
36357  36176  36531  0
36348  36355  36532  0
36352  35978  36533  0
36178  36533  35978  0
36362  36532  36355  0
36171  36350  36359  0
36534  36359  36350  0
36533  36178  36535  0
36360  36535  36178  0
36183  36177  36536  0
36177  36358  36536  0
36537  36536  36358  0
36358  36359  36537  0
36535  36360  36366  0
36535  36366  36538  0
36539  36363  36356  0
36373  36364  36183  0
36183  36536  36373  0
36540  36373  36536  0
36537  36540  36536  0
36537  36359  36541  0
36534  36541  36359  0
36365  36542  36366  0
36366  36542  36538  0
36543  36363  36539  0
36378  36373  36540  0
36544  36378  36545  0
36545  36546  36544  0
36547  36544  36546  0
36365  36548  36542  0
36549  36550  36551  0
36552  36551  36550  0
36551  36553  36549  0
36554  36549  36553  0
36363  36543  36371  0
36555  36361  36368  0
36361  36555  36362  0
36373  36378  36372  0
36378  36544  36376  0
36556  36376  36544  0
36544  36547  36556  0
36542  36548  36557  0
36548  36365  36558  0
36374  36558  36365  0
36551  36559  36553  0
36560  36553  36559  0
36375  36367  36371  0
36370  36380  36368  0
36561  36368  36380  0
36368  36561  36555  0
36562  36563  36564  0
36564  36565  36566  0
36564  36566  36562  0
36566  36565  36567  0
36382  36376  36556  0
36556  36547  36382  0
36383  36382  36547  0
36551  36568  36559  0
36551  36552  36568  0
36559  36569  36560  0
36570  36380  36375  0
36380  36571  36561  0
36564  36563  36572  0
36573  36572  36563  0
36567  36565  36574  0
36574  36575  36567  0
36558  36384  36548  0
36558  36374  36384  0
36568  36576  36559  0
36569  36559  36576  0
36380  36570  36571  0
36573  36577  36578  0
36572  36388  36564  0
36564  36388  36579  0
36564  36579  36565  0
36565  36579  36574  0
36574  36579  36385  0
36574  36385  36575  0
36575  36385  36198  0
36575  36198  36383  0
36580  36548  36384  0
36573  36581  36389  0
36573  36389  36572  0
36573  36578  36582  0
36573  36582  36581  0
36572  36389  36388  0
36579  36388  36385  0
36580  36384  36390  0
36580  36390  36583  0
36581  36387  36389  0
36581  36582  36584  0
36585  36583  36586  0
36585  36586  36587  0
36583  36588  36586  0
36583  36390  36588  0
36581  36392  36202  0
36581  36202  36387  0
36581  36584  36392  0
36588  36589  36590  0
36588  36590  36586  0
36588  36390  36391  0
36588  36391  36589  0
36204  36392  36591  0
36204  36591  36592  0
36204  36592  36205  0
36391  36393  36593  0
36391  36593  36589  0
36205  36592  36207  0
36393  36396  36593  0
36396  36395  36594  0
36396  36594  36593  0
36594  36395  36398  0
36207  36595  36209  0
36393  36394  36396  0
36398  36218  36596  0
36209  36597  36210  0
36218  36399  36598  0
36218  36598  36596  0
36210  36597  36219  0
36599  36405  36404  0
36599  36600  36601  0
36599  36404  36600  0
36599  36601  36602  0
36599  36602  36405  0
36400  36409  36401  0
36399  36223  36603  0
36223  36411  36604  0
36223  36604  36603  0
36220  36605  36229  0
36229  36605  36606  0
36229  36606  36402  0
36402  36606  36403  0
36403  36413  36230  0
36403  36607  36413  0
36413  36607  36600  0
36413  36600  36404  0
36405  36602  36608  0
36405  36608  36406  0
36407  36609  36408  0
36409  36414  36410  0
36409  36410  36401  0
36409  36408  36414  0
36407  36416  36609  0
36609  36416  36417  0
36609  36417  36414  0
36609  36414  36408  0
36610  36611  36415  0
36610  36612  36613  0
36610  36613  36611  0
36610  36415  36614  0
36610  36614  36612  0
36614  36415  36406  0
36233  36615  36412  0
36611  36252  36242  0
36611  36242  36415  0
36233  36418  36615  0
36616  36246  36247  0
36616  36247  36420  0
36616  36420  36617  0
36616  36617  36618  0
36420  36619  36617  0
36619  36420  36248  0
36619  36248  36422  0
36424  36620  36621  0
36424  36621  36423  0
36611  36424  36252  0
36245  36622  36418  0
36039  36040  36618  0
36040  36246  36616  0
36040  36616  36618  0
36248  36050  36422  0
36423  36621  36428  0
36045  36623  36622  0
36045  36622  36245  0
36045  36624  36623  0
36421  36050  36254  0
36421  36254  36625  0
36626  36256  36428  0
36253  36624  36045  0
36253  36258  36624  0
36427  36627  36430  0
36256  36626  36628  0
36256  36628  36434  0
36056  36429  36431  0
36429  36432  36431  0
36432  36433  36629  0
36433  36430  36630  0
36430  36627  36631  0
36430  36631  36630  0
36254  36257  36625  0
36434  36436  36059  0
36258  36259  36632  0
36625  36257  36439  0
36625  36439  36633  0
36436  36440  36437  0
36634  36633  36439  0
36440  36635  36441  0
36259  36264  36632  0
36636  36632  36264  0
36261  36063  36637  0
36438  36637  36063  0
36267  36444  36638  0
36639  36638  36444  0
36638  36439  36267  0
36638  36634  36439  0
36640  36268  36442  0
36443  36442  36268  0
36441  36640  36442  0
36641  36268  36640  0
36636  36264  36446  0
36068  36261  36448  0
36637  36448  36261  0
36444  36450  36642  0
36639  36642  36643  0
36642  36450  36643  0
36644  36643  36450  0
36642  36639  36444  0
36272  36445  36645  0
36646  36645  36445  0
36272  36645  36271  0
36641  36453  36274  0
36274  36268  36641  0
36450  36451  36644  0
36647  36457  36071  0
36071  36270  36647  0
36648  36647  36270  0
36270  36271  36648  0
36453  36649  36275  0
36650  36275  36649  0
36447  36454  36651  0
36463  36651  36454  0
36455  36449  36652  0
36464  36455  36652  0
36653  36456  36461  0
36461  36462  36653  0
36654  36653  36462  0
36458  36655  36462  0
36462  36655  36654  0
36457  36655  36458  0
36656  36459  36460  0
36275  36650  36280  0
36461  36281  36462  0
36080  36462  36281  0
36465  36656  36460  0
35897  36657  36282  0
36658  36282  36657  0
36085  36464  36463  0
36659  36469  36283  0
36282  36658  36285  0
36472  36285  36658  0
36465  36470  36660  0
36283  36471  36659  0
36475  36090  36472  0
36661  36470  36286  0
36284  36468  36662  0
36284  36662  36473  0
36663  36473  36662  0
36664  36094  36475  0
36286  36287  36661  0
36665  36473  36663  0
36290  36289  36666  0
36667  36666  36289  0
36094  36664  36476  0
36668  36476  36664  0
36287  36473  36661  0
36665  36661  36473  0
36289  36291  36667  0
36669  36667  36291  0
36476  36477  36098  0
36099  36098  36477  0
36476  36668  36477  0
36670  36477  36668  0
36291  36477  36669  0
36670  36669  36477  0
36292  36671  36478  0
36480  36478  36671  0
36292  36479  36671  0
36672  36671  36479  0
36482  36296  36293  0
36293  36480  36482  0
36673  36482  36480  0
36674  36481  36297  0
36675  36482  36673  0
36297  36298  36674  0
36482  36675  36483  0
36484  36483  36675  0
36298  36485  36674  0
36486  36484  36676  0
36676  36677  36486  0
36491  36489  36678  0
36486  36677  36487  0
36679  36487  36677  0
36489  36490  36678  0
36493  36678  36490  0
36491  36680  36122  0
36681  36487  36679  0
36122  36680  36308  0
36682  36308  36680  0
36495  36308  36682  0
36487  36681  36494  0
36683  36494  36681  0
36493  36307  36684  0
36493  36684  36685  0
36496  36494  36683  0
36307  36309  36686  0
36307  36686  36684  0
36300  36305  36492  0
36497  36496  36683  0
36687  36313  36499  0
36313  36687  36309  0
36688  36689  36503  0
36688  36503  36507  0
36689  36690  36503  0
36690  36505  36503  0
36691  36505  36690  0
36505  36691  36504  0
36504  36691  36315  0
36499  36315  36691  0
36137  36498  36144  0
36507  36503  36320  0
36140  36312  36692  0
36140  36692  36316  0
36502  36144  36498  0
36506  36693  36507  0
36506  36510  36693  0
36512  36694  36328  0
36512  36327  36695  0
36512  36695  36696  0
36316  36697  36508  0
36316  36692  36697  0
36501  36318  36698  0
36699  36700  36522  0
36699  36522  36338  0
36699  36338  36701  0
36699  36701  36694  0
36701  36338  36328  0
36701  36328  36694  0
36327  36514  36695  0
36508  36697  36702  0
36508  36702  36318  0
36318  36702  36698  0
36333  36703  36334  0
36333  36517  36703  0
36334  36704  36519  0
36334  36703  36704  0
36700  36521  36522  0
36700  36705  36521  0
36514  36326  36706  0
36514  36706  36707  0
36149  36509  36515  0
36517  36516  36708  0
36519  36704  36709  0
36519  36709  36335  0
36335  36709  36710  0
36513  36520  36711  0
36521  36705  36712  0
36521  36712  36341  0
36326  36348  36706  0
36706  36348  36713  0
36706  36713  36707  0
36518  36340  36714  0
36518  36714  36516  0
36516  36714  36708  0
36335  36710  36158  0
36158  36710  36346  0
36159  36524  36520  0
36341  36712  36526  0
36348  36532  36713  0
36330  36515  36715  0
36330  36715  36343  0
36343  36715  36344  0
36340  36351  36714  0
36714  36351  36529  0
36532  36716  36713  0
36344  36717  36349  0
36349  36717  36345  0
36345  36718  36527  0
36345  36717  36718  0
36352  36533  36719  0
36353  36720  36530  0
36354  36721  36525  0
36526  36722  36531  0
36527  36718  36528  0
36528  36723  36350  0
36528  36718  36723  0
36533  36535  36724  0
36533  36724  36719  0
36357  36531  36725  0
36350  36723  36534  0
36535  36538  36726  0
36535  36726  36724  0
36727  36728  36729  0
36727  36729  36730  0
36727  36730  36731  0
36728  36732  36733  0
36728  36733  36729  0
36357  36734  36356  0
36532  36362  36716  0
36726  36538  36542  0
36726  36542  36735  0
36731  36736  36727  0
36731  36737  36736  0
36727  36738  36728  0
36728  36738  36732  0
36732  36738  36739  0
36356  36734  36740  0
36356  36740  36539  0
36540  36537  36545  0
36540  36545  36378  0
36537  36541  36546  0
36537  36546  36545  0
36541  36534  36741  0
36541  36741  36742  0
36541  36742  36546  0
36743  36744  36735  0
36743  36735  36542  0
36745  36746  36747  0
36745  36747  36748  0
36745  36550  36549  0
36745  36549  36746  0
36549  36749  36750  0
36749  36751  36750  0
36749  36549  36554  0
36749  36554  36752  0
36749  36752  36751  0
36752  36753  36751  0
36737  36752  36736  0
36737  36754  36752  0
36736  36755  36727  0
36727  36755  36738  0
36738  36756  36739  0
36757  36758  36759  0
36758  36760  36761  0
36758  36761  36759  0
36758  36757  36760  0
36546  36742  36547  0
36743  36542  36557  0
36550  36745  36748  0
36762  36554  36553  0
36554  36762  36752  0
36752  36762  36736  0
36755  36736  36762  0
36755  36763  36738  0
36764  36738  36763  0
36738  36764  36756  0
36765  36362  36555  0
36761  36766  36759  0
36759  36563  36757  0
36562  36757  36563  0
36562  36566  36767  0
36562  36767  36757  0
36567  36767  36566  0
36768  36767  36567  0
36767  36768  36769  0
36770  36769  36768  0
36768  36547  36770  0
36742  36770  36547  0
36771  36772  36743  0
36743  36772  36773  0
36743  36557  36771  0
36548  36771  36557  0
36552  36550  36748  0
36553  36560  36762  0
36762  36560  36755  0
36763  36755  36560  0
36774  36371  36543  0
36759  36577  36563  0
36759  36766  36577  0
36775  36577  36766  0
36575  36768  36567  0
36383  36768  36575  0
36768  36383  36547  0
36771  36776  36772  0
36777  36772  36776  0
36771  36548  36778  0
36748  36779  36552  0
36780  36560  36569  0
36560  36780  36763  0
36781  36763  36780  0
36763  36781  36764  0
36371  36782  36375  0
36570  36375  36782  0
36371  36774  36782  0
36783  36555  36561  0
36555  36783  36765  0
36573  36563  36577  0
36784  36776  36785  0
36786  36785  36776  0
36784  36777  36776  0
36784  36785  36777  0
36787  36777  36785  0
36776  36771  36786  0
36778  36786  36771  0
36778  36548  36580  0
36748  36788  36779  0
36789  36779  36788  0
36779  36789  36552  0
36790  36552  36789  0
36552  36790  36568  0
36576  36568  36790  0
36576  36791  36569  0
36792  36569  36791  0
36793  36569  36792  0
36569  36793  36780  0
36794  36570  36782  0
36578  36577  36795  0
36775  36795  36577  0
36786  36796  36785  0
36797  36785  36796  0
36786  36778  36798  0
36778  36580  36798  0
36576  36799  36791  0
36571  36570  36794  0
36795  36800  36578  0
36797  36796  36801  0
36802  36801  36796  0
36796  36786  36803  0
36587  36803  36786  0
36786  36798  36587  0
36585  36587  36798  0
36583  36585  36798  0
36798  36580  36583  0
36578  36584  36582  0
36578  36800  36584  0
36591  36584  36800  0
36796  36803  36804  0
36796  36804  36802  0
36805  36802  36804  0
36803  36587  36804  0
36586  36804  36587  0
36392  36584  36591  0
36806  36805  36804  0
36804  36586  36806  0
36590  36806  36586  0
36807  36592  36591  0
36806  36590  36808  0
36809  36590  36589  0
36589  36593  36809  0
36810  36809  36593  0
36811  36207  36592  0
36593  36594  36810  0
36812  36810  36594  0
36594  36398  36812  0
36813  36812  36398  0
36596  36813  36398  0
36597  36209  36595  0
36603  36598  36399  0
36605  36220  36814  0
36607  36815  36600  0
36816  36600  36815  0
36600  36816  36601  0
36817  36602  36601  0
36818  36601  36816  0
36601  36818  36817  0
36819  36603  36604  0
36820  36604  36411  0
36821  36819  36604  0
36604  36820  36821  0
36822  36821  36820  0
36823  36403  36606  0
36403  36823  36607  0
36602  36817  36824  0
36602  36824  36608  0
36411  36412  36820  0
36825  36822  36820  0
36614  36826  36612  0
36826  36614  36608  0
36406  36608  36614  0
36826  36608  36827  0
36824  36827  36608  0
36615  36820  36412  0
36820  36615  36825  0
36828  36825  36615  0
36829  36828  36615  0
36424  36613  36620  0
36613  36424  36611  0
36829  36615  36418  0
36830  36617  36619  0
36619  36422  36830  0
36039  36618  36831  0
36039  36831  36419  0
36832  36419  36831  0
36422  36421  36833  0
36426  36832  36834  0
36426  36834  36427  0
36426  36419  36832  0
36421  36625  36833  0
36428  36835  36626  0
36624  36258  36836  0
36433  36630  36629  0
36631  36627  36837  0
36627  36427  36834  0
36627  36834  36838  0
36627  36838  36837  0
36839  36625  36633  0
36628  36840  36434  0
36434  36840  36436  0
36632  36841  36258  0
36431  36842  36435  0
36431  36432  36843  0
36431  36843  36842  0
36432  36629  36843  0
36629  36630  36844  0
36630  36631  36837  0
36630  36837  36845  0
36630  36845  36844  0
36633  36634  36839  0
36846  36635  36440  0
36846  36847  36635  0
36637  36438  36848  0
36637  36848  36849  0
36637  36849  36850  0
36438  36435  36842  0
36438  36842  36848  0
36845  36837  36851  0
36845  36851  36852  0
36837  36838  36853  0
36837  36853  36851  0
36854  36634  36638  0
36854  36638  36639  0
36854  36639  36855  0
36635  36640  36441  0
36635  36847  36856  0
36635  36856  36640  0
36636  36446  36857  0
36850  36448  36637  0
36851  36853  36852  0
36858  36639  36643  0
36858  36859  36639  0
36858  36643  36860  0
36858  36860  36859  0
36641  36640  36856  0
36641  36856  36861  0
36862  36446  36447  0
36862  36857  36446  0
36448  36863  36449  0
36643  36644  36860  0
36645  36648  36271  0
36445  36452  36864  0
36445  36864  36646  0
36453  36641  36861  0
36453  36861  36649  0
36862  36447  36651  0
36862  36651  36865  0
36652  36449  36863  0
36652  36863  36866  0
36652  36866  36867  0
36644  36451  36456  0
36644  36456  36868  0
36868  36456  36653  0
36868  36653  36869  0
36654  36655  36870  0
36654  36870  36653  0
36647  36648  36871  0
36452  36459  36872  0
36452  36872  36864  0
36651  36463  36464  0
36651  36464  36652  0
36651  36652  36867  0
36651  36867  36865  0
36459  36656  36873  0
36459  36873  36874  0
36459  36874  36872  0
36280  36650  36875  0
36280  36875  35897  0
36656  36876  36873  0
35897  36875  36657  0
36465  36660  36656  0
36656  36660  36877  0
36656  36877  36876  0
36658  36878  36472  0
36660  36470  36877  0
36468  36467  36879  0
36468  36879  36662  0
36471  36880  36659  0
36472  36878  36881  0
36472  36881  36475  0
36475  36881  36882  0
36470  36661  36883  0
36470  36883  36877  0
36471  36474  36880  0
36474  36290  36884  0
36474  36884  36880  0
36475  36882  36664  0
36661  36885  36883  0
36290  36666  36884  0
36664  36886  36668  0
36661  36665  36885  0
36668  36886  36670  0
36479  36481  36672  0
36480  36671  36887  0
36480  36887  36673  0
36673  36887  36888  0
36673  36888  36675  0
36675  36888  36889  0
36675  36676  36484  0
36675  36889  36676  0
36676  36889  36890  0
36674  36485  36891  0
36676  36890  36892  0
36676  36892  36677  0
36677  36892  36893  0
36677  36893  36679  0
36491  36678  36894  0
36491  36894  36680  0
36492  36891  36485  0
36891  36492  36895  0
36679  36893  36896  0
36685  36678  36493  0
36492  36897  36895  0
36898  36895  36897  0
36679  36896  36681  0
36685  36684  36899  0
36900  36899  36684  0
36901  36897  36492  0
36897  36901  36902  0
36897  36902  36898  0
36684  36686  36900  0
36903  36900  36686  0
36904  36312  36495  0
36492  36305  36901  0
36683  36905  36497  0
36309  36687  36686  0
36687  36903  36686  0
36906  36305  36310  0
36305  36906  36901  0
36907  36908  36909  0
36910  36909  36908  0
36689  36688  36908  0
36911  36908  36907  0
36908  36912  36689  0
36690  36689  36912  0
36908  36911  36912  0
36913  36912  36911  0
36691  36690  36912  0
36912  36913  36691  0
36914  36691  36913  0
36691  36914  36499  0
36903  36499  36914  0
36499  36903  36687  0
36310  36915  36906  0
36310  36500  36915  0
36916  36498  36497  0
36908  36688  36917  0
36908  36917  36910  0
36507  36693  36917  0
36693  36910  36917  0
36917  36688  36507  0
36694  36918  36919  0
36512  36918  36694  0
36918  36512  36696  0
36918  36696  36920  0
36921  36502  36498  0
36498  36916  36921  0
36510  36922  36693  0
36910  36693  36922  0
36923  36922  36510  0
36924  36699  36919  0
36924  36919  36925  0
36919  36699  36694  0
36695  36514  36926  0
36501  36698  36500  0
36502  36921  36927  0
36510  36511  36923  0
36928  36923  36511  0
36924  36929  36699  0
36700  36699  36929  0
36707  36926  36514  0
36697  36930  36702  0
36702  36931  36698  0
36702  36930  36931  0
36502  36927  36932  0
36502  36932  36509  0
36511  36513  36928  0
36929  36705  36700  0
36929  36933  36705  0
36934  36705  36933  0
36707  36713  36935  0
36936  36515  36509  0
36937  36517  36708  0
36709  36938  36710  0
36939  36711  36520  0
36712  36705  36934  0
36940  36515  36936  0
36520  36524  36939  0
36525  36939  36524  0
36934  36941  36712  0
36712  36941  36526  0
36722  36526  36941  0
36713  36716  36935  0
36515  36940  36715  0
36942  36708  36714  0
36714  36529  36942  0
36352  36942  36529  0
36943  36344  36715  0
36344  36943  36717  0
36944  36717  36943  0
36721  36530  36720  0
36354  36530  36721  0
36722  36945  36531  0
36946  36935  36716  0
36717  36944  36718  0
36947  36718  36944  0
36719  36724  36948  0
36949  36950  36730  0
36730  36729  36949  0
36951  36949  36729  0
36729  36733  36951  0
36531  36945  36725  0
36733  36725  36945  0
36718  36947  36723  0
36952  36723  36947  0
36723  36952  36741  0
36724  36726  36953  0
36724  36953  36948  0
36731  36730  36954  0
36950  36954  36730  0
36955  36731  36954  0
36733  36732  36725  0
36725  36732  36734  0
36725  36734  36357  0
36741  36534  36723  0
36956  36741  36952  0
36953  36726  36957  0
36726  36735  36957  0
36746  36958  36747  0
36746  36750  36959  0
36750  36746  36549  0
36750  36751  36959  0
36751  36753  36960  0
36753  36754  36960  0
36754  36955  36960  0
36955  36754  36737  0
36955  36737  36731  0
36732  36961  36734  0
36962  36740  36734  0
36362  36963  36716  0
36760  36767  36964  0
36760  36964  36965  0
36761  36760  36965  0
36741  36956  36742  0
36770  36742  36956  0
36744  36743  36966  0
36753  36752  36754  0
36739  36961  36732  0
36739  36756  36967  0
36739  36967  36961  0
36740  36962  36968  0
36740  36968  36539  0
36362  36765  36963  0
36760  36757  36767  0
36964  36767  36769  0
36769  36969  36964  0
36773  36966  36743  0
36747  36970  36748  0
36764  36971  36756  0
36756  36971  36967  0
36539  36968  36972  0
36539  36972  36543  0
36766  36761  36973  0
36766  36973  36974  0
36773  36772  36975  0
36773  36975  36976  0
36970  36977  36788  0
36970  36978  36979  0
36970  36979  36977  0
36970  36788  36748  0
36764  36781  36971  0
36543  36972  36980  0
36543  36980  36774  0
36766  36974  36981  0
36766  36981  36775  0
36772  36777  36982  0
