#!ascii file
  0.283096  -38.586571   56.308704  0
 -1.070314  -37.608128   57.108597  0
 -2.150084  -37.321579   57.586926  0
-24.147745  -35.731556   59.026661  0
  3.134533  -38.033245   54.986427  0
 -2.295355  -36.614700   56.017021  0
  2.245624  -38.341599   53.884869  0
  3.441009  -37.255898   53.916771  0
-15.311582  -34.581131   57.221825  0
-24.187233  -36.070148   56.339863  0
  0.979687  -38.448666   54.313763  0
-12.746054  -35.327419   54.229057  0
-15.288738  -33.143158   54.579052  0
-38.092087  -33.335953   53.592510  0
-35.900249  -35.147804   52.878063  0
-37.431633  -33.931107   51.625416  0
-22.770994  -35.049812   49.841137  0
-36.174240  -34.897839   51.043575  0
 -7.382678  -35.288715   48.329544  0
-36.441696  -34.507721   49.191589  0
 -8.968839  -35.348484   46.973110  0
-10.431611  -33.468731   44.016407  0
-10.381031  -34.964893   44.350384  0
-24.181442  -34.695553   46.139656  0
-22.877628  -34.259460   45.674118  0
-24.241385  -34.484367   44.410835  0
-35.557259  -34.450272   46.973671  0
-32.877254  -35.291180   45.437801  0
-35.685162  -33.691952   46.204281  0
-36.745628  -33.834549   47.906422  0
-34.113522  -34.049076   45.045902  0
-43.067337  -36.629086   45.147797  0
-42.981430  -36.360470   42.600552  0
  1.346108  -38.122669   43.526840  0
 -3.150628  -36.733604   45.398914  0
 -1.603174  -36.691391   45.206699  0
-30.558228  -35.914043   44.740868  0
  1.324911  -37.835537   41.798100  0
 -3.374671  -35.658691   44.517136  0
-22.603073  -34.869392   39.829941  0
-28.587858  -38.053543   42.201370  0
-28.006212  -36.690666   43.004288  0
-28.956133  -36.087624   44.118862  0
-32.391621  -34.340797   44.636158  0
  0.011953  -37.584175   40.632572  0
 -1.509698  -37.602489   40.093487  0
-28.508718  -37.565479   41.025875  0
 -3.480802  -36.466145   38.782547  0
-23.745327  -34.937836   38.723125  0
-25.125103  -35.725075   37.371426  0
-29.919710  -36.669945   38.808647  0
-42.138691  -35.153809   36.637272  0
 -3.788406  -35.357903   36.514854  0
-39.317295  -34.067104   34.467361  0
-41.116776  -34.149975   35.479790  0
 -3.327266  -34.843529   34.078709  0
-28.076763  -35.174107   35.166641  0
 -3.527191  -35.204407   30.917480  0
 -4.727688  -35.340908   30.051069  0
-35.517887  -35.041275   30.944223  0
-34.244202  -34.911106   29.915897  0
 -9.097878  -36.904251   29.434570  0
  2.655878  -35.672089   31.136883  0
  1.353622  -36.173920   32.168835  0
  3.083359  -35.602802   28.352966  0
 -0.276178  -35.864830   32.129051  0
-32.049820  -34.713207   25.870827  0
  3.284553  -34.933144   22.792191  0
  0.928793  -34.757252   19.596863  0
-32.233459  -34.585297   22.791691  0
-57.182659  -36.822796   25.288527  0
-55.793858  -36.297119   25.479099  0
-57.923416  -36.046852   24.954020  0
-58.311371  -36.371513   23.579203  0
 -2.065155  -34.073689   19.496866  0
-52.510342  -35.582214   24.670135  0
-58.490665  -35.478874   22.548275  0
-39.633144  -33.590607   22.181063  0
-58.081852  -35.628632   21.310122  0
-38.480537  -33.265003   22.400154  0
-49.357944  -35.195358   23.560661  0
 -3.154061  -33.988285   18.084333  0
 -3.357524  -33.943554   19.169895  0
-37.395981  -32.525242   22.175533  0
-38.842873  -32.691902   21.770290  0
-41.186764  -33.165878   21.328783  0
-46.399567  -35.845280   21.604513  0
-55.897476  -35.705391   20.096851  0
-52.226967  -34.413704   18.521509  0
-42.874493  -33.066628   19.964823  0
-51.115086  -34.974110   17.334957  0
-50.059216  -34.376087   16.411345  0
 -1.613497  -34.639248   14.209015  0
-47.272148  -34.065018   14.483916  0
 -0.722315  -35.059547   12.323503  0
 -1.416517  -34.531311   12.638664  0
 -1.710354  -34.277893   13.809988  0
-46.385254  -34.087460   13.323853  0
-57.373009  -33.421867   17.053778  0
-59.922852  -33.356911   14.778394  0
 -1.619856  -34.835323   10.635399  0
-43.729694  -33.527687   11.389482  0
-55.489594  -33.153629   15.816179  0
-49.761337  -34.702415   12.259671  0
-52.416981  -33.905346   13.753165  0
-53.696404  -33.401127   14.600415  0
-44.330307  -34.998543   10.491610  0
-59.650650  -32.735165   12.626891  0
-60.244694  -33.112286   10.243020  0
-58.062386  -35.866592    6.756127  0
 -3.009790  -34.599915    6.186783  0
 -5.471284  -37.745609    2.169969  0
 -4.015255  -35.591629    4.100361  0
-14.949767  -39.769455    4.408228  0
-44.826321  -36.150841   10.185708  0
-45.959984  -36.205837   10.333510  0
 -5.067431  -36.104343    2.169147  0
 -5.961791  -37.210522    1.324648  0
 -6.976559  -37.747192    1.289373  0
 -8.571441  -37.579407    1.681476  0
 -7.800011  -36.813339    0.955882  0
-14.782118  -39.395931    2.951412  0
-54.454937  -36.064751    5.222233  0
-11.614373  -37.804668    1.923308  0
-10.332294  -36.607525    1.666123  0
 -9.232230  -36.119083    1.381296  0
-13.733644  -38.582497    2.039840  0
-52.915905  -36.176819    3.993898  0
-15.866497  -38.847485    2.201207  0
-12.632534  -35.910698    0.854993  0
-15.518037  -37.471783    0.990469  0
-56.286057  -36.232571    3.653866  0
-58.596474  -36.250984    3.980030  0
-54.410595  -36.238838    3.673756  0
-59.977913  -36.331455    3.472624  0
-60.479649  -35.705631    1.340484  0
-15.770314  -36.227852   -0.704567  0
-56.230507  -36.002171   -0.328539  0
-59.722176  -36.196678   -0.165670  0
-26.680498  -34.943424   -2.373998  0
-28.501230  -35.146427   -2.521938  0
-54.166466  -36.068226   -1.494126  0
-29.352306  -34.998264   -3.214746  0
-29.354380  -35.446938   -3.917131  0
-41.884171  -35.718365   -3.412733  0
-40.503899  -35.904346   -3.864923  0
-44.370842  -35.729591   -3.181211  0
-55.479813  -36.721619   -2.561235  0
-50.242393  -36.373520   -5.648567  0
-52.135868  -37.442795   -6.027801  0
-28.941336  -34.770866   -4.553313  0
-28.943962  -34.516823   -5.753380  0
-40.298611  -35.006947   -5.580698  0
-30.205170  -33.891506   -7.316642  0
-30.129723  -33.531963   -8.212302  0
-21.660271  -35.137062  -12.677171  0
-22.405727  -34.143398  -11.957937  0
-23.576693  -33.441334  -11.060722  0
-25.085993  -32.844444  -10.422421  0
-26.434101  -32.927914   -9.746469  0
-21.734957  -34.709522  -13.233268  0
-40.361282  -35.131603  -13.304790  0
-40.518795  -34.533241  -11.513620  0
-22.359774  -34.389542  -13.874293  0
-23.337702  -33.968819  -14.825140  0
-41.092442  -35.222855  -14.339780  0
-25.029547  -33.755928  -16.212059  0
-26.308607  -34.850555  -16.635027  0
-27.108505  -34.651115  -16.998257  0
-30.269445  -36.073818  -17.592667  0
-28.762268  -35.143883  -17.710920  0
-31.699945  -36.599461  -17.687532  0
-34.160465  -36.573544  -18.209160  0
-32.854485  -36.062477  -18.417410  0
-43.704510  -33.964836  -16.282654  0
-35.494072  -36.213455  -18.653942  0
-37.579544  -35.914612  -18.934025  0
-44.947075  -34.426605  -17.786432  0
-39.425426  -35.769241  -19.725683  0
-40.991604  -36.100277  -20.682663  0
 -2.984903  -34.036320   69.113342  0
 -8.105487  -34.341885   68.447159  0
-10.449120  -34.409782   68.996742  0
  1.857318  -35.011211   68.834938  0
 -8.436910  -33.972885   67.752045  0
-12.625573  -34.148540   68.885315  0
  2.351492  -34.665348   67.788116  0
 -6.178366  -33.354019   67.118050  0
 -5.250218  -33.396576   68.241928  0
 -7.929514  -33.910103   66.609337  0
 -9.081140  -33.608856   67.012573  0
 -9.773249  -32.973106   67.755920  0
-13.762201  -33.123787   67.461388  0
  3.324936  -35.007954   67.191093  0
  3.019127  -34.168827   66.492805  0
 -6.688583  -33.777172   66.037483  0
 -7.454823  -34.440918   65.104744  0
 -8.236629  -34.477722   64.927834  0
 -9.093436  -32.807076   66.345001  0
-14.584707  -33.459034   65.860687  0
-14.714037  -34.075985   64.961327  0
  4.093286  -34.788776   65.706429  0
 -9.022558  -33.875725   64.990776  0
 -8.928344  -33.104977   63.942127  0
  4.376583  -33.864578   64.052551  0
 -5.283066  -33.359222   65.065300  0
 -6.522634  -33.897633   63.049274  0
 -8.050266  -33.768646   62.720188  0
  5.029199  -33.752747   62.272385  0
 -8.449715  -33.066391   61.754944  0
-13.920711  -34.250229   61.559654  0
-20.333860  -34.644142   64.303047  0
-22.452530  -33.605572   64.016548  0
-20.704401  -33.331928   62.959171  0
-24.184788  -33.198154   63.031971  0
  4.237619  -34.196335   58.777611  0
-19.196127  -33.118809   61.171196  0
-25.048981  -34.099358   61.728073  0
  3.893413  -35.590828   57.276741  0
-12.392680  -35.259319   58.242420  0
-15.999617  -34.548878   59.574184  0
-17.457552  -33.545773   59.569855  0
-16.593527  -33.353603   57.524487  0
  3.768117  -36.015644   54.441933  0
-12.210518  -35.361927   56.272243  0
 -1.642138  -36.623741   54.023048  0
 -2.850001  -36.052162   54.558529  0
-15.473686  -33.740391   56.213768  0
 -0.233809  -37.692829   53.582596  0
 -3.874535  -35.644714   53.243824  0
  2.774675  -37.735085   52.255119  0
  1.188313  -38.148220   52.704201  0
  3.745043  -35.961220   52.234779  0
-24.412327  -35.730671   54.621223  0
  1.133461  -38.021526   51.123474  0
  2.215046  -37.622871   50.294987  0
  3.432703  -36.869839   50.841053  0
 -0.694150  -37.565628   51.513248  0
 -5.242534  -35.143112   50.747059  0
  0.519943  -37.749649   49.405994  0
 -1.441061  -37.318031   48.881466  0
 -6.175052  -35.154110   49.501293  0
 -0.131790  -37.233723   48.010815  0
  2.143296  -36.858379   48.711124  0
 -2.539587  -36.763390   49.784615  0
  0.441132  -36.050014   46.787994  0
  2.878969  -35.631691   48.252136  0
-21.987669  -34.452927   48.034290  0
-22.049284  -34.062180   46.609516  0
-22.701834  -33.424427   43.717678  0
-44.219467  -35.597126   44.192181  0
-43.980137  -35.830162   47.047859  0
-23.418415  -33.975773   42.926575  0
-35.194576  -32.244225   45.902004  0
-36.534126  -32.141891   47.368587  0
-22.886353  -33.723701   41.660210  0
  1.282281  -36.805317   44.823708  0
  2.183495  -36.950241   44.034885  0
 -0.025237  -36.324486   45.057579  0
  2.040561  -35.742290   44.483658  0
-43.410061  -35.314869   39.769176  0
  3.609209  -35.780109   43.475071  0
  3.481090  -36.387032   42.709324  0
  2.214576  -37.499031   42.766022  0
-10.015416  -32.095829   40.341034  0
-10.754988  -32.618340   41.696888  0
-27.951326  -35.126308   44.050591  0
-30.011889  -34.724152   44.505283  0
-32.997314  -32.748196   44.493786  0
-33.819595  -31.689798   44.957798  0
  2.681193  -37.032578   41.233349  0
 -4.743972  -34.026863   43.501678  0
-26.852430  -34.972488   43.199078  0
-27.169092  -36.154354   41.859886  0
-43.411442  -34.709263   37.736286  0
 -1.848314  -36.480545   39.316612  0
 -9.031478  -32.633385   40.819515  0
 -7.727596  -32.727943   41.157455  0
-27.771622  -36.808750   40.790012  0
-28.471680  -36.713165   39.831131  0
-22.745434  -33.948711   39.801422  0
 -3.660928  -34.843575   36.801266  0
 -4.564599  -33.785580   33.476868  0
 -3.869113  -34.412857   31.959646  0
-28.346703  -35.046432   35.982578  0
-37.877102  -33.317867   33.180695  0
 -4.993559  -33.895752   31.056208  0
-26.154203  -35.603565   35.508926  0
-27.040344  -35.121819   34.869064  0
-36.722813  -33.576103   31.907484  0
 -5.509939  -34.455616   29.679222  0
 -6.849293  -35.177780   29.229122  0
-35.162315  -34.011326   30.883022  0
 -8.524981  -36.012573   29.196251  0
-34.023243  -34.108582   29.669565  0
  2.461358  -33.093117   30.999863  0
  1.627985  -34.409264   31.944492  0
  3.228318  -33.687454   29.028948  0
 -2.244899  -34.867008   31.550900  0
 -3.293230  -35.761356   30.420427  0
  3.363420  -34.285290   26.822399  0
 -4.358639  -35.656982   29.550213  0
 -5.389244  -34.753082   28.527905  0
 -6.407739  -35.405399   27.412498  0
 -7.818968  -35.333599   27.486170  0
  3.292939  -34.045536   25.033709  0
-32.314137  -33.965118   24.557272  0
-31.918024  -33.759537   21.781107  0
  3.105324  -34.182362   20.821772  0
-32.373043  -33.740738   20.454826  0
-57.120705  -34.934795   26.058327  0
-54.673561  -34.491756   25.563236  0
-34.023220  -33.356781   20.341942  0
-47.853828  -34.853939   22.963295  0
-57.007000  -34.859875   20.943335  0
-33.158188  -32.984741   19.242245  0
-34.907436  -32.567448   20.825205  0
-35.995476  -32.318089   21.506657  0
-37.168327  -31.571657   21.501707  0
-46.859154  -34.698891   22.170059  0
-45.910061  -34.758659   21.553194  0
-54.913662  -34.454624   19.888344  0
-41.407623  -32.713142   21.092134  0
-38.921112  -31.705370   21.381687  0
-48.282463  -33.422543   15.640092  0
-45.559448  -33.878044   12.667244  0
-43.952866  -34.021473   11.898765  0
-57.535595  -32.419159   15.644254  0
-59.072304  -32.600861   14.874735  0
 -2.178966  -34.198017    9.302005  0
-51.563549  -33.217892   13.700242  0
-53.359943  -32.564991   13.906074  0
-54.553398  -32.395584   14.241570  0
-56.138531  -32.124084   14.416961  0
-57.989506  -32.221962   13.954845  0
-48.786049  -32.995899   12.357090  0
-53.999355  -32.346832   12.485699  0
-55.436829  -32.040638   13.234472  0
-56.781708  -32.313423   13.167448  0
-58.203579  -32.152756   12.357607  0
-55.691170  -32.606594   11.425401  0
-59.629280  -32.005119   11.000277  0
 -2.489792  -33.874264    7.854856  0
-53.380447  -32.964352   10.520011  0
-54.335617  -32.420811   11.711428  0
-60.588879  -32.338642    9.319446  0
 -2.389559  -33.467896    6.797921  0
 -2.661614  -33.211292    5.415525  0
-58.219643  -34.627983    6.070409  0
-59.478291  -34.357521    6.722623  0
-60.257465  -33.407692    7.333354  0
 -4.155752  -34.341652    3.528781  0
 -5.376060  -34.829071    1.750086  0
-55.985821  -35.408726    5.582539  0
 -6.623320  -35.130981    1.002610  0
 -7.867730  -35.886166    0.763682  0
-55.116535  -35.700996    4.450045  0
 -8.119318  -34.408005    1.197722  0
 -9.983597  -34.509697    1.239583  0
-13.535464  -35.445637    0.193289  0
-56.253464  -35.347073    4.052984  0
-57.893375  -35.265926    4.032993  0
-59.710510  -35.135456    4.326200  0
-60.456451  -34.503471    3.375954  0
-53.817371  -34.844055   -0.937018  0
-58.063477  -35.804199   -0.489537  0
-54.245598  -34.894695   -2.067629  0
-28.632603  -34.565628   -2.945482  0
-45.577316  -35.447475   -4.041505  0
-21.721666  -35.258324   -6.800134  0
-47.905827  -35.317547   -4.791070  0
-55.668060  -34.314873   -3.542294  0
-56.281517  -35.832352   -3.330619  0
-29.744818  -33.627346   -5.995619  0
-39.720295  -33.934780   -6.632533  0
-31.062939  -33.010689   -6.745229  0
-31.006844  -32.833252   -7.305202  0
-40.502247  -34.387657   -9.084727  0
-29.340378  -32.714104   -8.375526  0
-27.810497  -32.011013   -9.112615  0
-25.854858  -32.028442  -10.401911  0
-26.856766  -32.246895   -9.736905  0
-26.625933  -31.439859  -10.729163  0
-40.107841  -33.610291  -10.732497  0
-23.356760  -32.986038  -12.878422  0
-24.714855  -31.978621  -12.085521  0
-39.896587  -33.206753  -12.946205  0
-40.191334  -33.718098  -13.980369  0
-24.282305  -33.035023  -15.698894  0
-25.049570  -32.598930  -16.480501  0
-26.359255  -32.600769  -17.208309  0
-28.421032  -33.152744  -17.958427  0
-29.639765  -34.628376  -18.171566  0
-31.089067  -35.425716  -18.541414  0
-42.146915  -33.944328  -15.078032  0
-41.949207  -32.222534  -15.379452  0
-30.211887  -33.922478  -18.789043  0
-31.984087  -34.402794  -19.174690  0
-33.521423  -34.894672  -19.527071  0
-34.673428  -34.591930  -19.785721  0
-45.017197  -34.116711  -19.107761  0
-35.794472  -34.358208  -19.976591  0
-38.034512  -34.780598  -19.935770  0
-38.927998  -34.389996  -20.611580  0
-41.125923  -34.796951  -21.481804  0
-44.767483  -34.924702  -20.171167  0
-42.911682  -34.866386  -21.325108  0
 -2.019193  -33.453041   68.783989  0
  0.153068  -33.596191   68.267944  0
 -2.155771  -32.814220   67.714027  0
-11.237340  -33.393410   68.699654  0
 -3.931964  -32.824398   66.841087  0
-10.634262  -32.251186   68.318237  0
-11.845130  -32.127228   68.386238  0
-12.859739  -31.849596   67.742950  0
  0.183126  -32.885609   66.138214  0
 -2.218469  -32.644043   65.266418  0
 -3.707524  -32.882019   63.816536  0
 -9.531955  -31.468182   67.968979  0
 -1.115210  -32.451221   64.900230  0
 -8.930191  -31.279188   67.281013  0
  3.242869  -33.286251   65.262360  0
  1.744323  -32.756977   65.505470  0
 -0.108930  -32.099735   65.127579  0
 -2.330626  -32.363453   63.356064  0
 -8.748397  -32.265675   64.142555  0
-14.528118  -33.736076   62.875675  0
  5.045007  -32.506710   62.946457  0
 -3.722270  -32.750580   62.090710  0
 -3.282408  -32.015640   61.204124  0
 -5.314673  -32.735500   60.277679  0
 -7.018508  -33.035675   60.147907  0
 -8.659313  -31.982132   61.438675  0
-22.605709  -32.488766   62.699100  0
  4.949084  -32.878349   60.342899  0
 -8.100443  -32.715626   60.099163  0
-13.413868  -34.335033   59.684849  0
-20.984344  -32.105701   60.982471  0
-24.022741  -31.644178   61.726753  0
-22.413393  -31.631641   61.492474  0
-25.237982  -32.972130   61.837910  0
 -6.915733  -32.089054   58.280972  0
-18.654421  -32.779411   58.738338  0
-20.271242  -32.282978   59.535400  0
-25.390778  -34.594318   60.281174  0
-26.915520  -33.061447   61.002014  0
-26.190643  -33.893871   60.797684  0
-26.045040  -32.044624   61.280289  0
  3.441270  -33.479187   55.977898  0
-13.963923  -33.628387   58.422699  0
-19.758089  -32.269188   57.046379  0
-13.376840  -34.329655   56.547836  0
-17.121962  -32.882164   56.487549  0
-25.627340  -35.422684   58.196369  0
-27.010366  -34.728642   59.630463  0
-27.695786  -34.041241   60.392818  0
-27.402412  -35.318615   58.549053  0
-29.389828  -35.257263   59.288342  0
-29.402609  -33.534748   60.197136  0
-30.983374  -34.829002   59.661999  0
-31.607428  -35.714462   58.966930  0
-32.470997  -35.018734   59.314350  0
  3.336228  -34.617367   54.331154  0
-18.912739  -32.338390   55.475372  0
-26.915531  -35.640259   57.081406  0
-30.513393  -36.133331   57.868946  0
-32.902691  -36.083416   57.968063  0
-13.897856  -34.348881   55.209633  0
-17.355083  -32.458591   54.920929  0
-26.930468  -35.570694   55.158958  0
-29.060829  -35.911709   55.699089  0
-31.877710  -36.514759   56.558868  0
-34.498539  -35.838642   56.179478  0
-34.325047  -35.697460   57.218109  0
-33.744526  -35.156734   58.385117  0
  3.469131  -35.025822   53.119743  0
 -3.466870  -35.413040   52.044678  0
-17.038807  -32.202431   53.265141  0
-25.478018  -34.926880   52.144463  0
-24.237509  -35.318737   52.588245  0
-31.362713  -36.293625   55.068695  0
-33.552711  -36.018715   55.198887  0
-35.526836  -34.813992   54.964722  0
  3.766862  -35.956844   50.466473  0
 -2.678916  -35.992035   51.489147  0
-30.461914  -35.780518   53.391613  0
-31.956335  -35.770103   53.439812  0
-14.987700  -32.856754   53.771961  0
-23.636023  -34.945389   51.137955  0
-23.403645  -34.438282   49.598759  0
  3.517688  -34.842976   48.698151  0
 -1.883083  -36.451672   46.988800  0
 -3.518599  -35.955639   47.159016  0
 -4.233241  -35.802261   48.030903  0
 -2.401058  -35.033611   46.135204  0
 -9.074603  -33.932831   45.742615  0
  1.625598  -34.044987   46.299488  0
  0.296206  -34.280323   45.812805  0
 -0.735144  -35.338917   46.135849  0
-21.944630  -33.206165   45.458401  0
-45.372093  -35.500107   49.032341  0
-46.182232  -35.461067   47.625523  0
-45.192856  -35.406544   45.482395  0
-36.173073  -31.188585   46.344162  0
-44.464172  -34.554482   41.694386  0
  3.521804  -34.337265   43.479759  0
  4.059826  -34.708004   42.759613  0
  2.174534  -34.232174   44.097118  0
  0.601774  -34.125069   44.365074  0
 -1.542736  -34.506310   44.367779  0
-22.590498  -33.219593   40.202950  0
-28.594213  -33.972191   43.999817  0
-31.592894  -32.864700   44.097813  0
  3.508081  -35.538769   39.404602  0
  4.068879  -34.854649   41.308174  0
  1.303087  -36.944302   39.619114  0
-25.928076  -35.005856   41.679596  0
-26.820415  -33.525677   42.872101  0
-25.714409  -33.946625   42.331867  0
  2.651237  -36.444389   38.798923  0
 -0.351743  -36.330093   38.823738  0
 -2.449192  -35.619419   38.292934  0
-25.068493  -34.323124   41.349655  0
-25.374573  -34.981339   39.627193  0
-26.450069  -35.532913   40.265564  0
-27.401804  -36.145752   40.131245  0
 -8.563354  -31.997631   39.795292  0
-27.730160  -35.756340   38.790993  0
-42.403618  -34.470139   35.959408  0
 -4.585709  -33.653530   34.640163  0
-28.570688  -35.531528   37.609917  0
-39.131145  -33.103508   34.394260  0
-24.601759  -34.667778   39.132530  0
-25.333721  -35.313133   37.688824  0
 -5.389112  -33.353630   30.761425  0
 -6.051059  -34.291080   29.091066  0
 -5.545691  -33.879444   29.731575  0
 -7.460312  -34.523079   28.201735  0
-33.085518  -34.026131   27.934744  0
-32.353817  -34.334274   26.315662  0
  0.067220  -33.875015   32.153046  0
  0.432455  -32.678001   31.766129  0
 -2.001988  -33.865189   31.840761  0
 -4.293769  -35.025291   30.291420  0
 -7.131311  -34.550255   27.553516  0
  3.625105  -32.270947   23.668308  0
  3.325026  -32.398705   21.025023  0
  2.375769  -33.373932   19.853775  0
-56.474319  -33.877937   26.201721  0
-58.703938  -34.566597   24.094023  0
-58.346497  -33.959560   25.458649  0
  0.507908  -32.942188   19.583282  0
 -2.792056  -32.903992   19.726013  0
-50.218369  -33.318451   24.082251  0
-32.173271  -32.735870   19.911245  0
-32.545692  -32.273712   18.756229  0
-58.172703  -34.239815   21.846746  0
-56.490025  -33.544605   21.142883  0
-36.368214  -31.693598   21.500381  0
-45.848118  -33.155796   21.313047  0
-54.176933  -32.486580   19.954012  0
-33.833855  -31.888899   18.744978  0
-34.927311  -31.318277   19.677532  0
-44.025246  -32.850204   20.199972  0
-50.502941  -32.531044   17.554152  0
-33.666401  -30.891087   18.125757  0
-40.332470  -31.385962   21.389690  0
-41.737541  -32.143616   21.180281  0
 -1.503212  -34.311699   14.398684  0
 -1.122206  -34.395988   13.284808  0
 -1.741833  -34.074703   10.240078  0
-44.037468  -32.578655   10.910386  0
-53.574898  -31.590500   15.070436  0
-54.318203  -31.609585   14.081089  0
-54.676487  -31.753147   12.469136  0
 -2.867933  -33.357357    8.678742  0
 -2.978212  -33.485039    7.519664  0
 -3.320978  -32.460400    7.370416  0
 -3.880675  -32.509117    7.578731  0
-46.760246  -33.317944   11.422385  0
-53.242405  -32.139393   10.563852  0
-57.817249  -32.224804   11.053844  0
 -2.374745  -32.589203    6.815566  0
 -4.280410  -31.286827    6.702513  0
-51.540401  -33.325478    8.171913  0
-51.453957  -32.357254    8.588666  0
-55.924717  -32.540428    9.945308  0
-58.634743  -31.595570   10.618364  0
-59.905094  -31.189314   10.202826  0
-57.859394  -31.410229    9.824739  0
 -2.273362  -31.818628    5.498360  0
-49.860443  -32.748753    7.272122  0
-49.376919  -32.185024    6.924885  0
-53.227871  -33.669998    8.399487  0
-60.837925  -31.793152    8.631598  0
-60.743542  -31.365721    9.595923  0
 -3.119665  -32.593956    3.767850  0
 -2.632681  -31.830956    4.340237  0
 -4.505136  -33.359993    2.627185  0
-49.053413  -32.854305    6.265792  0
-54.481606  -32.663506    8.050732  0
-55.852589  -31.993391    9.018250  0
-59.284374  -33.962700    5.916825  0
 -5.600981  -32.853577    2.032698  0
-49.214020  -32.922028    5.528971  0
-51.490463  -33.401089    6.878273  0
-52.511360  -33.234894    6.689905  0
-56.581379  -34.869602    4.849987  0
-58.107227  -34.376564    4.953202  0
-59.731579  -33.722305    5.679224  0
 -7.107289  -32.504028    1.645757  0
 -8.656296  -32.361767    1.350571  0
 -9.984857  -32.343689    0.895107  0
-60.300766  -33.444008    4.871354  0
-10.881251  -32.002251    0.369841  0
-60.781605  -33.649475    1.912688  0
-13.872002  -34.762333   -0.991775  0
-11.662832  -32.506050   -0.320665  0
-60.350681  -34.720909    0.250371  0
-55.425278  -33.682095   -0.601228  0
-56.860775  -34.590637   -0.480133  0
-58.923172  -34.807625   -0.570777  0
-53.586433  -33.897713   -1.918563  0
-24.068628  -35.403126   -5.685507  0
-25.971819  -35.125599   -3.703459  0
-27.428900  -34.578117   -3.102910  0
-43.617821  -35.309509   -3.599812  0
-54.308140  -33.478359   -3.089539  0
-41.452755  -35.125946   -5.006771  0
-43.371475  -35.034149   -5.115819  0
-51.884247  -36.166775   -7.169600  0
-49.812515  -35.334679   -6.186767  0
-38.964813  -32.541546   -7.947498  0
-59.026329  -36.159920   -8.887671  0
-58.827034  -37.364697   -7.644692  0
-59.274410  -36.494778   -6.745728  0
-39.609814  -33.238548   -8.901548  0
-57.916138  -37.848938   -8.647731  0
-57.434669  -37.385998  -10.059314  0
-48.990345  -36.947998  -14.555325  0
-47.663811  -36.833027  -13.555607  0
-49.542835  -37.672104  -13.501183  0
-48.423836  -37.323257  -12.435242  0
-47.780571  -35.803093  -14.682982  0
-49.370636  -37.492569  -11.692197  0
-50.527683  -37.752544  -12.433145  0
-51.984592  -37.226810  -12.079234  0
-50.925190  -36.607582  -13.671248  0
-52.579571  -36.181129  -13.200175  0
-24.409431  -32.364235  -14.581901  0
-25.447285  -31.454056  -13.334209  0
-27.493767  -30.806547  -12.363762  0
-40.055359  -32.739548  -11.348323  0
-49.868374  -36.102951  -14.436325  0
-25.387400  -31.480452  -15.759550  0
-26.672832  -30.640255  -14.597804  0
-26.559940  -31.528482  -17.128630  0
-40.278118  -32.461834  -14.088533  0
-28.614235  -31.506487  -17.639648  0
-29.513048  -32.400047  -18.487682  0
-31.054062  -32.564121  -19.143311  0
-32.769855  -33.412102  -19.779364  0
-43.454418  -31.358427  -17.372997  0
-44.488941  -32.821980  -18.062908  0
-36.891132  -33.899944  -20.276642  0
-44.200539  -33.073635  -19.798651  0
-41.526958  -33.694469  -21.661991  0
-43.122932  -33.470905  -21.077673  0
 -9.560304  -29.930653   67.849693  0
-13.525474  -31.046309   66.268036  0
 -8.337886  -30.711151   64.945114  0
-14.769982  -32.796726   64.228127  0
-14.257341  -31.632792   65.122093  0
-14.567914  -32.578407   61.768105  0
-14.225679  -31.477686   63.273994  0
  3.267081  -31.843481   64.948990  0
  5.093656  -32.210678   61.425812  0
 -2.218960  -31.771566   63.017311  0
-14.402040  -32.990726   60.337872  0
 -5.454935  -31.804060   58.984169  0
 -8.822482  -31.478199   58.623493  0
-14.624950  -32.713184   57.781494  0
-22.144096  -31.128624   59.811501  0
-23.024378  -30.519472   59.977909  0
  4.572738  -31.653248   59.359417  0
  3.829056  -32.388985   57.749935  0
 -8.204576  -32.120754   58.458046  0
-28.706869  -32.091385   60.065922  0
-21.120043  -31.602627   56.664185  0
-31.524164  -33.514004   59.343285  0
  1.999857  -31.898926   54.839951  0
  2.466604  -33.134712   53.500862  0
-14.654558  -33.296669   55.146542  0
-19.744658  -31.935968   54.415836  0
-33.626053  -33.825748   58.926319  0
-27.636604  -34.873863   52.652618  0
-35.368225  -34.520924   57.368469  0
  3.006825  -33.328747   51.699013  0
-28.995567  -35.070969   52.370258  0
-33.592751  -35.037098   53.231323  0
  3.622707  -34.302578   49.566628  0
  3.317360  -33.321663   50.483097  0
-25.282152  -34.211227   49.577862  0
-27.747572  -34.483463   50.389744  0
-30.578373  -35.380104   51.305500  0
-32.245640  -35.047279   51.213684  0
-33.504349  -34.341557   51.487278  0
-35.143925  -33.301888   52.190250  0
 -4.623466  -35.282841   49.522896  0
 -6.520176  -34.824333   47.932751  0
-15.220475  -32.006874   52.843086  0
-16.799326  -31.482864   52.023891  0
-31.419210  -34.834518   49.166302  0
-32.719906  -34.120735   49.004169  0
-29.823616  -34.739319   48.894535  0
  3.496040  -33.109596   48.016590  0
-22.349596  -33.697586   47.673473  0
-23.232224  -32.970249   47.156303  0
-47.595928  -34.328400   50.605270  0
-46.128632  -34.901115   50.905411  0
-46.609154  -34.032185   52.045387  0
  2.730484  -32.898335   46.610683  0
 -4.965312  -34.487503   45.878616  0
-44.569115  -35.813984   49.359138  0
-47.160801  -35.190235   49.470726  0
-48.909817  -34.892197   48.790306  0
-47.524117  -32.524113   51.806202  0
-48.895267  -33.550152   49.709072  0
 -3.699583  -33.904270   45.554119  0
-47.804871  -35.421844   48.193550  0
-48.870876  -35.485519   47.697701  0
-37.232605  -30.428606   47.225624  0
-38.065632  -30.613987   49.561199  0
-48.571079  -35.641289   46.370586  0
-49.860981  -35.386074   47.138653  0
-50.698257  -34.306007   47.457508  0
-46.826263  -35.296001   44.931004  0
-22.209169  -32.442120   43.056831  0
-35.210236  -31.009964   45.437714  0
-45.441078  -35.005985   43.881012  0
-45.955128  -34.210705   42.540089  0
 -2.446684  -32.849358   43.067444  0
-22.277525  -31.874025   40.860806  0
-30.512949  -32.686897   43.432430  0
-32.619869  -30.923594   43.682159  0
-31.649719  -31.704645   43.191315  0
  4.205550  -33.165936   42.524372  0
  3.042342  -32.895721   43.248268  0
  1.299112  -32.658138   43.355537  0
 -5.912766  -32.378078   41.604729  0
-10.724841  -31.268196   40.022278  0
-28.375843  -33.136337   43.141872  0
-44.782211  -33.918560   38.870457  0
  4.149087  -33.924843   40.306049  0
 -4.735756  -31.163643   40.348576  0
-24.614651  -33.417942   41.486450  0
  3.513564  -35.712917   37.059471  0
  4.015366  -34.574959   37.963276  0
  2.177498  -36.126209   36.749523  0
  0.457671  -35.826221   36.929680  0
 -2.362942  -34.480476   36.410019  0
-24.161970  -33.678074   40.433723  0
-26.225851  -35.360027   38.763844  0
-43.918747  -33.908047   36.436810  0
 -1.125763  -34.379402   35.595631  0
 -9.575500  -31.203688   38.026970  0
-22.892384  -32.771496   40.483482  0
-25.660784  -34.974583   37.769012  0
-26.957872  -34.750828   36.276352  0
 -3.970496  -33.515701   35.302895  0
-23.652138  -33.723148   40.171078  0
 -5.689255  -32.732552   32.118057  0
-34.783714  -33.457958   29.384455  0
  1.296408  -31.780127   30.860544  0
 -2.634698  -32.489964   31.643808  0
-40.753368  -34.447769   24.461437  0
-39.682205  -35.145531   24.784981  0
-40.730709  -35.246571   25.749142  0
-41.535023  -34.358200   25.033472  0
-42.136669  -34.213932   26.020409  0
-42.264820  -33.171307   25.456757  0
  3.081200  -32.559555   28.669390  0
  2.365141  -32.033096   29.547201  0
 -3.880582  -33.676468   31.297567  0
 -4.711364  -34.606197   30.295820  0
-41.195412  -33.398987   24.217638  0
-40.506096  -33.515785   23.614389  0
  3.343625  -32.441772   25.868969  0
 -6.448432  -34.287842   28.109568  0
-39.561649  -34.191109   23.444132  0
  3.677729  -31.481201   22.311272  0
-32.849091  -33.168839   21.708670  0
-57.416466  -32.714249   26.538179  0
-58.144356  -32.866840   26.228710  0
-53.385387  -32.610302   25.022203  0
-55.821159  -32.484760   25.810040  0
-58.851368  -32.653938   24.658106  0
  1.896226  -31.917303   20.192535  0
 -0.162729  -32.098324   19.851988  0
 -2.856732  -32.173862   20.070992  0
-58.789143  -33.361923   22.915615  0
-58.172634  -32.483639   22.038639  0
-56.459320  -31.992384   21.330463  0
-33.069458  -31.373440   18.497133  0
-47.889587  -32.401623   22.843729  0
 -3.097844  -32.614239   19.552820  0
-33.400322  -30.375643   17.644104  0
-52.170162  -32.734837   18.876972  0
-35.747280  -30.463322   20.185423  0
 -1.519333  -34.349350   15.590879  0
 -2.194473  -32.707039   18.647350  0
-37.137447  -30.521286   20.644638  0
-38.922924  -30.141991   20.930323  0
-43.029991  -31.971422   20.969028  0
-33.630474  -28.734537   17.257940  0
-33.302742  -28.843142   17.204508  0
-34.297684  -29.874512   18.170343  0
-46.480747  -31.707647   15.033450  0
-45.870815  -32.678722   13.383746  0
-44.988884  -32.219566   13.060670  0
-44.347607  -31.261768   12.753210  0
 -0.845465  -34.174480   11.607367  0
 -0.807795  -34.274220   12.830734  0
 -1.614315  -33.571804    9.054910  0
 -2.826599  -32.831715    8.282682  0
 -2.467383  -32.791775    7.897560  0
-52.961155  -30.551268   15.604120  0
-54.336845  -30.444506   15.810735  0
-50.460121  -31.140257   14.381496  0
-54.542458  -31.208794   15.314306  0
-55.227810  -30.639709   15.090199  0
-55.464058  -30.986359   13.598778  0
-55.323711  -30.608372   12.213689  0
 -4.448837  -32.071629    7.421959  0
 -6.192042  -30.564493    6.680137  0
-45.114513  -32.035179   11.039868  0
-52.422119  -30.909298    8.656426  0
 -2.731614  -31.349483    6.174671  0
 -5.207891  -30.308256    6.423055  0
 -6.299048  -29.962620    5.958988  0
-50.825027  -31.392818    7.647415  0
 -3.226148  -30.355930    4.694898  0
 -3.904074  -30.110865    5.785392  0
-48.966148  -31.249960    6.435352  0
-56.418636  -30.830534    8.430983  0
-58.950340  -30.538275    9.933377  0
-60.257046  -30.596504    9.861431  0
-47.648956  -31.863867    5.077133  0
-47.499302  -30.898050    5.030038  0
-60.517147  -31.804911    6.728939  0
-60.554348  -30.260611    8.749033  0
 -3.814029  -31.573616    3.004987  0
-16.768841  -29.080696    3.996485  0
-15.045814  -28.848747    5.453027  0
-14.693800  -29.037886    4.270107  0
-17.730215  -29.541656    4.800739  0
-17.167322  -29.530577    5.147172  0
-19.070324  -29.785835    4.388263  0
-18.581409  -29.866442    4.754164  0
-20.164083  -31.750481    5.052762  0
-20.769482  -31.994061    4.006859  0
-20.191980  -32.085865    4.638342  0
-53.449047  -32.279930    5.802946  0
-54.613411  -31.412230    6.568968  0
-60.683758  -30.278606    7.503370  0
 -5.872091  -30.766804    2.461483  0
 -8.043309  -30.577141    1.809429  0
-20.395889  -29.553282    3.572636  0
-22.494663  -31.563122    2.953532  0
-47.718674  -31.685162    3.923853  0
-49.740253  -32.438946    4.334086  0
-52.585976  -31.932812    4.641050  0
-55.802448  -30.042067    7.191282  0
-60.959564  -29.770128    6.369885  0
 -9.801225  -30.616037    1.113225  0
-21.864647  -31.699020    2.692310  0
-61.149269  -30.618435    4.461485  0
-21.305172  -29.099600    2.535181  0
-12.322854  -33.369946   -1.210446  0
-54.118179  -32.759109   -1.182660  0
-57.859455  -33.626129   -0.976012  0
-59.820080  -33.700043   -0.751716  0
-60.768551  -32.744328    0.627946  0
-53.598286  -32.632172   -2.233140  0
-53.565639  -32.019226   -3.492485  0
-22.122828  -34.972561   -7.361588  0
-27.677174  -34.967743   -4.762344  0
-42.362186  -34.658455   -5.567725  0
-45.368034  -35.266312   -5.302049  0
-29.063814  -33.787529   -5.931159  0
-40.171761  -33.234020   -6.540321  0
-47.937737  -35.062649   -5.755303  0
-51.160908  -35.449368   -7.838207  0
-49.382389  -35.311153   -7.062473  0
-30.794584  -32.622536   -6.680531  0
-58.816185  -33.913055   -5.725956  0
-57.912117  -35.250576   -4.685691  0
-56.523514  -33.009590   -5.136389  0
-59.304409  -35.291916   -6.005774  0
-59.585423  -34.428379   -7.833048  0
-55.956154  -38.041836   -9.009627  0
-54.864216  -37.053513  -10.239720  0
-59.597191  -33.855381   -9.574896  0
-57.202446  -36.999359  -11.492540  0
-56.038715  -37.177429  -12.065791  0
-54.566811  -37.218540  -11.683361  0
-53.209625  -36.565727   -9.941800  0
-58.662045  -35.526566  -11.108797  0
-59.106262  -33.392864  -11.746366  0
-29.653564  -31.701223   -7.325588  0
-39.750713  -32.391102   -9.814543  0
-46.386276  -36.143394  -11.601315  0
-46.035778  -35.838371  -13.308885  0
-47.586533  -36.398064   -9.633589  0
-49.104023  -36.391529   -8.965609  0
-50.986637  -37.126625  -10.733452  0
-50.490532  -36.150753   -8.978917  0
-52.380650  -36.936008  -10.485423  0
-53.321770  -37.160965  -11.063948  0
-57.440708  -35.667942  -12.632392  0
-55.524994  -36.613041  -12.676478  0
-58.536564  -34.864044  -12.259636  0
-28.574589  -31.416716   -8.520798  0
-28.278467  -30.814058  -10.058764  0
-45.673286  -34.819538  -14.314783  0
-44.816090  -34.685837  -12.462297  0
-46.725796  -35.941605  -14.195383  0
-53.870476  -36.848263  -12.523542  0
-55.928967  -35.423470  -13.366971  0
-56.949192  -34.168419  -13.652469  0
-58.127975  -33.585514  -12.996775  0
-39.979259  -31.490828  -10.389292  0
-48.717079  -35.068272  -14.939382  0
-49.577415  -33.995781  -14.625773  0
-50.693783  -34.364815  -13.627223  0
-52.157909  -34.800850  -13.419514  0
-54.753960  -34.179707  -13.869223  0
-28.292583  -30.209499  -14.241467  0
-40.082275  -31.262760  -11.729435  0
-26.505226  -30.853937  -16.083641  0
-28.119328  -30.566494  -16.122850  0
-29.568363  -30.399227  -15.002299  0
-30.035879  -30.646290  -16.599260  0
-31.057875  -30.421995  -15.408070  0
-30.624281  -31.226879  -18.099174  0
-31.746883  -30.779480  -17.430786  0
-40.281551  -31.367525  -13.939061  0
-32.335358  -32.024841  -19.171410  0
-34.136639  -33.090595  -20.179899  0
-37.275417  -32.908806  -20.441116  0
-39.907024  -33.133087  -21.319416  0
-43.958370  -31.283920  -18.870352  0
-43.505829  -31.613350  -20.265398  0
-34.481422  -32.001038  -19.804468  0
-38.222691  -32.165348  -20.591713  0
-41.866653  -32.329998  -21.548958  0
-10.072208  -29.091711   67.791901  0
-11.426044  -30.166447   67.718895  0
 -8.696775  -29.273809   66.634689  0
-12.254313  -29.553383   66.643875  0
 -8.301204  -29.353199   64.998222  0
-13.133906  -30.051050   65.325912  0
  4.091698  -30.790068   64.120132  0
  4.780072  -30.930180   62.503391  0
  1.537178  -31.578060   65.603470  0
 -8.400304  -29.827559   62.274334  0
 -8.525638  -29.480942   60.100101  0
-14.197531  -31.016888   61.634369  0
-14.770844  -31.403458   59.787632  0
-24.968208  -30.318205   59.731564  0
-26.522381  -31.021864   60.281242  0
  3.678417  -30.996132   58.460411  0
  3.086102  -31.299662   57.283390  0
 -5.226011  -31.229038   59.431744  0
 -7.523043  -30.681038   56.703159  0
 -8.074449  -31.174421   57.245140  0
-23.036386  -30.272781   57.985065  0
  2.395778  -31.317205   56.006226  0
-29.007492  -30.925594   58.691090  0
-30.920820  -31.836794   58.509964  0
  1.223582  -31.508999   53.740330  0
-22.406931  -30.551720   55.807442  0
-30.204060  -30.961998   57.846020  0
-32.496941  -32.283333   58.562943  0
-14.744320  -32.151150   54.840538  0
-14.858840  -32.146076   56.380917  0
-21.402637  -31.151606   54.773544  0
-34.080040  -32.597916   58.695923  0
-36.065208  -32.923019   58.033985  0
-36.831799  -33.248798   56.656021  0
-36.510761  -34.005398   55.817032  0
-36.943951  -33.094620   54.528313  0
  1.347191  -31.457878   52.369133  0
-14.549179  -31.864693   53.785732  0
-20.321161  -31.284866   53.490189  0
-18.662455  -31.667067   52.765606  0
-36.763161  -31.847626   52.720585  0
  2.477870  -31.330339   50.399986  0
-19.324965  -31.054785   52.700733  0
-34.547287  -32.554226   49.245667  0
-36.159218  -31.555376   51.275883  0
  3.381775  -32.272263   49.323635  0
-15.330311  -31.121168   51.797573  0
-27.179361  -34.059338   47.963970  0
-25.803364  -33.934284   48.585300  0
-30.542238  -34.040657   47.158409  0
-31.782402  -33.975876   47.412731  0
-32.655006  -33.170528   47.205864  0
-33.212582  -31.985966   46.560486  0
-46.555752  -31.297249   53.749470  0
-47.583652  -30.987438   52.019566  0
 -5.826729  -34.758183   46.707760  0
 -7.407469  -33.968918   45.944107  0
-24.633608  -33.127808   47.515785  0
-28.200565  -33.675552   46.836849  0
-31.153278  -32.696701   45.573860  0
-48.901863  -31.645838   50.212685  0
  1.559960  -32.167995   45.220772  0
 -5.110589  -33.454315   44.999287  0
-39.023399  -29.259470   49.367199  0
  0.023130  -32.257133   44.937588  0
 -2.304473  -32.069752   44.887833  0
 -4.016273  -32.288853   44.865414  0
-22.292826  -32.284195   44.896072  0
-50.564846  -31.087324   48.652126  0
 -9.991562  -31.985443   43.028538  0
-36.979942  -30.142542   45.379177  0
-50.543232  -35.469524   45.620968  0
-51.691860  -34.711937   45.902454  0
-51.868263  -33.397163   46.706902  0
-48.268963  -35.366405   44.123600  0
-49.507343  -35.641922   44.664536  0
-52.684620  -34.304207   44.426876  0
-53.019650  -31.899807   44.972061  0
-10.614934  -31.394930   41.746521  0
-36.235710  -30.013702   44.540653  0
-47.272232  -34.182693   42.121693  0
-50.147564  -35.360432   43.371399  0
-48.528103  -34.899654   42.673508  0
-51.923149  -35.219822   43.909126  0
-46.213608  -33.710426   40.950909  0
-33.708801  -30.269934   44.179199  0
 -0.976453  -31.748358   42.034573  0
-27.227354  -32.186813   41.633823  0
-29.488400  -32.434761   42.303417  0
-30.905329  -31.511658   41.349304  0
-32.181469  -30.391563   41.404118  0
  4.153876  -32.100792   41.575943  0
  3.107324  -31.220638   42.687683  0
  1.129478  -30.959524   42.278389  0
-25.547523  -32.592411   41.752071  0
-29.070326  -32.013790   41.284153  0
  4.061194  -32.841629   39.537716  0
 -7.114079  -31.334126   39.331966  0
-10.827230  -30.417324   37.857304  0
-24.377033  -32.398632   40.728504  0
-28.727419  -31.194464   40.076748  0
  3.972293  -34.569118   36.093349  0
  4.021349  -33.364357   37.329224  0
  3.097650  -35.037243   35.135380  0
  0.927482  -34.864536   35.005871  0
-23.879141  -32.485680   40.442898  0
-41.010483  -33.076328   35.014778  0
  2.206743  -34.438946   34.229729  0
 -3.326371  -32.750931   34.523674  0
-39.990139  -32.052822   33.968460  0
 -4.765136  -32.330364   33.824352  0
 -5.434988  -32.320465   33.039818  0
-38.574467  -32.335258   33.543388  0
 -5.889896  -32.753479   31.065048  0
 -5.605915  -32.446251   31.025957  0
-36.862442  -33.031273   31.016306  0
-38.379124  -34.683762   28.928446  0
-38.518246  -35.253128   27.252802  0
-37.229504  -34.455585   28.421112  0
-39.405235  -34.930916   29.178268  0
-41.510300  -35.171112   29.130596  0
-40.166706  -35.070263   29.271040  0
-42.577770  -34.578205   27.260809  0
  0.018656  -31.252365   30.921198  0
 -1.282803  -31.619881   31.461164  0
-33.537132  -34.044743   26.191898  0
-35.277203  -34.296951   26.907581  0
-35.924206  -34.066879   28.037292  0
-36.461021  -34.833282   26.550148  0
-37.568172  -35.064590   25.296713  0
  2.824560  -31.360662   27.238850  0
  1.011608  -30.801918   28.685684  0
 -4.888622  -33.612831   30.681873  0
-34.707787  -34.362782   24.949255  0
-36.137016  -34.567135   24.563040  0
-37.719040  -33.967869   23.036156  0
-41.335060  -31.259331   24.478064  0
-42.130123  -31.473059   24.652521  0
  3.440145  -30.681602   25.595560  0
-34.027657  -33.977406   23.997490  0
-35.144699  -33.675152   22.879427  0
-36.489944  -33.674301   22.818426  0
-38.865528  -33.069111   22.833839  0
-39.485569  -32.621925   23.317230  0
  3.873533  -30.386595   24.033669  0
-33.788578  -33.575584   22.867981  0
-36.887249  -32.543808   22.291327  0
-37.298428  -31.634834   22.405624  0
  3.558689  -30.624090   23.160984  0
-34.410000  -32.657661   21.214733  0
-35.775040  -32.197464   21.509518  0
  2.724754  -30.152121   21.674932  0
  2.277538  -30.760399   20.826143  0
-55.543903  -31.524698   25.663536  0
  0.968167  -30.924520   20.570822  0
 -0.509094  -31.610956   20.625050  0
 -2.246889  -31.709208   20.639109  0
-33.619911  -32.042782   19.586058  0
-50.801884  -30.767570   24.484524  0
-53.440819  -31.317366   25.144712  0
-49.332130  -31.635710   23.788631  0
-59.089581  -31.685736   23.581841  0
 -3.398015  -32.026875   20.311634  0
-46.820686  -31.779818   22.352730  0
-52.270248  -30.611488   19.128538  0
-45.294258  -31.447481   21.933500  0
-50.446762  -30.858236   17.909819  0
-48.701218  -31.147717   16.945978  0
 -1.102509  -33.847820   16.237253  0
 -0.411659  -32.838673   16.952980  0
-36.068672  -29.374941   19.619192  0
-40.684620  -30.091219   21.471598  0
-42.280235  -30.684923   21.834852  0
 -0.118784  -33.891434   15.166916  0
-34.890461  -29.258547   18.918945  0
-33.985935  -28.811216   17.733416  0
 -0.382450  -34.414639   13.698559  0
  0.066863  -34.272953   12.913733  0
-32.881439  -28.009909   17.032539  0
-45.327213  -31.356951   14.078433  0
-55.030075  -29.641182   15.922212  0
-53.417580  -29.291977   15.830658  0
-55.927837  -29.572231   14.736218  0
-51.367233  -29.627382   15.149452  0
-49.407879  -30.379930   14.067638  0
-47.393749  -31.148727   12.840840  0
 -6.418321  -30.579016    7.009840  0
-46.192425  -31.505747   11.854625  0
-54.395531  -30.351269   10.643333  0
 -7.835306  -29.904186    6.475862  0
 -8.344076  -29.545376    5.364149  0
-10.510482  -29.331528    5.479685  0
-10.216889  -29.325460    6.363410  0
-12.829247  -28.850309    5.945956  0
 -5.525833  -29.573833    5.331812  0
-13.508995  -28.849197    4.701931  0
-16.942389  -29.218166    5.425679  0
-49.738853  -30.222548    6.191104  0
 -5.045663  -29.486155    4.337682  0
 -7.657597  -29.188677    4.291061  0
-10.673978  -29.032480    4.473748  0
-18.937529  -31.070765    6.140544  0
-19.350510  -31.428282    5.728467  0
-19.326525  -30.707504    6.245557  0
-48.023003  -30.383654    5.209453  0
-59.039421  -29.746689    9.226808  0
-21.021357  -30.762014    4.709622  0
-46.649464  -29.877344    3.857195  0
-57.414055  -29.437216    8.101775  0
-58.787323  -29.047281    8.786687  0
-59.628345  -29.494093    8.607343  0
-60.452259  -29.346268    8.470384  0
-59.193733  -28.675034    8.148143  0
-60.571114  -28.940920    7.603790  0
 -5.129828  -29.895523    3.265302  0
 -7.391189  -29.294136    3.084723  0
-54.065247  -30.645555    4.898346  0
-57.070480  -28.488554    7.200185  0
 -9.116570  -29.503077    2.176823  0
-10.320518  -29.474318    1.474521  0
-46.562450  -29.895460    3.106814  0
-48.596481  -31.278999    2.934843  0
-50.075371  -31.360828    3.165092  0
-55.460567  -29.313747    6.008336  0
-10.740294  -29.836983    0.271771  0
-19.048494  -28.610653    3.529971  0
-21.903038  -29.512762    1.930092  0
-23.011244  -31.334291    1.627133  0
-47.334999  -30.068653    2.606135  0
-52.536148  -30.131985    3.309642  0
-10.762497  -30.587952   -0.182808  0
-10.755341  -31.819925   -1.132839  0
-20.632462  -28.160234    2.785647  0
-22.654810  -29.281410    1.335407  0
-23.491003  -30.960848    0.742346  0
-23.894133  -30.845400    0.713293  0
-61.268814  -30.046856    2.625703  0
-10.861792  -30.134275   -0.450390  0
-21.968397  -28.409702    1.316293  0
-23.322147  -28.787247    0.496960  0
-55.873997  -31.522333   -1.595760  0
-56.906441  -32.318722   -1.217548  0
-58.971378  -32.534615   -1.349542  0
-60.346619  -32.315651   -0.621712  0
-12.028235  -33.692173   -1.922363  0
-10.210955  -33.067371   -1.755820  0
-54.350521  -31.212139   -2.129181  0
-10.786840  -33.417988   -2.260387  0
-13.322462  -34.424156   -1.979265  0
-53.519863  -31.070547   -3.022718  0
-12.019773  -33.437119   -2.497931  0
-23.277773  -35.234810   -7.787729  0
-25.126883  -35.318859   -7.264833  0
-26.564795  -35.166161   -5.953000  0
-28.283480  -34.557426   -5.505382  0
-41.416008  -33.325985   -6.537625  0
-20.609991  -34.707230   -8.607527  0
-22.535164  -34.883869   -8.764873  0
-27.291697  -34.670670   -6.278378  0
-26.818840  -34.560787   -7.150869  0
-24.650629  -34.943924   -8.418962  0
-39.098675  -31.624956   -7.479730  0
-42.490799  -33.299637   -7.228951  0
-44.092495  -34.717010   -6.935575  0
-45.556965  -35.407360   -8.307951  0
-46.542717  -35.493801   -7.034502  0
-47.959393  -35.498158   -7.190585  0
-43.320381  -33.720440   -8.365973  0
-53.885525  -31.503355   -4.815260  0
-55.213531  -31.363401   -5.816761  0
-58.539574  -32.567810   -6.369588  0
-59.428856  -33.097790   -6.977806  0
-57.074841  -31.569380   -6.691963  0
-44.888145  -34.933640  -10.267199  0
-52.072945  -35.778000   -9.108778  0
-59.766132  -32.623348   -8.590547  0
-58.986015  -31.203833   -8.300061  0
-43.531635  -33.391666  -11.295409  0
-42.474827  -32.851048   -9.944523  0
-59.435497  -31.829075  -10.065881  0
-28.726706  -30.540226   -8.780714  0
-29.232433  -30.245625   -8.168913  0
-39.268311  -30.037928   -9.659480  0
-44.534706  -33.513466  -13.613935  0
-59.222427  -31.297377  -11.422323  0
-50.274445  -32.519444  -13.735003  0
-51.685631  -32.700722  -13.204365  0
-49.637455  -31.962961  -14.792563  0
-58.859482  -31.878689  -12.267771  0
-29.151018  -30.429541  -12.608853  0
-29.096498  -30.272396  -10.768461  0
-45.853230  -33.461590  -15.131329  0
-47.401539  -32.848911  -15.629096  0
-48.490723  -31.783794  -15.595592  0
-53.649021  -32.171635  -13.394276  0
-54.880611  -32.930698  -13.935635  0
-56.452671  -32.380028  -13.698244  0
-30.118998  -30.143219  -12.482753  0
-31.224472  -30.056292  -13.631947  0
-40.281189  -29.055794  -12.897838  0
-31.955103  -29.877808  -14.573225  0
-40.605888  -29.218847  -14.200380  0
-32.488075  -30.213627  -16.567423  0
-41.347706  -30.113804  -15.265577  0
-43.676846  -29.680883  -18.358309  0
-33.371681  -30.917505  -18.579794  0
