#!ascii file
7737  7736  7729  0
7384  7391  7730  0
7738  7387  7388  0
7388  7731  7738  0
7739  7738  7731  0
7731  7732  7739  0
7740  7739  7732  0
7741  7740  7732  0
7389  7055  7733  0
7742  7391  7387  0
7387  7738  7742  0
7743  7742  7738  0
7738  7739  7743  0
7744  7743  7739  0
7733  7055  7057  0
7056  7745  7058  0
7393  7058  7745  0
7745  7746  7397  0
7395  7745  7397  0
7745  7395  7393  0
7746  7398  7397  0
7398  7747  7399  0
7396  6527  7748  0
6527  7068  7748  0
7749  7066  7399  0
7404  7400  7750  0
7751  7750  7752  0
7750  7400  7752  0
7753  7752  7400  0
7750  7754  7404  0
7750  7751  7754  0
7755  7754  7751  0
7754  7756  7404  0
7407  7404  7756  0
7754  7755  7756  0
7757  7756  7755  0
7756  7757  7407  0
7410  7407  7757  0
7066  7749  6790  0
7420  6790  7749  0
7758  7759  7760  0
7761  7758  7760  0
7762  7758  7763  0
7758  7761  7763  0
7764  7762  7763  0
7765  7764  7763  0
7402  7766  7400  0
7753  7400  7766  0
7767  7766  7402  0
7768  7408  7410  0
7769  7408  7768  0
7408  7769  7412  0
7770  7412  7769  0
7771  7422  7772  0
7773  7772  7422  0
7423  7422  7774  0
7422  7771  7774  0
7775  7774  7771  0
7425  7423  7774  0
7774  7759  7425  0
7774  7775  7759  0
7426  7425  7759  0
7759  7758  7426  0
7427  7426  7758  0
7758  7762  7427  0
7429  7427  7762  0
7762  7764  7429  0
7414  7429  7764  0
7764  7413  7414  0
7764  7765  7413  0
7776  7413  7765  0
7413  7776  7415  0
7777  7416  7415  0
7402  7401  7767  0
7778  7767  7401  0
7401  7418  7778  0
7779  7778  7418  0
7418  7409  7430  0
7418  7430  7779  0
7072  6795  7780  0
7072  7780  7781  0
7072  7781  7421  0
7421  7781  7773  0
7421  7773  7422  0
7417  7433  7071  0
7417  7416  7782  0
7417  7782  7433  0
7430  7412  7783  0
7412  7770  7783  0
7078  7420  7780  0
7078  7780  6795  0
7784  7785  7786  0
7433  7782  7787  0
7433  7787  7432  0
7788  7436  7437  0
7436  7431  7434  0
7436  7788  7789  0
7436  7789  7431  0
7431  7789  7419  0
7790  7791  7792  0
7790  7792  7439  0
7790  7439  7786  0
7786  7439  7441  0
7786  7441  7784  0
7784  7441  7793  0
7442  7435  7432  0
7442  7432  7787  0
7442  7787  7794  0
7437  7438  7795  0
7793  7441  7796  0
7796  7797  7793  0
7087  7442  7093  0
7442  7798  7093  0
7439  7792  7440  0
7441  7799  7796  0
7796  7799  7800  0
7796  7800  7801  0
7093  7802  7092  0
7093  7798  7802  0
7440  7803  7441  0
7441  7803  7799  0
7799  7804  7800  0
7800  7804  7805  0
7092  7802  7806  0
7092  7806  7444  0
7447  7443  6563  0
7447  7807  7443  0
7095  7808  6815  0
7799  7809  7804  0
7452  7444  7806  0
7452  7806  7810  0
7445  7811  7446  0
7807  7107  7446  0
7107  7807  7447  0
7448  7808  7095  0
7449  7812  7110  0
7449  7099  7455  0
7101  7452  7456  0
7456  7452  7813  0
7810  7813  7452  0
7814  7456  7813  0
7445  7453  7815  0
7457  7815  7453  0
7815  7457  7816  0
7817  7816  7457  0
6815  7458  6825  0
7459  7448  7109  0
7818  7110  7812  0
7454  7450  7819  0
7820  7819  7450  0
7450  7451  7820  0
7451  7456  7820  0
7814  7820  7456  0
7457  7462  7817  0
7821  7817  7462  0
7460  7448  7459  0
7110  7818  7465  0
7464  7822  7460  0
7823  7462  7466  0
7462  7823  7821  0
7824  7821  7823  0
6838  6835  7825  0
7464  6829  7826  0
7119  7826  6829  0
7465  7827  7114  0
7467  7114  7827  0
7471  7120  7467  0
7469  6838  7828  0
7825  7828  6838  0
7829  7825  6835  0
7118  7830  7121  0
7470  7826  7119  0
7476  7467  7831  0
7467  7475  7471  0
7467  7476  7475  0
7466  7832  7823  0
7466  7473  7832  0
7477  7126  7469  0
6835  7117  7474  0
6835  7474  7829  0
7121  7830  7478  0
7826  7470  7833  0
7476  7834  7835  0
7476  7835  7480  0
7473  7836  7832  0
7474  7486  7837  0
7474  7837  7829  0
7481  7480  7835  0
7481  7835  7838  0
7481  7838  7839  0
7481  7839  7482  0
7472  7840  7473  0
7472  7483  7840  0
7484  7841  7492  0
7133  7477  7484  0
7486  7485  7842  0
7486  7842  7843  0
7486  7843  7837  0
7479  7478  7844  0
7479  7844  7487  0
7470  7488  7845  0
7488  7489  7846  0
7489  7482  7839  0
7489  7839  7846  0
7490  7847  7848  0
7490  7848  7483  0
7483  7848  7840  0
7849  7496  7493  0
7849  7493  7841  0
7849  7850  7496  0
7493  7492  7841  0
7842  7485  7498  0
7487  7851  7494  0
7852  7135  7138  0
7852  7138  7853  0
7135  7852  7490  0
7495  7496  7850  0
7495  7850  7497  0
7500  7854  7842  0
7500  7842  7498  0
7500  7499  7855  0
7500  7855  7854  0
7138  7145  7505  0
7138  7505  7853  0
7146  7497  7856  0
7146  7856  7501  0
7857  7855  7858  0
7857  7859  7855  0
7855  7499  7502  0
7855  7502  7858  0
7504  7503  7860  0
7504  7860  7861  0
7504  7861  7862  0
7503  7144  7863  0
7503  7863  7860  0
7144  7494  7863  0
7505  7501  7864  0
7858  7865  7857  0
7858  7502  7866  0
7858  7866  7865  0
7502  7148  7867  0
7502  7867  7866  0
7148  7506  7867  0
7506  7507  7868  0
7506  7868  7869  0
7506  7869  7867  0
7507  7504  7862  0
7865  7866  7870  0
7866  7867  7871  0
7866  7871  7870  0
7867  7869  7871  0
7872  7873  7874  0
7872  7874  7875  0
7875  7874  7876  0
7875  7876  7877  0
7877  7876  7878  0
7878  7876  7879  0
7878  7879  7880  0
7880  7879  7881  0
7882  7883  7872  0
7872  7875  7884  0
7872  7884  7882  0
7875  7877  7884  0
7877  7878  7885  0
7877  7885  7884  0
7878  7880  7886  0
7878  7886  7885  0
7880  7881  7887  0
7880  7887  7886  0
7508  7888  7151  0
7509  7151  7888  0
7509  7889  7152  0
7510  7152  7889  0
7884  7890  7882  0
7891  7882  7890  0
7884  7885  7890  0
7892  7890  7885  0
7885  7886  7892  0
7516  7892  7886  0
7886  7887  7516  0
7517  7516  7887  0
7887  7881  7517  0
7893  7517  7881  0
7519  7517  7893  0
7894  7519  7893  0
7508  7511  7895  0
7896  7510  7889  0
7510  7896  7153  0
7512  7153  7896  0
7897  7891  7890  0
7890  7892  7898  0
7890  7898  7897  0
7892  7516  7898  0
7518  7898  7516  0
7519  7894  7160  0
7899  7160  7894  0
7900  7160  7899  0
7901  7897  7898  0
7898  7518  7901  0
7160  7900  7524  0
7902  7511  7166  0
7164  7159  7903  0
7522  7903  7159  0
7520  7904  7523  0
7905  7523  7904  0
7906  7525  7524  0
7902  7166  7169  0
7906  7907  7525  0
7169  7908  7902  0
7909  7902  7908  0
7903  7172  7164  0
7910  7176  7172  0
7172  7903  7910  0
7522  7528  7903  0
7523  7911  7527  0
7178  7527  7911  0
7912  7913  7907  0
7169  7529  7908  0
7914  7535  7176  0
7176  7910  7914  0
7530  7178  7911  0
7912  7915  7913  0
7533  7916  7529  0
7536  7535  7537  0
7917  7537  7535  0
7535  7914  7918  0
7535  7918  7917  0
7528  7538  7919  0
7528  7919  7920  0
7530  7921  7922  0
7530  7922  7531  0
7539  7923  7924  0
7539  7924  7541  0
7541  7924  7533  0
7541  7533  7532  0
7537  7917  7925  0
7537  7925  7926  0
7537  7926  7544  0
7531  7922  7927  0
7531  7927  7185  0
7539  7928  7923  0
7539  7540  7929  0
7539  7929  7928  0
7540  7542  7929  0
7542  7930  7929  0
7542  7544  7930  0
7544  7926  7931  0
7544  7931  7932  0
7544  7932  7930  0
7929  7930  7933  0
6890  7548  7545  0
7548  6892  7549  0
7934  7186  7550  0
7187  7935  7188  0
7935  7553  7188  0
7551  7552  7936  0
7551  7936  7550  0
7553  7559  7195  0
7203  7554  7937  0
7203  7937  7555  0
7552  7557  7938  0
7552  7938  7936  0
7559  7939  7558  0
7554  7561  7940  0
7554  7940  7937  0
7555  7937  7562  0
7555  7562  7221  0
7939  7559  7941  0
7558  7939  7565  0
7560  7565  7566  0
7561  7567  7942  0
7561  7942  7940  0
7937  7940  7943  0
7937  7943  7562  0
7562  7943  7944  0
7562  7944  7568  0
7563  7571  7569  0
7564  7945  7557  0
7939  7941  7946  0
7939  7946  7565  0
7565  7946  7947  0
7565  7947  7566  0
7948  7568  7944  0
7568  7949  7570  0
7568  7948  7949  0
7950  7236  7243  0
7236  7950  7563  0
7571  7563  7950  0
7951  7227  7566  0
7567  7251  7942  0
7952  7942  7251  0
7953  7570  7949  0
7949  7948  7953  0
7243  7575  7950  0
7950  7575  7571  0
7244  7571  7575  0
7576  7945  7564  0
7239  7578  7954  0
7955  7578  7227  0
7227  7951  7955  0
7251  7585  7952  0
7956  7952  7585  0
7570  7953  7580  0
7957  7576  7583  0
7958  7577  7572  0
7573  7958  7572  0
7585  7959  7956  0
7960  7956  7959  0
7591  7579  7580  0
7961  7591  7580  0
7962  7957  7583  0
7577  7587  7256  0
7573  7584  7963  0
7585  7590  7959  0
7964  7959  7590  0
7959  7964  7960  0
7965  7960  7964  0
7591  7961  7966  0
7967  7593  7586  0
7968  7586  7592  0
7593  7967  7594  0
7969  7594  7967  0
7594  7969  7278  0
7603  7962  7583  0
7583  7272  7603  0
7601  7603  7272  0
7272  7588  7601  0
7970  7588  7587  0
7590  7599  7964  0
7971  7964  7599  0
7964  7971  7965  0
7972  7965  7971  0
7603  7278  7962  0
7973  7962  7278  0
7601  7588  7605  0
7974  7588  7970  0
7596  7606  7597  0
7975  7597  7606  0
7597  7975  7607  0
7591  7966  7275  0
7600  7976  7592  0
7974  7605  7588  0
7610  7611  7606  0
7607  7977  7608  0
7607  7975  7978  0
7607  7978  7977  0
7608  7977  7609  0
7609  7979  7980  0
7609  7980  7612  0
7609  7977  7979  0
7599  7617  7981  0
7599  7981  7971  0
7971  7981  7982  0
7971  7982  7972  0
7275  7966  7983  0
7614  7984  7600  0
7600  7984  7976  0
7605  7974  7293  0
7605  7293  7291  0
7974  7970  7293  0
7970  7292  7293  0
7970  7985  7618  0
7970  7618  7292  0
7985  7963  7294  0
7985  7294  7618  0
7294  7986  7619  0
7294  7963  7987  0
7294  7987  7986  0
7611  7615  7988  0
7611  7988  7606  0
7606  7988  7989  0
7606  7989  7975  0
7975  7989  7978  0
7980  7990  7612  0
7612  7990  7991  0
7612  7991  7613  0
7613  7991  7622  0
7613  7622  7280  0
7277  7616  7617  0
7275  7983  7614  0
7614  7983  7984  0
7294  7619  7295  0
7990  7992  7991  0
7993  7630  7629  0
7993  7629  7620  0
7993  7994  7630  0
7620  7629  7624  0
7615  7626  7995  0
7615  7995  7988  0
7616  7622  7617  0
7630  7994  7996  0
7997  7998  7304  0
7997  7304  7639  0
7997  7639  7999  0
7998  8000  7302  0
7998  7302  7304  0
8000  7641  7302  0
7632  7995  7626  0
7632  7633  8001  0
7627  7630  7996  0
7655  7999  7639  0
7641  8002  7642  0
7633  7642  8002  0
7635  7636  7643  0
7646  7645  7637  0
7647  7996  8003  0
7996  7647  7627  0
7639  7640  7655  0
7651  7643  8004  0
8005  8004  7643  0
7643  7636  8005  0
8006  8005  7636  0
7636  7644  8006  0
8007  8006  7644  0
7644  7645  8007  0
8008  8007  7645  0
7645  7646  8008  0
7657  8008  7646  0
7653  7647  8003  0
8009  7648  7649  0
7649  7650  8009  0
7650  7651  8010  0
7650  8010  8009  0
8011  8009  8010  0
7651  8004  8010  0
8005  8010  8004  0
7654  7648  8012  0
8013  8012  7648  0
7648  8009  8013  0
8014  7034  7320  0
7653  8015  7659  0
8016  7659  8015  0
8017  8013  8009  0
8018  7657  7324  0
7320  7658  8014  0
7658  7661  8014  0
8019  8014  7661  0
7659  8016  7664  0
7681  7665  7666  0
7661  7668  8019  0
8020  8019  7668  0
7662  7670  7030  0
7678  7664  8016  0
8016  8021  7678  0
8022  7678  8021  0
8023  7660  7674  0
7334  7033  7681  0
7033  7665  7681  0
7329  8024  7333  0
7668  7676  8025  0
7668  8025  8020  0
7671  7663  7686  0
8026  7686  7663  0
7663  7327  8026  0
7327  7330  8026  0
8027  8026  7330  0
7672  8027  7330  0
7678  8022  7679  0
7679  7683  7339  0
7679  8022  7683  0
8028  7683  8022  0
7040  8029  7674  0
7044  7345  7675  0
7333  8024  8030  0
7333  8030  7335  0
8025  7676  8020  0
7670  7662  7687  0
7670  7687  7682  0
7662  7671  7687  0
7686  8026  7688  0
8026  8031  7688  0
8026  8027  8031  0
7672  7337  7689  0
7672  7689  8027  0
7683  8028  7684  0
7344  8032  7685  0
7345  7691  7675  0
7346  7335  7693  0
7676  7682  8033  0
7676  8033  8020  0
7682  7687  7695  0
7682  7695  8034  0
7682  8034  8033  0
7688  8031  7696  0
8031  8035  7696  0
8031  8027  8035  0
8027  7689  8035  0
7689  7341  8035  0
7684  8036  7690  0
8035  8037  7696  0
8035  8038  8037  0
8035  7341  8039  0
8035  8039  8038  0
7341  7690  8036  0
7341  8036  8039  0
7693  8040  7347  0
7693  8041  8040  0
7696  8037  7698  0
7353  7699  8042  0
7353  8042  8043  0
7700  7343  8044  0
7347  8040  7702  0
7697  8045  7695  0
7697  7703  8045  0
7699  8046  8047  0
7699  7704  7707  0
7699  7707  8046  0
7699  8047  8042  0
8044  7343  8048  0
8048  8049  8050  0
8048  7343  8051  0
8048  8051  8049  0
7703  7354  7706  0
8052  8045  7703  0
7698  8053  7355  0
7698  8037  8053  0
7700  8044  7711  0
8054  7711  8044  0
8044  8048  8054  0
8048  8050  8054  0
8055  8054  8050  0
8055  8050  8056  0
7703  7706  8052  0
8057  8052  7706  0
7712  8057  7706  0
7355  8053  7713  0
8058  7713  8053  0
7713  8058  7382  0
7707  7714  8059  0
8060  8059  7714  0
7714  7715  8060  0
8061  8060  7715  0
7711  8054  7719  0
8062  7719  8054  0
8063  8062  8054  0
8054  8055  8063  0
8064  8063  8055  0
8065  7705  7377  0
8066  7390  7378  0
7382  8058  7722  0
7722  8058  7729  0
8067  7729  8058  0
7730  8061  7715  0
8061  7730  8068  0
7719  8062  7726  0
8069  8062  8063  0
8070  8069  8063  0
8063  8064  8070  0
8071  8065  7377  0
7720  7721  8072  0
8073  8072  7721  0
7721  7727  8073  0
7729  8067  7737  0
8074  7737  8067  0
8075  8068  7730  0
8068  8075  8076  0
8068  8076  8077  0
8078  8077  8076  0
8079  8078  8076  0
7732  7726  7741  0
7726  8062  8080  0
8081  8080  8062  0
7726  8080  7741  0
8082  7741  8080  0
8062  8069  8081  0
7377  7733  8071  0
7390  8066  7734  0
8083  7734  8066  0
8073  7727  8084  0
8085  8084  7727  0
7727  7735  8085  0
8086  8085  7735  0
7737  8074  8087  0
8088  8087  8074  0
7730  7391  8075  0
7742  8075  7391  0
8075  7742  8076  0
7743  8076  7742  0
8076  7743  8079  0
8089  8079  7743  0
7739  7740  7744  0
8090  7744  7740  0
7740  7741  8090  0
8082  8090  7741  0
7734  8083  7745  0
8091  7745  8083  0
7734  7745  7056  0
7735  7736  8086  0
8092  8086  7736  0
7736  7737  8092  0
8087  8092  7737  0
7743  7744  8089  0
8093  8089  7744  0
7744  8090  8093  0
7057  7392  7733  0
8094  7733  7392  0
7733  8094  8095  0
7745  8091  7746  0
7746  8091  8096  0
7746  8096  7398  0
8097  7398  8096  0
7392  7396  8094  0
7398  8097  7747  0
8098  7399  7747  0
7399  8098  7749  0
7752  8099  8100  0
7752  8100  7751  0
7752  7753  8099  0
7755  7751  8101  0
7755  8101  7757  0
7757  8102  7410  0
7757  8101  8103  0
7757  8103  8102  0
8102  7768  7410  0
8102  8103  8104  0
8105  8106  7771  0
8105  7771  7772  0
8105  8107  8106  0
8106  8107  8108  0
8106  7775  7771  0
8106  8109  7775  0
8106  8108  8109  0
8109  7759  7775  0
8109  7760  7759  0
7760  8109  8110  0
7760  8110  7761  0
7763  8111  7765  0
7763  7761  8111  0
7766  8112  8099  0
7766  8099  7753  0
7766  7767  8113  0
7766  8113  8112  0
7768  8102  8114  0
7768  8114  7769  0
7769  8114  8115  0
7769  8115  7770  0
7773  8116  8117  0
7773  8117  7772  0
7773  7781  8116  0
7772  8117  8105  0
8111  7761  8118  0
7765  8111  8119  0
7765  8119  7776  0
7776  8119  7777  0
7776  7777  7415  0
7767  7778  8120  0
7767  8120  8113  0
7778  8121  8120  0
7778  7779  8122  0
7778  8122  8121  0
7779  8123  8122  0
7779  7430  8124  0
7779  8124  8123  0
7770  8115  8125  0
8126  7781  7780  0
7781  8126  8127  0
7786  7785  8128  0
7786  8128  8129  0
8111  8118  8130  0
8111  8130  8131  0
8111  8131  8119  0
8119  8132  7777  0
8119  8131  8133  0
8119  8133  8132  0
7777  8132  7782  0
7777  7782  7416  0
7430  7783  8134  0
7430  8134  8124  0
7783  7770  8125  0
7783  8125  8134  0
7789  8135  7068  0
7789  7068  7419  0
7789  7788  8136  0
7789  8136  8135  0
7420  7749  8126  0
7420  8126  7780  0
7790  8137  8138  0
8137  8139  8140  0
8137  7790  8139  0
7786  8129  7790  0
7790  8129  8139  0
7785  7784  8141  0
7787  8132  7794  0
8132  8133  8142  0
8132  8142  7794  0
8132  7787  7782  0
7788  8143  8144  0
7788  7437  8143  0
8145  8143  7437  0
7788  8144  8136  0
8138  7791  7790  0
7784  7793  8141  0
7797  8141  7793  0
8141  7797  8146  0
8147  8146  7797  0
7794  8142  7442  0
8148  7442  8142  0
7437  7795  8145  0
8149  8145  7795  0
7797  7796  8150  0
7801  8150  7796  0
7797  8150  8147  0
7442  8148  7798  0
8151  7798  8148  0
7795  7438  8149  0
7443  8149  7438  0
7801  7800  8152  0
8153  8152  7800  0
8151  8152  8153  0
7798  8151  7802  0
7803  7440  8154  0
7803  8155  7799  0
7800  7805  8153  0
7810  8153  7805  0
8153  7810  8151  0
7806  8151  7810  0
8156  7446  7811  0
7446  8156  7807  0
7443  7807  8156  0
8155  8157  7799  0
7799  8157  7809  0
7809  8157  7804  0
8158  7804  8157  0
7804  8158  7805  0
8159  7805  8158  0
7805  7813  7810  0
7805  8159  7813  0
7445  7815  7811  0
7816  7811  7815  0
7811  7816  8160  0
6815  7808  8161  0
6815  8161  7458  0
8162  7458  8161  0
8163  7808  7448  0
8164  7812  7449  0
7813  8159  7814  0
8165  7814  8159  0
8166  7816  7817  0
7817  8167  8166  0
8168  8163  7448  0
7449  7455  8169  0
7455  7454  8170  0
7455  8170  8169  0
7454  7819  8170  0
7817  7821  8167  0
8167  7821  8171  0
8172  7458  8173  0
7448  7460  7822  0
7448  7822  8168  0
7818  8174  7465  0
8175  8174  7818  0
8170  7819  8176  0
7819  7820  8176  0
7820  7814  8165  0
7820  8165  8176  0
7821  7824  8171  0
7458  8172  7463  0
7822  7464  8177  0
7464  8178  8177  0
8174  7827  7465  0
7463  8179  7118  0
7464  7826  8180  0
7464  8180  8178  0
7827  7831  7467  0
7827  8181  7831  0
7824  7823  7832  0
7824  7832  8182  0
7118  8179  8183  0
7118  8183  7830  0
7826  7833  8180  0
7831  7834  7476  0
7469  7828  8184  0
7469  8184  7477  0
7833  7470  8185  0
7477  8184  8186  0
7477  8186  7484  0
7837  7843  8187  0
7837  8187  7829  0
7830  8188  7478  0
7830  8183  8188  0
7470  7845  8185  0
8189  7846  7839  0
8189  7839  7838  0
8189  7838  8190  0
8189  8190  8191  0
8189  8191  7846  0
7835  7834  7838  0
7840  8192  7836  0
7840  7836  7473  0
7484  8186  7841  0
7478  8188  7844  0
7844  8193  7487  0
7847  8194  7848  0
7847  7490  8195  0
7848  8194  7840  0
7849  7841  8196  0
7849  8196  8197  0
7849  8197  7850  0
7843  7842  7854  0
7487  8193  7851  0
7852  8195  7490  0
7856  7497  8198  0
8197  8198  7497  0
7497  7850  8197  0
8199  7854  7859  0
7855  7859  7854  0
7852  7853  8200  0
8201  8200  7853  0
7501  7856  7864  0
7857  8202  7859  0
8202  8203  8199  0
8202  8199  7859  0
7861  7860  8204  0
8205  8204  7860  0
7860  7863  8205  0
8206  8205  7863  0
7863  7494  8206  0
7851  8206  7494  0
7853  7505  8201  0
7864  8201  7505  0
8207  8203  8202  0
8202  7857  8207  0
7865  8207  7857  0
8208  7868  7507  0
7507  7862  8208  0
7861  8208  7862  0
8207  7865  8209  0
8210  8209  7865  0
7870  8210  7865  0
7873  8211  7874  0
8212  7874  8211  0
7876  7874  8212  0
8212  7879  7876  0
8212  8213  7879  0
8214  7879  8213  0
7873  7872  8215  0
7883  8215  7872  0
7879  8214  7881  0
8216  7881  8214  0
7888  7508  7895  0
8217  7509  7888  0
8218  7889  7509  0
7896  7889  8218  0
8219  8220  7883  0
7883  7882  8219  0
7891  8219  7882  0
7881  8216  7893  0
8221  7893  8216  0
8222  7895  7511  0
7896  8223  7512  0
8224  7512  8223  0
7891  8225  8219  0
7891  7897  8225  0
7893  8221  7894  0
7899  7894  8221  0
8226  7900  7899  0
8222  7511  7902  0
7512  7904  7520  0
7512  8224  7904  0
8225  7897  8227  0
7897  7901  8227  0
8228  8227  7901  0
8229  7900  8226  0
7902  8230  8222  0
8231  8222  8230  0
8232  8222  8231  0
7905  7904  8224  0
8233  8225  8227  0
7524  7900  7906  0
8234  7906  7900  0
7900  8229  8234  0
8230  8235  8231  0
8231  8235  8236  0
8227  8228  8237  0
8227  8237  8233  0
7907  7906  8238  0
7906  8234  8239  0
7906  8239  8238  0
8240  8238  8239  0
7902  7909  8241  0
7902  8241  8230  0
8230  8241  8235  0
7523  7905  7911  0
8242  7911  7905  0
8238  8240  8243  0
7910  7903  7920  0
7903  7528  7920  0
7911  8242  7921  0
7907  8238  8243  0
7908  8244  7909  0
7908  7529  8245  0
7908  8245  8244  0
7910  8246  8247  0
7910  7920  8246  0
7911  7921  7530  0
7915  8248  8249  0
7916  8245  7529  0
7918  7914  8250  0
7914  7910  8247  0
7914  8247  8250  0
7921  8251  7922  0
8249  8248  8252  0
7923  8253  7924  0
7924  8253  7916  0
7924  7916  7533  0
7925  7917  7918  0
8251  8254  7922  0
7922  8254  8255  0
7922  8255  7927  0
7926  7925  7931  0
7538  7545  8256  0
7538  8256  7919  0
7546  8252  8257  0
7546  8257  8258  0
7546  8258  7547  0
7929  7933  7928  0
7933  7930  8259  0
7930  7932  8260  0
7930  8260  8259  0
8256  7545  8261  0
7545  7548  8261  0
7548  7549  8261  0
8262  7187  7547  0
7934  7549  7186  0
7187  8262  7935  0
7936  7934  7550  0
7935  8263  7553  0
7935  8262  8263  0
8264  7936  7938  0
7559  7553  8263  0
7938  7557  8264  0
7945  8264  7557  0
8263  8265  7559  0
7941  7559  8265  0
7946  8266  7947  0
8267  7947  8266  0
7566  7947  8267  0
7952  7940  7942  0
7940  7952  7943  0
8268  7943  7952  0
7943  8268  7944  0
8269  7944  8268  0
7944  8269  7948  0
8270  7948  8269  0
8271  7946  7941  0
7946  8271  8266  0
7951  7566  8267  0
7952  7956  8268  0
8272  8268  7956  0
8268  8273  8269  0
8268  8272  8273  0
7948  8274  7953  0
8275  7953  8274  0
7948  8270  8274  0
8276  8275  8274  0
7957  7945  7576  0
8277  8266  8271  0
8266  8277  8267  0
8278  7955  7951  0
8279  8272  7956  0
8272  8279  8273  0
8280  8273  8279  0
7953  8275  7580  0
8281  7580  8275  0
8275  8276  8281  0
8282  8281  8276  0
7955  7954  7578  0
7956  7960  8279  0
8283  8280  8279  0
7580  8281  7961  0
8281  8282  8284  0
7969  7967  8285  0
8285  7967  8286  0
7973  7969  8285  0
7970  7587  7577  0
7577  7958  7970  0
7954  7955  8287  0
8288  7955  8278  0
7960  7965  8279  0
8279  7965  8289  0
8279  8289  8283  0
8281  8284  7961  0
7586  8286  7967  0
7586  7968  8286  0
7969  7973  7278  0
7973  8290  7962  0
8291  7962  8290  0
7957  7962  8291  0
7958  7573  8292  0
7954  8287  8293  0
7954  8293  8294  0
7961  8284  8295  0
7961  8295  7966  0
7958  8292  7970  0
8292  7963  7985  0
8294  8293  8296  0
7965  7972  8297  0
7965  8297  8289  0
7592  8298  7968  0
7592  7976  8298  0
7970  8292  7985  0
7966  8295  7983  0
7978  8299  7977  0
7977  8299  8300  0
7977  8300  7980  0
7977  7980  7979  0
7982  8301  7972  0
7984  7983  8302  0
7984  8302  7976  0
8303  7989  7988  0
7989  8303  7978  0
8299  7978  8303  0
7980  8300  8304  0
7980  8304  7990  0
7990  8304  7992  0
7981  8301  7982  0
7998  7997  8305  0
8305  7997  8306  0
8307  8306  7997  0
8305  8308  7998  0
8000  7998  8308  0
8308  8309  8000  0
8310  7988  7995  0
7988  8310  8303  0
8304  8311  7992  0
7622  7991  7992  0
7622  8312  7617  0
7617  8312  8313  0
7617  8313  7981  0
7996  7994  8314  0
7997  7999  8307  0
8000  8002  7641  0
8000  8309  8315  0
8000  8315  8002  0
8002  8315  8316  0
7632  8317  8318  0
7632  8318  7995  0
7632  8001  8317  0
8319  8317  8001  0
7995  8318  8320  0
7995  8320  8310  0
7992  8311  7622  0
8321  7622  8311  0
7622  8321  8312  0
8003  7996  8314  0
7999  7655  8322  0
8323  8322  7655  0
8002  8316  7633  0
8319  7633  8316  0
7633  8319  8001  0
8005  8006  8324  0
8006  8007  8324  0
8325  8007  8008  0
8008  7657  8325  0
7655  8326  8323  0
8327  8323  8326  0
7655  7654  8326  0
8328  8326  7654  0
8329  8011  8010  0
8010  8005  8330  0
8010  8330  8329  0
8005  8324  8330  0
8324  8007  8331  0
8325  8331  8007  0
8325  7657  8018  0
8332  7653  8003  0
7653  8332  8015  0
7654  8012  8328  0
8333  8328  8012  0
8009  8011  8017  0
8334  8011  8329  0
8335  8016  8015  0
8012  8013  8336  0
8012  8336  8333  0
8334  8017  8011  0
8337  7667  7034  0
7034  8014  8337  0
8338  8337  8014  0
8014  8019  8338  0
8016  8335  8021  0
8022  8021  8335  0
8336  8013  8339  0
7660  8023  7324  0
7328  7675  8340  0
7328  8340  7666  0
7667  8337  7329  0
8024  7329  8337  0
8022  8341  8028  0
8341  8342  8028  0
8343  8028  8342  0
7681  7666  8344  0
7344  7681  8345  0
7344  8345  8346  0
7344  8346  8032  0
7681  8344  8345  0
8028  8343  8347  0
8028  8347  7684  0
7675  7691  8340  0
8030  8348  7335  0
7335  8348  7693  0
8020  8033  8349  0
8033  8034  8350  0
7684  8347  8351  0
7693  8352  8041  0
8036  7684  8351  0
8036  8351  8353  0
7043  7685  8354  0
7043  8354  8051  0
7692  8355  7691  0
8041  8352  8040  0
8034  7695  8356  0
8037  8038  8357  0
8037  8357  8053  0
8038  8039  8357  0
8039  8036  8353  0
8039  8353  8357  0
8043  8358  8359  0
8043  8042  8358  0
8043  8359  8360  0
7043  8051  7343  0
8354  8361  8049  0
8354  8049  8051  0
8361  8362  8049  0
8361  8354  8363  0
7692  7705  8355  0
8364  8040  8365  0
7695  8045  8356  0
8357  8353  8366  0
8047  8358  8042  0
8049  8362  8050  0
8056  8050  8362  0
8362  8367  8056  0
8362  8361  8368  0
8362  8368  8367  0
8040  8364  7702  0
8357  8366  8053  0
8058  8053  8366  0
8046  7707  8059  0
8056  8367  8055  0
8065  8355  7705  0
8369  7053  7702  0
8052  8057  8370  0
8371  8057  7712  0
8372  8371  7712  0
8373  8058  8366  0
8067  8058  8373  0
8373  8374  8067  0
8375  8067  8374  0
8376  8059  8060  0
8060  8061  8377  0
8068  8377  8061  0
8060  8377  8376  0
8378  8376  8377  0
8377  8068  8378  0
8077  8378  8068  0
8378  8077  8379  0
8378  8379  8380  0
8381  8380  8379  0
8382  8381  8379  0
8367  8064  8055  0
8383  8070  8064  0
7378  8384  8066  0
8385  7379  7053  0
7053  8369  8385  0
7712  7720  8372  0
8074  8067  8375  0
8375  8386  8074  0
8387  8074  8386  0
8078  8379  8077  0
8379  8078  8382  0
8388  8382  8078  0
8069  8070  8081  0
8389  8072  8073  0
8073  8084  8389  0
8390  8389  8084  0
8078  8079  8388  0
8391  8388  8079  0
8392  8082  8080  0
8084  8085  8393  0
8086  8393  8085  0
8084  8393  8390  0
8074  8387  8088  0
8079  8089  8391  0
8394  8391  8089  0
8090  8082  8395  0
7733  8095  8071  0
8091  8083  8396  0
8096  8091  8396  0
8086  8092  8397  0
8092  8087  8398  0
8087  8088  8399  0
8087  8399  8398  0
8089  8093  8400  0
8089  8400  8394  0
8093  8090  8395  0
8093  8395  8400  0
8092  8398  8401  0
8092  8401  8397  0
8097  8402  7747  0
7747  8402  8098  0
8403  8404  8101  0
8403  8101  7751  0
8403  7751  8405  0
8403  8405  8406  0
8404  8103  8101  0
7396  7748  8094  0
8099  8407  8100  0
8100  8405  7751  0
8103  8408  8104  0
8098  8409  7749  0
8410  8127  8411  0
8410  8411  8412  0
8410  8117  8116  0
8410  8116  8127  0
8410  8412  8413  0
8410  8413  8117  0
8117  8107  8105  0
8117  8413  8107  0
8107  8413  8414  0
8107  8414  8415  0
8107  8415  8108  0
8108  8415  8416  0
8108  8416  8417  0
8108  8417  8109  0
8109  8417  8110  0
8110  8418  8419  0
8110  8419  7761  0
8112  8420  8099  0
8112  8113  8421  0
8112  8421  8420  0
8102  8104  8422  0
8102  8422  8114  0
8114  8422  8423  0
8114  8423  8115  0
8424  8411  8126  0
8411  8127  8126  0
8116  7781  8127  0
8425  8128  8418  0
8425  8418  8417  0
8418  8110  8417  0
8418  8426  8419  0
8419  8426  8118  0
8419  8118  7761  0
8113  8120  8427  0
8113  8427  8421  0
8120  8121  8428  0
8120  8428  8427  0
8122  8123  8429  0
8122  8429  8121  0
8123  8124  8430  0
8115  8423  8431  0
8115  8431  8125  0
7748  7068  8135  0
8432  8140  8433  0
8139  8433  8140  0
8432  8433  8434  0
8129  8433  8139  0
8433  8129  8128  0
8433  8128  8425  0
8433  8425  8434  0
8128  7785  8418  0
8141  8418  7785  0
8418  8141  8426  0
8130  8118  8426  0
8124  8134  8430  0
8435  8430  8134  0
8134  8125  8435  0
8431  8435  8125  0
8143  8135  8144  0
8136  8144  8135  0
8143  8436  8135  0
7749  8409  8437  0
7749  8437  8424  0
7749  8424  8126  0
8138  8438  8439  0
8438  8138  8140  0
8137  8140  8138  0
8438  8140  8432  0
8146  8426  8141  0
8426  8146  8130  0
8440  8130  8146  0
8130  8440  8131  0
8441  8131  8440  0
8131  8441  8133  0
8142  8133  8441  0
8143  8145  8442  0
8443  8442  8145  0
8146  8147  8440  0
8150  8440  8147  0
8440  8150  8441  0
8148  8441  8150  0
8441  8148  8142  0
8145  8149  8443  0
8444  8138  8439  0
8138  8444  7791  0
7792  7791  8444  0
8150  7801  8148  0
8152  8148  7801  0
8151  8148  8152  0
7440  7792  8445  0
8151  7806  7802  0
8149  7443  8446  0
7811  8447  8156  0
8156  8446  7443  0
8158  8157  8448  0
8158  8449  8159  0
8450  8160  7816  0
7816  8166  8450  0
8161  7808  8162  0
8163  8162  7808  0
8449  8165  8159  0
8166  8167  8451  0
7458  8162  8173  0
7449  8169  8452  0
7449  8452  8164  0
8453  8165  8449  0
8167  8171  8451  0
8173  8454  8172  0
8168  7822  8177  0
8168  8177  8163  0
8170  8176  8453  0
8170  8453  8169  0
8176  8165  8453  0
8171  7824  8455  0
7824  8182  8456  0
8172  8179  7463  0
8178  8180  8457  0
8174  8181  7827  0
8174  8458  8181  0
7825  8459  7828  0
8179  8172  8460  0
8179  8460  8183  0
8180  7833  8461  0
8180  8461  8457  0
8181  8190  7831  0
7836  8182  7832  0
7836  8462  8182  0
8459  7825  7829  0
8459  7829  8187  0
7833  8185  8461  0
8190  7838  7834  0
8190  7834  7831  0
8463  8462  7836  0
8463  7836  8192  0
8463  8464  8462  0
8183  8465  8188  0
8185  7845  8466  0
7845  7488  7846  0
7845  7846  8467  0
7845  8467  8466  0
7846  8191  8467  0
8192  7840  8194  0
8192  8468  8463  0
8192  8194  8468  0
8188  8193  7844  0
8188  8469  8193  0
8195  8470  8471  0
8195  8471  7847  0
8472  8470  8195  0
7847  8471  8194  0
8196  8186  8473  0
8196  8473  8197  0
8196  7841  8186  0
8187  7843  8199  0
7854  8199  7843  0
8474  8187  8199  0
7851  8193  8475  0
8193  8469  8476  0
8193  8476  8475  0
7852  8200  8195  0
8472  8195  8200  0
8198  8197  8477  0
8473  8477  8197  0
8478  8474  8199  0
8475  8206  7851  0
8475  8476  8479  0
8475  8479  8206  0
8200  8201  8472  0
8480  8472  8201  0
8481  8482  7864  0
7864  7856  8481  0
8198  8481  7856  0
8483  8478  8203  0
8484  8483  8203  0
8203  8478  8199  0
8479  8205  8206  0
8201  7864  8480  0
8482  8480  7864  0
8485  8486  8487  0
8487  8203  8485  0
8207  8485  8203  0
8487  8484  8203  0
7869  8488  7871  0
8488  7869  7868  0
8488  7868  8489  0
8490  8489  7868  0
7868  8208  8490  0
8491  8490  8208  0
8208  7861  8491  0
8204  8491  7861  0
8492  8486  8485  0
8485  8207  8492  0
8209  8492  8207  0
8209  8210  8493  0
8494  8493  8210  0
8210  7870  8494  0
7871  8494  7870  0
8492  8209  8495  0
8493  8495  8209  0
8496  7873  8215  0
8496  8497  7873  0
8211  7873  8497  0
8211  8498  8212  0
8499  8212  8498  0
8212  8499  8213  0
8214  8213  8499  0
8496  8215  8500  0
8499  8501  8214  0
8215  7883  8220  0
8215  8220  8502  0
8501  8503  8214  0
8501  8504  8503  0
8216  8214  8503  0
8218  7509  8217  0
8220  8219  8505  0
8503  8504  8506  0
8507  8506  8504  0
8503  8506  8216  0
8508  8216  8506  0
8221  8216  8508  0
7895  8222  7888  0
8232  7888  8222  0
7888  8232  8217  0
8509  7896  8218  0
7896  8509  8223  0
8510  8223  8509  0
8505  8219  8511  0
8225  8511  8219  0
8512  8508  8506  0
8508  8512  8221  0
8513  8221  8512  0
8221  8513  8226  0
8221  8226  7899  0
8218  8217  8232  0
8223  8510  8224  0
8514  8224  8510  0
8515  8224  8514  0
8511  8225  8516  0
8506  8507  8512  0
8517  8512  8507  0
8513  8512  8518  0
8513  8518  8226  0
8226  8518  8229  0
8231  8236  8232  0
8224  8515  7905  0
8225  8233  8516  0
8519  8512  8517  0
8512  8519  8518  0
8520  8229  8518  0
8229  8520  8234  0
7905  8515  8242  0
8234  8520  8239  0
8235  8521  8236  0
8233  8237  8522  0
8239  8520  8240  0
8523  8240  8520  0
8241  8524  8235  0
8241  7909  8524  0
7907  8243  7912  0
8243  8240  8525  0
8240  8523  8525  0
7909  8244  8524  0
8242  8526  7921  0
7912  8243  8527  0
7912  8527  7915  0
8243  8525  8528  0
8243  8528  8527  0
8525  8523  8529  0
8525  8529  8528  0
8246  7920  7919  0
8246  7919  8530  0
7921  8526  8251  0
8254  8522  8255  0
8248  8531  8252  0
8248  7915  8531  0
7915  8527  8532  0
7915  8532  8531  0
8527  8528  8533  0
8527  8533  8532  0
8528  8534  8533  0
8528  8529  8534  0
8534  8535  8533  0
7923  8536  8253  0
7923  8537  8536  0
8253  8538  7916  0
7918  8250  8539  0
7918  8539  7925  0
8252  8531  8540  0
8252  8540  8257  0
7923  7928  8537  0
8541  8537  7928  0
8542  8541  7928  0
7925  8543  7931  0
7919  8256  8530  0
8544  8545  8531  0
8531  8532  8544  0
7928  7933  8542  0
8259  8542  7933  0
8546  7932  7931  0
7931  8543  8547  0
7931  8547  8546  0
8548  8259  8260  0
8260  7932  8548  0
7932  8546  8548  0
8548  8546  8549  0
7549  7934  8550  0
8551  8550  7934  0
8552  8262  7547  0
8553  8551  7934  0
7934  7936  8553  0
8264  8553  7936  0
8262  8552  8263  0
8554  8263  8552  0
8265  8263  8554  0
8264  7945  8555  0
8556  7941  8265  0
8265  8557  8556  0
8271  7941  8556  0
8558  8269  8273  0
8269  8558  8270  0
8559  8270  8558  0
8560  8270  8559  0
8270  8560  8274  0
8276  8274  8560  0
7945  7957  8555  0
8561  8555  7957  0
8562  8271  8556  0
8278  8267  8277  0
8267  8278  7951  0
8273  8280  8558  0
8559  8558  8280  0
8559  8563  8560  0
8559  8564  8563  0
8565  8285  8566  0
8567  8285  8568  0
8285  8565  8568  0
8569  8568  8565  0
8568  8569  8567  0
8570  8567  8569  0
8271  8562  8277  0
8277  8571  8278  0
8280  8283  8572  0
8280  8572  8559  0
8559  8572  8564  0
8276  8573  8282  0
8574  8282  8573  0
8282  8574  8284  0
8285  8286  8575  0
8285  8575  8566  0
8285  8567  8290  0
8285  8290  7973  0
8567  8291  8290  0
8567  8570  8291  0
7957  8291  8570  0
8572  8283  8576  0
8572  8576  8564  0
8284  8574  8577  0
8577  8574  8578  0
8286  7968  8579  0
8286  8579  8575  0
7955  8580  8287  0
7955  8288  8580  0
8289  8297  8283  0
8283  8297  8581  0
8283  8581  8576  0
8295  8284  8582  0
8284  8577  8582  0
8577  8583  8582  0
8297  8584  8581  0
7968  8298  8585  0
8293  8287  8586  0
8293  8586  8296  0
8297  8587  8584  0
8295  8582  7983  0
8296  8586  7994  0
8297  7972  8588  0
8297  8588  8587  0
7983  8582  8302  0
7976  8589  8298  0
7976  8302  8589  0
7994  8586  8590  0
7994  8590  8314  0
8591  8306  8307  0
8591  8592  8306  0
8306  8592  8593  0
7981  8313  8301  0
8301  8588  7972  0
8301  8313  8588  0
8314  8590  8594  0
8305  8306  8595  0
8305  8595  8308  0
8308  8595  8309  0
8596  8299  8303  0
8299  8596  8300  0
8597  8300  8596  0
8300  8597  8304  0
8598  8304  8597  0
8311  8304  8598  0
8314  8594  8599  0
8307  7999  8600  0
8322  8600  7999  0
8600  8322  8601  0
8602  8601  8322  0
8309  8603  8315  0
8315  8604  8316  0
8319  8316  8604  0
8315  8603  8605  0
8315  8605  8604  0
8604  8317  8319  0
8604  8605  8606  0
8604  8606  8317  0
8317  8606  8318  0
8318  8606  8310  0
8318  8310  8320  0
8311  8598  8607  0
8311  8607  8321  0
8608  8312  8321  0
8312  8608  8313  0
8313  8608  8609  0
8314  8599  8003  0
8610  8599  8594  0
8322  8323  8602  0
8327  8602  8323  0
8611  8602  8327  0
8612  8321  8607  0
8332  8003  8599  0
8599  8610  8332  0
8613  8611  8327  0
8326  8328  8327  0
8613  8327  8328  0
8614  8329  8330  0
8330  8324  8614  0
8331  8614  8324  0
8615  8331  8325  0
8325  8018  8615  0
8332  8610  8015  0
8335  8015  8610  0
8610  8616  8335  0
8341  8335  8616  0
8328  8617  8613  0
8328  8333  8617  0
8618  8334  8329  0
8329  8614  8618  0
8619  8618  8614  0
8620  8614  8331  0
8331  8615  8620  0
8023  8615  8018  0
8617  8333  8621  0
8013  8017  8339  0
8622  8339  8017  0
8017  8334  8622  0
8623  8622  8334  0
8334  8618  8624  0
8334  8624  8623  0
8018  7324  8023  0
8335  8341  8022  0
8333  8336  8621  0
8625  8621  8336  0
8336  8339  8626  0
8622  8626  8339  0
8627  8622  8623  0
8628  8337  8338  0
8338  8019  8628  0
8019  8629  8628  0
8336  8626  8625  0
8626  8622  8630  0
8622  8627  8630  0
8023  7674  8631  0
8344  7666  8632  0
8024  8337  8348  0
8019  8020  8633  0
8019  8633  8629  0
8342  8634  8343  0
8029  8635  8631  0
8029  8631  7674  0
8024  8348  8030  0
8343  8634  8347  0
8636  8637  8029  0
8636  8638  8637  0
8348  8352  7693  0
8033  8350  8349  0
8347  8639  8351  0
8347  8634  8640  0
8347  8640  8639  0
8641  8642  8637  0
8641  8637  8638  0
8352  8348  8643  0
8351  8644  8353  0
8351  8639  8644  0
8639  8640  8645  0
8639  8645  8644  0
8360  8646  8647  0
8360  8647  8641  0
7685  8032  8354  0
8032  8346  8363  0
8032  8363  8354  0
8352  8365  8040  0
8352  8643  8648  0
8352  8648  8365  0
8034  8356  8649  0
8034  8649  8350  0
8353  8644  8650  0
8358  8651  8359  0
8358  8652  8651  0
8359  8646  8360  0
8363  8653  8368  0
8363  8368  8361  0
8363  8346  8654  0
8363  8654  8653  0
8653  8654  8655  0
8653  8655  8656  0
8657  8365  8648  0
8356  8045  8658  0
8356  8658  8649  0
8353  8650  8366  0
8650  8374  8366  0
8650  8644  8374  0
8659  8374  8644  0
8047  8046  8358  0
8652  8358  8046  0
8368  8653  8660  0
8368  8660  8367  0
8653  8656  8660  0
8365  8661  8364  0
8662  8364  8661  0
8365  8657  8661  0
8661  8657  8662  0
8663  8662  8657  0
8045  8052  8658  0
8370  8658  8052  0
8366  8374  8373  0
8386  8374  8659  0
8659  8664  8386  0
8665  8386  8664  0
8376  8046  8059  0
8378  8666  8376  0
8667  8376  8666  0
8666  8378  8668  0
8380  8668  8378  0
8666  8668  8667  0
8669  8668  8380  0
8380  8381  8669  0
8367  8660  8670  0
8355  8065  8671  0
7702  8364  8369  0
8672  8369  8364  0
8364  8662  8672  0
8673  8662  8663  0
8370  8057  8674  0
8057  8371  8674  0
8372  8674  8371  0
8374  8386  8375  0
8675  8386  8665  0
8381  8382  8676  0
8064  8367  8383  0
8677  8383  8367  0
8367  8670  8677  0
8678  7378  7379  0
7379  8385  8678  0
8679  8385  8369  0
8369  8672  8679  0
8680  8679  8672  0
8672  8662  8680  0
8673  8680  8662  0
8072  8372  7720  0
8386  8675  8387  0
8382  8388  8676  0
8681  8676  8388  0
8682  8083  8066  0
8683  8684  8685  0
8686  8685  8684  0
8684  8683  8687  0
8688  8687  8683  0
8372  8072  8689  0
8690  8689  8072  0
8072  8389  8691  0
8390  8691  8389  0
8072  8691  8690  0
8388  8692  8681  0
8693  8681  8692  0
8388  8391  8692  0
8694  8692  8391  0
8080  8081  8695  0
8696  8695  8081  0
8080  8695  8392  0
8081  8070  8696  0
8083  8697  8396  0
8698  8686  8684  0
8684  8687  8698  0
8687  8699  8698  0
8687  8688  8699  0
8387  8700  8701  0
8387  8701  8088  0
8391  8394  8694  0
8702  8694  8394  0
8395  8082  8703  0
8392  8703  8082  0
8395  8703  8400  0
8071  8095  8704  0
8705  8706  8707  0
8686  8698  8705  0
8701  8399  8088  0
8701  8708  8399  0
8394  8400  8709  0
8394  8709  8702  0
8396  8097  8096  0
8705  8710  8706  0
8705  8698  8710  0
8698  8711  8710  0
8698  8699  8711  0
8399  8708  8712  0
8399  8712  8398  0
8401  8398  8712  0
8095  8094  8713  0
8403  8406  8714  0
8403  8714  8404  0
8404  8715  8408  0
8404  8408  8103  0
8404  8714  8716  0
8404  8716  8715  0
8407  8099  8717  0
8100  8407  8406  0
8100  8406  8405  0
8408  8718  8422  0
8408  8422  8104  0
8408  8715  8719  0
8408  8719  8718  0
8720  8098  8402  0
8720  8402  8721  0
8412  8411  8722  0
8412  8723  8724  0
8412  8724  8413  0
8413  8724  8725  0
8413  8725  8414  0
8414  8726  8415  0
8416  8415  8417  0
8420  8717  8099  0
8422  8718  8727  0
8422  8727  8423  0
8098  8720  8409  0
8726  8434  8415  0
8726  8728  8434  0
8415  8434  8425  0
8415  8425  8417  0
8421  8427  8729  0
8421  8729  8730  0
8421  8730  8420  0
8428  8121  8731  0
8428  8731  8732  0
8428  8732  8427  0
8121  8429  8733  0
8121  8733  8731  0
8123  8430  8734  0
8123  8734  8429  0
8423  8143  8431  0
8423  8727  8436  0
8423  8436  8143  0
8436  7748  8135  0
8436  8727  7748  0
8432  8728  8735  0
8432  8434  8728  0
8729  8732  8730  0
8729  8427  8732  0
8430  8435  8736  0
8430  8736  8734  0
8435  8431  8737  0
8435  8737  8736  0
8431  8143  8442  0
8431  8442  8737  0
8409  8720  8437  0
8738  8437  8720  0
8739  8740  8438  0
8741  8438  8740  0
8438  8432  8739  0
8735  8739  8432  0
8742  8743  8744  0
8745  8744  8743  0
8743  8746  8745  0
8747  8746  8743  0
8748  8746  8747  0
8443  8737  8442  0
8438  8741  8439  0
8744  8749  8742  0
8744  8745  8750  0
8751  8750  8745  0
8745  8746  8751  0
8748  8751  8746  0
8443  8149  8752  0
8446  8752  8149  0
8445  7792  8444  0
8749  8744  8753  0
8754  8753  8744  0
8744  8750  8754  0
8755  8754  8750  0
8750  8751  8755  0
8756  8755  8751  0
8445  8757  7440  0
8154  7440  8757  0
8758  8759  8760  0
8156  8447  8761  0
8762  8761  8447  0
8761  8446  8156  0
8761  8763  8446  0
7803  8764  8155  0
8448  8155  8764  0
8448  8157  8155  0
8765  8759  8766  0
8758  8767  8759  0
7811  8160  8447  0
8450  8447  8160  0
8447  8450  8762  0
8448  8768  8158  0
8769  8158  8768  0
8158  8769  8449  0
8450  8166  8770  0
8771  8772  8162  0
8162  8163  8771  0
8773  8771  8163  0
7818  7812  8175  0
8774  8175  7812  0
7812  8164  8774  0
8768  8775  8769  0
8173  8162  8772  0
8173  8772  8776  0
8173  8776  8454  0
8777  8773  8163  0
8164  8452  8778  0
8779  8778  8452  0
8452  8169  8779  0
8780  8779  8169  0
8169  8453  8780  0
8775  8780  8453  0
8769  8453  8449  0
8769  8775  8453  0
8171  8455  8451  0
8454  8776  8781  0
8163  8177  8777  0
8455  7824  8456  0
8454  8782  8172  0
8172  8782  8783  0
8178  8457  8177  0
8175  8784  8458  0
8175  8458  8174  0
8182  8785  8456  0
8783  8460  8172  0
8461  8786  8457  0
8461  8787  8788  0
8461  8788  8786  0
8458  8190  8181  0
8182  8462  8789  0
8182  8789  8785  0
7828  8459  8790  0
8787  8461  8185  0
8458  8191  8190  0
8464  8463  8791  0
8464  8789  8462  0
8184  7828  8790  0
8184  8790  8792  0
8459  8187  8790  0
8183  8793  8465  0
8183  8460  8793  0
8787  8185  8794  0
8185  8466  8794  0
8467  8191  8795  0
8468  8791  8463  0
8468  8194  8796  0
8184  8797  8186  0
8187  8474  8798  0
8187  8798  8790  0
8465  8469  8188  0
8471  8796  8194  0
8473  8186  8797  0
8799  8469  8465  0
8469  8799  8476  0
8477  8800  8801  0
8477  8801  8198  0
8477  8473  8800  0
8802  8474  8478  0
8803  8479  8476  0
8472  8480  8804  0
8472  8804  8805  0
8482  8481  8801  0
8481  8198  8801  0
8802  8483  8484  0
8483  8802  8478  0
8806  8204  8205  0
8205  8479  8806  0
8807  8806  8479  0
8479  8803  8807  0
8808  8804  8480  0
8480  8482  8808  0
8809  8808  8482  0
8487  8810  8484  0
8487  8486  8810  0
8811  8810  8486  0
8494  7871  8488  0
8494  8488  8812  0
8813  8812  8488  0
8488  8489  8813  0
8814  8813  8489  0
8489  8490  8814  0
8815  8814  8490  0
8490  8491  8815  0
8491  8204  8815  0
8806  8815  8204  0
8806  8807  8816  0
8492  8817  8486  0
8811  8486  8817  0
8818  8819  8493  0
8493  8819  8495  0
8820  8818  8493  0
8493  8494  8820  0
8817  8492  8821  0
8822  8821  8492  0
8492  8495  8822  0
8497  8496  8823  0
8500  8823  8496  0
8497  8824  8211  0
8825  8211  8824  0
8211  8825  8498  0
8826  8498  8825  0
8498  8826  8499  0
8501  8499  8826  0
8500  8215  8827  0
8502  8827  8215  0
8826  8828  8501  0
8829  8501  8828  0
8504  8501  8829  0
8830  8502  8220  0
8829  8831  8504  0
8220  8505  8830  0
8511  8830  8505  0
8832  8831  8833  0
8831  8832  8504  0
8507  8504  8832  0
8834  8830  8511  0
8835  8507  8832  0
8232  8836  8218  0
8837  8218  8836  0
8232  8838  8836  0
8218  8837  8509  0
8839  8509  8837  0
8509  8839  8510  0
8840  8510  8839  0
8510  8840  8514  0
8516  8834  8511  0
8832  8841  8835  0
8517  8507  8835  0
8232  8842  8838  0
8232  8236  8842  0
8514  8840  8515  0
8835  8843  8517  0
8517  8844  8519  0
8845  8518  8519  0
8518  8845  8520  0
8515  8840  8846  0
8834  8516  8847  0
8233  8847  8516  0
8517  8843  8844  0
8519  8848  8845  0
8519  8844  8849  0
8519  8849  8848  0
8521  8235  8850  0
8236  8521  8842  0
8242  8515  8851  0
8847  8233  8522  0
8847  8522  8852  0
8845  8523  8520  0
8845  8848  8523  0
8853  8854  8855  0
8853  8856  8854  0
8524  8850  8235  0
8242  8851  8526  0
8523  8848  8857  0
8853  8536  8856  0
8855  8858  8853  0
8852  8522  8254  0
8523  8857  8859  0
8523  8859  8529  0
8536  8860  8856  0
8853  8538  8253  0
8853  8253  8536  0
8853  8858  8538  0
8538  8858  8861  0
8538  8245  7916  0
8538  8861  8245  0
8245  8861  8862  0
8245  8862  8244  0
8244  8862  8524  0
8250  8247  8863  0
8247  8246  8530  0
8247  8530  8863  0
8526  8864  8251  0
8852  8254  8865  0
8529  8859  8534  0
8534  8866  8535  0
8536  8537  8860  0
8530  8867  8863  0
8251  8865  8254  0
8531  8545  8540  0
8535  8866  8868  0
8541  8542  8869  0
7925  8539  8543  0
8530  8256  8870  0
8530  8870  8867  0
8545  8544  8871  0
8532  8533  8872  0
8532  8872  8544  0
8533  8535  8873  0
8533  8873  8872  0
8535  8868  8874  0
8535  8874  8873  0
8542  8259  8869  0
8256  8261  8870  0
8257  8540  8258  0
8540  8545  8875  0
8544  8872  8871  0
8869  8259  8876  0
8877  8876  8259  0
8259  8548  8877  0
8878  8546  8547  0
8879  8547  8543  0
8547  8879  8878  0
8261  7549  8880  0
8550  8880  7549  0
8881  7547  8258  0
8258  8540  8882  0
8540  8875  8882  0
8871  8875  8545  0
8871  8872  8883  0
8884  8883  8872  0
8872  8873  8884  0
8874  8884  8873  0
8885  8877  8548  0
8548  8549  8885  0
8886  8885  8549  0
7547  8881  8552  0
8549  8546  8886  0
8887  8886  8546  0
8546  8878  8887  0
8550  8551  8888  0
8889  8553  8264  0
8264  8555  8889  0
8554  8557  8265  0
8890  8891  8892  0
8557  8893  8556  0
8890  8892  8894  0
8895  8894  8892  0
8555  8561  8889  0
8893  8896  8556  0
8562  8556  8896  0
8897  8898  8890  0
8890  8898  8899  0
8900  8899  8898  0
8890  8894  8897  0
8901  8897  8894  0
8894  8902  8901  0
8903  8901  8902  0
8904  8905  8906  0
8906  8907  8904  0
8908  8904  8907  0
8560  8563  8276  0
8573  8276  8563  0
8569  8909  8570  0
7957  8570  8909  0
8569  8910  8909  0
7957  8909  8561  0
8562  8571  8277  0
8278  8571  8288  0
8911  8900  8898  0
8898  8897  8912  0
8897  8901  8912  0
8913  8905  8904  0
8904  8908  8914  0
8563  8915  8573  0
8573  8915  8574  0
8566  8575  8916  0
8566  8916  8917  0
8562  8896  8918  0
8571  8562  8919  0
8571  8919  8920  0
8898  8912  8921  0
8898  8921  8922  0
8898  8922  8911  0
8912  8901  8923  0
8913  8924  8905  0
8904  8914  8913  0
8564  8576  8925  0
8564  8925  8926  0
8564  8926  8563  0
8563  8926  8927  0
8563  8927  8915  0
8574  8915  8578  0
8578  8928  8577  0
8575  8929  8916  0
8571  8920  8930  0
8571  8930  8288  0
8288  8930  8580  0
8925  8931  8926  0
8926  8931  8927  0
8577  8928  8583  0
8575  8579  8932  0
8575  8932  8929  0
8580  8933  8287  0
8580  8930  8933  0
8934  8921  8935  0
8934  8936  8922  0
8934  8922  8921  0
8921  8912  8937  0
8921  8937  8935  0
8912  8923  8938  0
8912  8938  8937  0
8576  8581  8939  0
8576  8939  8925  0
8582  8583  8940  0
8583  8928  8940  0
8579  7968  8585  0
8579  8585  8932  0
8287  8941  8586  0
8287  8933  8941  0
8934  8935  8592  0
8934  8592  8936  0
8584  8587  8581  0
8581  8587  8942  0
8581  8942  8939  0
8592  8935  8593  0
8592  8943  8936  0
8935  8937  8944  0
8935  8944  8593  0
8937  8938  8945  0
8937  8945  8944  0
8582  8940  8302  0
8298  8589  8946  0
8298  8946  8585  0
8943  8592  8591  0
8593  8944  8595  0
8593  8595  8306  0
8944  8945  8595  0
8947  8595  8945  0
8302  8948  8589  0
8590  8586  8949  0
8590  8949  8594  0
8586  8941  8950  0
8586  8950  8951  0
8586  8951  8949  0
8600  8591  8307  0
8595  8947  8603  0
8595  8603  8309  0
8947  8952  8605  0
8947  8605  8603  0
8952  8953  8605  0
8954  8605  8953  0
8313  8609  8588  0
8955  8588  8609  0
8956  8949  8951  0
8601  8602  8957  0
8605  8954  8606  0
8958  8606  8954  0
8606  8958  8310  0
8959  8310  8958  0
8596  8303  8310  0
8597  8596  8959  0
8597  8960  8598  0
8608  8961  8609  0
8962  8963  8964  0
8594  8949  8610  0
8965  8957  8602  0
8602  8611  8965  0
8310  8959  8596  0
8598  8960  8607  0
8321  8612  8608  0
8966  8608  8612  0
8608  8966  8961  0
8967  8963  8968  0
8963  8967  8964  0
8964  8969  8962  0
8970  8962  8969  0
8616  8610  8949  0
8949  8956  8616  0
8611  8613  8971  0
8972  8611  8971  0
8973  8972  8971  0
8974  8607  8960  0
8607  8974  8612  0
8975  8964  8967  0
8964  8975  8969  0
8976  8956  8977  0
8956  8978  8977  0
8973  8971  8613  0
