#!ascii file
 11.791501  -11.640574   60.102299  0
 26.773283  -12.389225   58.546425  0
 25.801661  -12.813644   57.656601  0
 11.453200  -11.875281   58.716408  0
 31.980843  -11.303307   56.958870  0
 32.203720  -11.479667   58.156742  0
 27.989271  -11.255309   58.668648  0
 27.008940  -11.789418   56.600410  0
 10.908967  -12.046195   56.991188  0
 15.736855  -11.421258   57.417950  0
 44.086319  -10.916390   56.487457  0
 43.436474  -10.936214   56.059544  0
 31.924713  -11.228874   55.228226  0
 25.889044  -12.084926   55.176697  0
 26.902493  -11.721022   55.607880  0
 27.388285  -10.883492   55.461430  0
 10.662367  -11.947097   55.669994  0
 31.082811  -11.754972   54.130684  0
 26.388651  -11.143147   53.955513  0
 24.899658  -12.234593   54.253067  0
 10.296925  -12.098110   53.986320  0
 43.490757  -11.650389   54.904682  0
 25.034374  -11.928150   52.957069  0
 17.229332  -11.167154   53.711136  0
 46.042988  -11.758610   52.992996  0
 42.577518  -11.511419   53.725029  0
 31.152550  -11.479888   52.623615  0
 24.119740  -11.919661   51.861012  0
 10.928549  -11.922826   52.536587  0
 45.825867  -10.720950   51.953423  0
 41.770401  -11.653258   52.110649  0
 30.696672  -11.431196   51.158115  0
 45.356800  -11.863048   50.815834  0
 45.514523  -10.764712   51.120506  0
 40.714077  -11.364254   51.058777  0
 23.930040  -11.197272   50.951546  0
 18.475571  -11.628316   50.739056  0
 18.087685  -11.169860   51.669521  0
 11.199633  -11.995835   51.075413  0
 44.907295  -10.321383   50.413803  0
 39.689262  -11.397622   49.791943  0
 30.543856  -11.100430   49.330788  0
 21.714222  -10.979865   50.144814  0
 19.754656  -11.486218   50.123970  0
 44.348511  -11.666559   48.979366  0
 38.066410  -11.461855   48.823738  0
 20.586212  -11.008834   50.133228  0
 11.998934  -11.016583   49.333237  0
 11.861791  -11.270663   50.642323  0
 54.986153  -10.835768   48.169437  0
 43.634411  -11.365787   47.992161  0
 36.993080  -11.392433   48.017384  0
 30.264975  -10.708906   48.076969  0
 11.666214  -10.803563   48.544495  0
 11.002241  -11.414701   47.706608  0
 49.916252  -10.118602   47.790211  0
 43.060493  -11.616680   47.064644  0
 35.409042  -10.836508   47.003479  0
 34.130753  -10.907235   45.708015  0
 48.869377  -10.087569   46.631939  0
 41.919231  -11.498400   46.120533  0
 41.275982  -11.346267   45.069496  0
 30.329803  -10.709606   45.114727  0
 30.087744  -10.575802   45.952808  0
 51.997986  -11.137564   45.369137  0
 51.418972  -11.140313   44.664268  0
 47.803291  -10.144329   45.316696  0
 40.719734  -11.382314   44.000458  0
 31.796350  -11.454699   45.035763  0
 50.678905  -11.841194   44.015545  0
  8.505148  -11.349891   44.122814  0
 45.498310  -11.068235   42.469250  0
 38.995415  -11.515330   42.411530  0
 12.595688  -10.755464   42.974781  0
 14.689212  -11.169527   42.134933  0
 49.778534  -12.212214   41.782890  0
 35.811394  -11.812330   38.674934  0
 55.682297  -12.033901   39.409286  0
 56.169254  -11.783868   38.498219  0
 54.683971  -12.182442   39.716736  0
 53.582108  -12.522634   38.946190  0
 54.906414  -11.329103   39.915977  0
 53.850567  -11.227281   40.158993  0
 53.328857  -11.979698   39.780701  0
 48.982277  -12.597276   38.201729  0
 50.758003  -11.810936   39.882603  0
 43.048058  -12.275766   39.207088  0
 18.812368  -11.615182   38.705990  0
 57.470562  -12.005257   37.309925  0
 56.230572  -11.639963   37.481956  0
 51.122650  -12.393359   37.300301  0
 51.851517  -11.809386   39.497261  0
 50.211315  -12.215875   38.079082  0
 42.998169  -12.734970   37.865173  0
 44.657516  -12.020061   38.339043  0
 44.921127  -12.425984   37.358826  0
 44.828472  -11.282399   39.338501  0
 36.005699  -11.871849   37.378059  0
 19.396381  -10.838221   36.675179  0
 60.658447  -12.297142   36.875591  0
 58.859104  -11.912984   36.408619  0
 56.097221  -11.541761   36.347042  0
 49.647003  -12.741366   36.189293  0
 58.267883  -11.741954   34.609577  0
 45.551369  -12.124965   36.613285  0
 37.222469  -11.712343   36.128613  0
 19.029007  -10.512840   34.894657  0
 45.034142  -11.233651   35.040134  0
 46.215782  -11.438780   35.998100  0
 43.118217  -12.026755   34.602753  0
 39.449081  -11.785728   34.585022  0
 38.812469  -11.011577   34.891048  0
 11.997805  -11.816155   34.907436  0
  9.638021  -10.908115   34.424778  0
 42.422585  -10.750940   34.113838  0
 40.856983  -11.540291   34.303295  0
 17.647877  -10.729867   33.761040  0
 14.390330  -10.701154   33.845860  0
  9.367766  -11.091478   33.826073  0
 57.076084  -11.303096   33.569214  0
  9.368879  -10.409048   31.646854  0
  8.964851  -10.057798   30.397032  0
 58.723499  -10.926514   29.646120  0
  8.927266  -10.657609   29.370899  0
 57.788563  -11.657082   28.701057  0
  9.354348  -10.819866   28.716654  0
 57.353615  -11.113054   27.800009  0
 55.482220  -12.082925   27.399046  0
 10.396546  -11.218752   28.204548  0
 55.986736  -11.708828   26.616089  0
 11.780678  -10.400005   28.067564  0
 12.493170  -10.851384   27.488064  0
 12.636511  -10.849762   27.054632  0
 12.184548  -11.046163   26.357342  0
 56.964725  -11.214165   25.818201  0
 11.323086  -10.643269   25.607567  0
 10.200589  -10.325929   24.893087  0
 60.789024  -11.937599   23.905725  0
 59.652332  -12.096487   24.058216  0
 60.832497  -12.253122   23.259750  0
 59.028339  -11.056024   24.739857  0
  9.016917  -10.790833   24.380764  0
 61.056309  -11.602771   22.888859  0
 46.728287  -12.022849   21.565737  0
 39.942101  -11.448490   23.929060  0
 40.800934  -11.765647   22.817125  0
 38.598488  -11.698541   23.696796  0
 38.189987  -10.637944   23.898930  0
 37.254364  -10.834572   23.229511  0
 36.730499  -10.897415   22.418692  0
  6.926899  -10.984062   23.923708  0
 57.689117  -11.149611   21.812124  0
 48.907207  -11.858683   21.398048  0
 45.712986  -11.841642   20.572403  0
 44.709259  -12.451794   20.511236  0
 41.514896  -11.934063   20.746593  0
 35.439575  -11.737573   20.819492  0
 54.363178  -11.991194   20.576847  0
 55.185116  -11.024498   20.118599  0
 50.961380  -11.580688   20.936758  0
 45.001255  -11.608644   19.975128  0
 42.085743  -12.306948   19.509684  0
 43.776810  -11.290143   19.912792  0
 45.466560  -10.808399   19.762209  0
 34.557552  -12.261882   18.379164  0
  6.493274  -10.557830   17.933720  0
 35.058083  -12.132064   16.848955  0
  7.108300  -10.447013   16.159628  0
 36.731110  -11.740140   15.072176  0
 47.085403  -11.689131   14.104069  0
 36.615124  -11.513562   13.445187  0
 64.735107  -11.997163   11.980282  0
 49.370857  -11.498793   13.568740  0
 46.125469  -11.139606   13.570769  0
 65.848190  -12.066307   10.991430  0
 60.910801  -10.895630   12.129645  0
 63.058174  -11.457563   12.054024  0
 58.542282  -11.030834   12.104142  0
 36.182446  -10.937109   11.100671  0
 50.778805  -11.603962   10.715652  0
 45.105015  -11.036600   11.040608  0
 65.961815  -12.047915   10.143444  0
 63.524364  -11.212288    9.440432  0
 56.866539  -10.768867   10.221934  0
 36.361450  -10.884728    9.633297  0
  5.432142  -10.720333   10.739186  0
 64.741226  -11.712935    9.939711  0
 51.829914  -11.410062    9.252993  0
 57.719593  -11.573097    6.496345  0
 47.453560  -12.021605    6.606593  0
  3.900444  -11.102964    5.549572  0
 36.863243  -12.145495    4.631979  0
 46.112553  -11.878111    3.221111  0
 36.715370  -11.838099    3.925750  0
  4.334390  -11.178833    4.083817  0
 52.067505  -10.807727    2.809225  0
 45.698486  -11.411223    1.925544  0
  4.970908  -11.016211    3.055035  0
 44.053322  -11.225247    0.708213  0
 36.782982  -12.416671    2.121507  0
 48.184158  -12.034973    0.128900  0
 42.066963  -11.448214   -0.401044  0
  6.014056  -10.155012    0.915253  0
 47.987385  -12.046536   -0.760394  0
 48.012753  -12.161103   -1.993260  0
 39.203644  -11.224116   -1.263173  0
 47.987202  -12.385022   -3.085488  0
 47.857956  -12.110949   -3.874580  0
 48.801109  -11.577868   -3.357560  0
 49.072113  -11.657649   -2.669082  0
 48.648056  -10.976016   -3.745200  0
 47.455971  -11.263162   -4.294710  0
  4.624991  -11.147280   -7.047699  0
 64.784348  -11.458043   -7.350247  0
 63.694942  -11.315706   -6.877748  0
 62.239128  -11.430397   -6.808345  0
 65.801003  -11.246540   -8.161443  0
 66.024307  -11.884599   -9.271289  0
 58.526272  -10.831614   -8.944704  0
 33.960060  -10.451833   -8.458462  0
 25.408842  -11.073973   -7.784526  0
 23.459089  -10.912830   -8.397655  0
 66.133591  -10.844506   -9.306044  0
 56.158169  -11.362644   -9.392162  0
 53.634274  -11.914004   -9.501949  0
 46.364731  -10.707660   -9.254531  0
 48.273808  -11.009057   -9.851319  0
 20.956116  -11.030884  -10.111452  0
 65.746208  -10.826001  -10.015421  0
 63.855911  -11.042736  -10.659369  0
  5.288907  -11.150833  -13.023595  0
 60.009071  -11.501710  -11.857594  0
 40.134811  -10.634545  -12.569638  0
 57.892666  -11.114049  -12.790996  0
 56.623459  -10.872769  -13.680691  0
  6.204710  -11.335199  -13.536000  0
 55.663837  -11.205310  -14.834329  0
 38.939007  -11.632021  -13.984397  0
 16.947588  -11.651854  -13.754516  0
 13.025842  -11.136395  -14.806093  0
  9.555863  -11.811056  -13.800913  0
 55.979156  -11.767922  -15.874885  0
 55.111767  -10.662337  -16.507252  0
 43.939644  -10.579278  -14.890762  0
 15.600226  -10.695452  -14.385635  0
 14.179829  -10.873540  -14.769043  0
 11.202193  -10.988719  -14.885249  0
  8.778865  -10.974548  -14.370592  0
 57.457542  -12.160822  -16.918983  0
 55.542694  -11.050085  -16.933540  0
 47.854427  -11.032334  -16.044106  0
 42.288891  -10.809188  -15.851254  0
 42.139606  -10.785896  -16.988914  0
 38.098450  -10.984664  -16.958271  0
 26.453487  -12.583689  -16.294580  0
 56.114635  -10.922029  -17.750591  0
 57.826550  -11.698565  -18.094748  0
 34.769867  -11.988632  -17.851002  0
 27.284948  -12.210906  -17.103765  0
 26.040983  -12.089520  -17.209494  0
 24.893723  -12.589610  -17.170580  0
 57.282097  -11.675357  -19.789190  0
 50.655388  -10.815199  -18.142212  0
 42.524361  -10.694933  -18.340700  0
 32.737522  -11.244650  -18.129795  0
 29.587322  -11.840830  -18.204762  0
 24.559258  -11.535573  -17.843325  0
 22.610153  -12.073339  -18.731009  0
 52.136154  -11.011229  -19.163013  0
 42.826977  -11.670127  -18.713278  0
 22.240374  -11.917480  -19.626820  0
 56.943188  -11.565736  -21.797987  0
 43.642124  -10.987091  -19.848087  0
 45.340542  -11.501527  -20.988836  0
 40.337448  -11.067022  -21.155773  0
 34.679649  -11.164326  -20.985085  0
 32.980995  -12.384395  -22.486723  0
 34.367546  -11.232825  -22.179897  0
 23.202251  -11.796372  -21.510080  0
 56.294212  -12.300998  -22.340246  0
 34.171337  -11.608313  -23.304504  0
 32.436932  -12.398730  -23.241816  0
 33.609383  -11.679226  -23.904505  0
 31.090607  -12.359879  -23.358980  0
 32.101513  -11.773116  -23.902721  0
 29.218880  -11.393685  -23.357843  0
 26.936758  -11.579343  -23.023655  0
 47.651157  -11.336978  -24.646847  0
 47.429234  -11.414248  -25.345587  0
 45.078934  -11.716767  -25.764261  0
 44.478672  -11.718618  -24.941973  0
 47.116821  -10.955486  -26.137722  0
 45.714375  -11.316931  -26.710846  0
 29.061975   -9.706625   63.061043  0
 31.991285  -10.102131   63.197430  0
 28.550632  -10.040749   62.690586  0
 16.021179  -10.911373   63.084995  0
 15.301697  -11.497762   62.641022  0
 16.806948   -9.749637   63.413960  0
 14.944375  -10.467144   64.075935  0
 16.875032  -10.028110   62.560345  0
 13.691520  -10.613751   64.098709  0
 12.523131  -10.281869   63.328117  0
 32.821625  -10.173935   62.596478  0
 33.719524  -10.327171   61.385269  0
 28.742319  -10.099391   61.409676  0
 15.603106  -10.926661   61.315384  0
 12.131050  -10.739611   61.996868  0
 33.674679  -10.082099   59.095753  0
 33.801746  -10.063619   60.062183  0
 15.726507  -10.576439   59.731289  0
 32.948952  -10.901951   58.510468  0
 28.719807  -10.092356   59.651157  0
 12.483047  -10.470686   59.691662  0
 12.408872  -10.939897   58.443470  0
 32.850536  -10.589709   56.795345  0
 28.442034  -10.509527   57.903419  0
 28.176844  -10.064512   56.855652  0
 12.155781  -11.191275   56.494648  0
 45.157375   -9.171728   56.292698  0
 32.964725  -10.225499   54.832775  0
 16.674072  -10.754593   56.332466  0
 32.145180  -10.512129   53.564796  0
 12.021829  -11.201476   54.615246  0
 46.409771  -10.057226   54.837048  0
 46.013264   -9.744787   53.775150  0
 45.937172  -10.440634   53.239552  0
 43.123512  -10.900802   54.922146  0
 42.210464  -10.253791   54.666988  0
 41.967834  -10.553226   53.521416  0
 27.345583   -9.933412   54.768269  0
 26.634235   -9.624424   53.486343  0
 41.714966  -10.772532   52.336670  0
 31.649345  -10.546651   52.158501  0
 25.672741  -10.818299   52.129745  0
 11.962425  -11.162893   52.296497  0
 12.733372  -10.163212   53.062733  0
 12.312275  -10.368395   51.013332  0
 40.030197  -10.143803   51.200687  0
 39.644436  -10.711358   50.009380  0
 31.110367   -9.767923   50.317059  0
 24.729805  -10.343907   51.236763  0
 23.708294  -10.098425   50.836441  0
 19.388390  -10.545325   51.091900  0
 54.013885   -8.041957   48.977524  0
 54.200069  -10.126304   48.922775  0
 44.218956  -10.023177   49.239651  0
 37.786362  -10.458666   48.916344  0
 55.284729   -9.879824   47.806282  0
 43.437908  -10.307158   48.011692  0
 42.914825   -9.977465   46.916088  0
 29.881880   -9.583692   46.577553  0
 10.897452  -10.498302   47.883644  0
 55.076328   -9.780688   46.994514  0
 36.131432   -9.900503   47.560471  0
  9.603769   -9.879721   47.093407  0
 42.482239  -10.496881   46.173370  0
 41.853741  -10.413471   45.236347  0
 34.698978   -9.936834   45.687981  0
  8.887130   -9.946500   45.968353  0
  8.842546   -9.653304   45.216515  0
 52.753975   -9.853659   45.896008  0
 46.970299   -9.966583   44.286976  0
 41.556305  -10.387589   43.787090  0
 32.808563  -10.707223   44.505974  0
 51.112331  -10.336395   43.656036  0
 46.532475   -9.908822   43.355320  0
 40.693932  -10.646479   42.822666  0
 31.881899   -9.834943   43.171970  0
 30.889780  -10.592273   44.175880  0
 50.653255  -11.342627   41.840546  0
 46.389992   -9.824194   42.426182  0
  9.638326  -10.378509   43.758011  0
 11.312504  -10.072317   43.444889  0
 44.572514  -11.138477   40.660385  0
 46.103306  -10.009158   41.593281  0
 38.062576  -10.905658   40.754448  0
 14.735380  -10.196346   41.650944  0
 51.686806  -11.192012   40.608624  0
 51.885193   -9.885499   41.457821  0
 52.279945  -10.212608   40.812218  0
 45.856045  -10.552940   40.232967  0
 37.161926  -11.016701   39.740742  0
 16.905005  -10.670412   39.866123  0
 52.800922  -10.891180   40.372978  0
 55.071411  -11.023582   39.412037  0
 54.293175  -10.449551   39.690704  0
 55.122219  -10.935795   38.454311  0
 46.971012  -11.127007   38.528797  0
 47.562813  -10.820539   36.994965  0
 37.397881  -10.500535   36.876537  0
 55.196911  -11.125031   36.991959  0
 54.401806  -10.094493   37.812386  0
 56.898037  -11.347219   34.887169  0
 55.463211  -10.897978   35.425652  0
 54.777313  -10.529152   36.295006  0
 38.237942  -10.186197   35.601662  0
 56.079075  -10.626334   33.706211  0
 43.788994  -10.391205   34.048313  0
 40.886875   -9.677358   34.183483  0
 18.260838   -9.794655   33.873497  0
 16.075932  -10.092567   33.533764  0
 11.417410  -10.561042   34.542332  0
 10.093613   -9.863317   34.390865  0
 56.526798  -10.757642   32.497452  0
 56.566414  -10.130592   31.415745  0
  9.482515  -10.247952   32.533997  0
 57.265678  -11.117449   30.711704  0
 58.930580  -11.000935   28.694374  0
 10.076844   -9.610522   28.507730  0
 57.364883  -10.720028   26.630146  0
 58.416527  -10.539603   25.571529  0
 61.081139  -10.561306   24.519386  0
 62.048840  -11.521524   23.872490  0
 62.821312  -10.804461   24.155689  0
 63.173153  -11.031500   23.489660  0
 42.651791  -10.887258   24.211512  0
 42.078220  -11.134251   23.154184  0
 41.382736  -11.017657   24.321751  0
 41.755180   -9.988064   25.175604  0
 40.204567   -9.892053   24.880625  0
 62.021370  -11.623779   23.198364  0
 62.806580  -10.780833   22.919867  0
 43.877808  -10.661774   23.368523  0
 44.491199  -10.305280   22.104105  0
  5.841501   -9.791557   23.864584  0
  5.188611   -9.427597   23.431257  0
 59.664959  -10.246561   22.438095  0
 43.191456  -10.883301   21.231113  0
 56.339397  -10.349655   20.089056  0
 52.589252  -10.453025   20.088329  0
 50.700569  -10.291548   20.042103  0
 48.797974  -11.006637   20.463280  0
 46.938019  -11.162834   20.054754  0
 45.321339   -9.964784   20.748962  0
 36.545097  -10.719037   20.974802  0
 54.187778  -10.233418   19.925634  0
 47.357033  -10.457745   19.677816  0
 45.088066  -10.461861   20.096136  0
 36.186794  -11.230967   19.581476  0
  4.908256   -9.690337   19.564905  0
 46.907448   -9.851042   19.696980  0
 37.028622  -10.573833   19.431726  0
 35.631050  -11.578043   17.753651  0
  5.392143   -9.602906   18.793938  0
 37.358013  -10.759234   18.114397  0
 36.614723  -11.207378   16.694529  0
 37.754124  -10.861346   15.415334  0
 37.708252  -10.406919   16.577702  0
  6.908015  -10.129706   14.885484  0
 38.715054  -10.260300   14.869304  0
 38.244213  -10.749952   14.125440  0
 37.794407  -10.605422   13.164927  0
  6.341979   -8.802147   13.295759  0
 50.780354  -10.790840   12.726656  0
 51.658005   -9.468431   12.996940  0
 50.015316  -10.413808   13.598112  0
 49.113075  -10.094616   13.712751  0
 47.501385  -10.394225   13.706676  0
 45.237503  -10.985578   12.439823  0
 46.604908   -9.902653   12.913740  0
 64.198135  -11.237582   11.170488  0
 62.751255   -9.802280   10.638296  0
 61.448410   -9.989244   11.389307  0
 57.625195  -10.881448   11.443606  0
 45.601707  -10.255394   11.630688  0
 36.991817  -10.201610   11.445045  0
  5.736147   -9.327944   11.487350  0
 64.965927  -11.436127   10.410015  0
 64.391144  -10.722130   10.010492  0
 52.445435  -10.492582    9.094204  0
 52.486485   -9.734764    9.877506  0
 60.848480  -10.878008    8.047518  0
 54.511314  -10.964507    8.648029  0
 56.302311   -9.464267    8.042071  0
  3.987176  -10.021529    8.632898  0
 63.589958  -10.574760    8.718707  0
 59.263031  -10.855101    6.782289  0
 54.856937   -9.751261    7.984221  0
 53.710133  -10.274686    8.445881  0
 47.731915   -9.876466    8.363304  0
 48.888176  -10.655720    6.639046  0
 36.703423  -11.273055    8.316718  0
  3.762370   -9.951164    6.944007  0
 48.622047  -11.185313    5.661428  0
 58.099800  -10.606240    5.656941  0
 37.392464  -10.260352    5.215672  0
 37.203671  -10.058576    7.409979  0
 55.661098  -10.409443    4.305612  0
 47.916843  -11.215768    3.655810  0
 53.682190  -10.952862    3.815631  0
 37.040531  -10.501076    2.565868  0
 48.421299  -10.345751    2.943808  0
 47.154415  -10.507609    1.938190  0
 37.031811  -10.750407    1.557662  0
  5.486651  -10.035729    2.143255  0
 50.914413  -10.547874    1.526191  0
 49.663445  -11.034957    0.184431  0
 46.164745  -10.364411    1.111830  0
 44.651951  -10.292274    0.098189  0
 37.172241  -10.424234    0.496786  0
 43.693584  -10.012259   -1.111557  0
 37.817242  -10.717551   -1.086977  0
  5.920821  -10.099698   -0.823564  0
 49.743439  -10.925817   -1.051888  0
 42.172234   -9.830131   -2.163812  0
 40.510197  -10.413022   -2.023750  0
 50.113129  -10.931879   -2.407624  0
 38.522881   -9.993592   -1.950282  0
  5.110636   -9.477814   -2.860376  0
 49.832672  -10.715774   -3.271137  0
  4.592401   -8.289884   -4.563811  0
 48.679909  -10.004103   -3.798635  0
 46.141640   -9.660462   -4.642685  0
 45.410236  -10.553744   -5.755368  0
 45.135670   -9.578680   -6.715204  0
 45.169724  -10.530031   -8.035412  0
 64.601738  -10.578246   -7.692213  0
 64.042854  -10.131450   -8.080711  0
 62.277840  -10.401065   -8.125410  0
 60.440643  -11.131227   -8.049986  0
 66.425293   -9.642701   -9.004645  0
 45.699829   -9.766459   -9.071884  0
 36.516888  -10.672267   -9.255154  0
 32.050865  -10.274607   -8.221167  0
 21.884766  -10.137538   -9.181750  0
  4.749928  -10.352501   -9.321196  0
 56.618755  -10.049061  -10.808527  0
 54.472054  -10.847610  -10.571700  0
 50.406349  -10.327360  -10.807671  0
 47.353672   -9.554057  -10.081409  0
 38.253540   -9.981100  -10.607194  0
 62.129063  -10.824799  -11.360332  0
 52.418148  -10.012000  -11.296158  0
 48.563332  -10.151313  -10.399909  0
 39.204754  -10.808193  -10.844225  0
  5.133097  -10.016595  -12.089577  0
 39.829758  -10.087162  -11.903884  0
 19.798500   -9.152302  -10.894643  0
 18.637365  -10.091904  -12.232322  0
 58.791965  -10.204806  -12.606174  0
 39.870419  -10.093924  -13.470849  0
 17.864943  -10.449067  -13.146440  0
  5.494543   -9.921201  -13.134799  0
 55.318184   -9.642949  -14.875858  0
 39.586571   -9.675933  -14.426653  0
 45.515099  -10.344656  -15.040299  0
 43.197079  -10.193632  -15.311011  0
 39.380650   -9.622742  -15.531975  0
 38.971680  -10.550286  -16.125729  0
 16.413177   -9.666822  -14.107530  0
 14.525677  -10.210568  -15.024789  0
 10.215466  -10.208418  -15.228426  0
  8.380935  -10.067101  -14.573352  0
  5.957691   -9.976077  -13.687282  0
 54.974007  -10.344017  -15.620639  0
 42.287441  -10.021996  -16.669590  0
 57.023224  -11.228464  -18.006865  0
 36.782261  -11.020272  -17.808434  0
 57.092850  -10.828942  -19.200994  0
 37.241310   -9.477722  -18.127518  0
 35.611027   -9.942333  -18.512165  0
 31.671053  -11.013665  -18.462240  0
 30.286602  -11.390670  -18.681126  0
 28.038977  -11.365740  -18.340471  0
 25.602304  -10.985108  -18.095442  0
 22.919073  -11.157797  -18.471272  0
 33.245090  -10.035807  -18.961462  0
 29.493109  -10.548069  -19.662485  0
 28.449839  -10.025135  -19.887722  0
 26.639589  -10.017513  -19.077002  0
 22.974857   -9.751839  -19.070353  0
 21.947645  -10.185303  -19.575359  0
 57.207630  -10.583430  -20.835434  0
 53.396286  -10.816179  -20.233498  0
 21.718544  -10.223744  -20.334299  0
 53.854805   -9.901841  -21.343710  0
 55.095749  -10.932660  -22.213717  0
 38.766273  -10.648826  -20.761600  0
 36.780380  -10.415005  -21.066580  0
 21.950480  -10.086190  -21.126194  0
 56.098526  -11.333714  -22.523949  0
 45.293259  -10.772993  -21.578270  0
 41.244633  -10.760746  -22.305305  0
 23.161602  -10.510876  -22.219965  0
 45.880665  -10.212828  -23.410139  0
 45.127754  -10.145700  -22.261473  0
 47.323704  -11.079748  -23.998486  0
 34.868111  -11.176140  -23.960831  0
 34.931473  -10.531161  -24.552177  0
 33.207684  -10.655022  -24.413210  0
 31.284819   -9.961392  -24.193815  0
 27.858280  -10.181980  -23.760193  0
 25.973000   -9.896572  -23.766180  0
 47.202232  -10.380193  -25.754206  0
 43.207687  -10.810461  -25.303104  0
 42.204029  -10.888514  -24.097939  0
 41.259541  -10.104636  -25.213728  0
 42.757271   -9.862059  -26.269682  0
 44.374104  -10.607149  -26.984207  0
 42.936146   -8.835479  -27.375200  0
 46.362411  -10.420109  -26.850777  0
 45.145897  -10.085789  -27.197340  0
 43.757050   -8.821384  -27.617844  0
 28.206230  -15.153525   65.157814  0
 31.924631   -9.284443   62.950794  0
 30.374119   -9.315253   63.168732  0
 15.995985   -9.443057   63.801559  0
 34.025394   -9.766557   61.797199  0
 33.975708   -9.255552   61.819775  0
 29.565329   -8.881572   62.018631  0
 12.101402   -9.110326   62.622360  0
 12.036566   -9.453658   61.495979  0
 34.595806   -9.370066   60.673992  0
 29.806950   -8.862107   60.674709  0
 16.378693  -10.050053   61.475479  0
 12.513293   -9.326092   59.007462  0
 29.542826   -8.999785   59.550777  0
 17.030294   -9.586392   60.833462  0
 16.431509  -10.053337   58.563721  0
 12.754589  -10.086351   58.862579  0
 33.773319  -10.172535   57.752621  0
 34.594769   -9.036617   57.324905  0
 29.073833   -9.256250   57.982395  0
 12.683745  -10.242213   57.369713  0
 12.832027   -9.442422   56.973175  0
 33.600193   -9.724499   55.951294  0
 34.343754   -8.823277   56.271435  0
 17.628641   -9.490759   57.897469  0
 43.832767   -9.167255   56.775299  0
 45.732761   -8.707218   55.432152  0
 42.932854   -9.731716   56.766399  0
 42.304279   -9.598710   55.801880  0
 33.618465   -8.964140   55.123058  0
 28.046751   -8.902442   55.963665  0
 12.826908  -10.172372   55.487926  0
 13.052322   -9.321732   55.100552  0
 27.693178   -8.156368   55.062420  0
 18.154287   -9.871072   55.421368  0
 40.751827   -9.120343   54.293606  0
 33.166718   -9.417834   54.078243  0
 18.862370  -10.084276   53.155239  0
 12.947704   -9.353401   53.843575  0
 41.107227   -9.841269   52.753235  0
 32.402367   -9.423849   53.045906  0
 31.795168   -9.247073   51.386471  0
 25.696692   -9.215566   52.003792  0
 12.668980   -9.272183   52.177216  0
 45.187122   -9.539206   51.628654  0
 39.140625   -8.987046   52.036972  0
 12.008929   -9.466799   50.092415  0
 22.885098   -9.618002   50.843067  0
 21.750172   -9.528438   51.130768  0
 54.875504   -9.129819   48.579666  0
 53.141506   -7.517415   48.991451  0
 37.972988   -9.293210   49.891529  0
 36.961575   -9.235177   49.012043  0
 30.713076   -9.464292   48.698685  0
 11.576473   -9.840017   48.877300  0
 50.971317   -8.801322   48.434422  0
 36.653412   -9.499299   48.293282  0
 30.012745   -8.982542   47.392242  0
 35.332729   -9.447451   46.528168  0
 42.041954   -9.463504   45.332504  0
 29.645466   -9.340096   44.695732  0
 51.834583   -9.473025   45.248123  0
 33.355213   -9.527144   43.700302  0
  9.550213   -8.801342   44.779800  0
 41.782780   -9.397000   43.729118  0
 29.827141   -8.902418   43.329227  0
 51.375687   -9.828012   42.629192  0
 41.401089   -9.559735   42.702961  0
 30.924025   -9.439890   42.920654  0
 11.118304   -9.049953   44.032276  0
 40.946827   -9.178625   41.205826  0
 39.839172  -10.292136   41.139534  0
 14.091209   -9.451297   42.100193  0
 12.501899   -9.195161   43.299988  0
 52.613400   -8.815218   40.575993  0
 46.852512   -9.738911   40.906628  0
 16.367979   -9.300100   39.659519  0
 15.054670   -9.234395   41.093056  0
 53.559944   -9.535415   39.939323  0
 48.067905   -9.843929   40.258862  0
 39.785320   -9.445342   40.217598  0
 38.530655  -10.005914   39.727627  0
 54.023415   -8.965712   38.578117  0
 49.663536   -9.722415   39.604149  0
 48.831963  -10.331560   39.062260  0
 49.689503   -9.833113   38.587845  0
 37.824146  -10.087675   38.022121  0
 17.856441   -9.301301   38.096642  0
 54.295933   -9.045611   37.334770  0
 48.662815  -10.502715   37.975079  0
 49.958637   -9.153898   37.063274  0
 18.556086   -8.809095   36.900578  0
 54.635979   -9.705819   36.087486  0
 46.788857  -10.395627   35.386051  0
 18.811394   -8.791895   35.571140  0
 55.412197   -9.855067   34.026962  0
 45.860287   -9.867774   34.186104  0
 44.754749   -9.446249   33.351322  0
 42.852390   -9.360177   33.642963  0
 18.699034   -8.993208   34.502815  0
 13.728404   -9.316592   33.794083  0
 11.016273   -9.467569   34.451469  0
  9.662223   -8.967559   33.865746  0
 55.740337   -9.876277   33.065544  0
 16.972759   -8.642460   33.510010  0
 56.258209   -9.679753   32.235458  0
 57.483513   -9.655268   30.068216  0
  8.721210   -8.612833   29.585152  0
 60.048321  -10.248046   28.926235  0
 59.285473   -9.785774   29.362133  0
 59.927494  -10.112856   27.906416  0
 11.637435   -9.370404   28.205324  0
 12.240686   -8.965313   27.733660  0
 58.801624  -10.067512   26.846327  0
 12.572248   -9.599258   27.368206  0
 12.425071   -9.924313   26.746021  0
 59.556980   -9.728389   26.096287  0
 60.935448   -9.595253   25.403257  0
 43.973507  -10.276781   24.794201  0
 44.502293   -9.726912   25.157900  0
 45.335133  -10.343853   24.163923  0
 46.129181   -9.923430   24.824814  0
 42.665874  -10.322042   25.029285  0
 38.656624   -9.329700   24.219402  0
 40.088169   -8.823401   24.849068  0
 10.371674   -8.842793   25.606699  0
 65.626419   -9.939409   23.841669  0
 64.593773  -10.565477   23.922441  0
 65.215538  -10.180569   23.044195  0
 66.044983   -9.525461   23.183088  0
 65.041916   -9.453805   24.750669  0
 62.870800   -9.437984   24.939714  0
 48.839237  -10.073927   23.722754  0
 48.363266   -9.657817   24.539656  0
 50.484581   -9.661519   23.984568  0
 51.291775   -9.783954   23.165554  0
 49.665577   -9.999405   22.814165  0
 46.906849  -10.127810   22.871931  0
 37.208794   -9.188069   23.089340  0
  7.391170   -8.094435   24.687109  0
 64.402405  -10.365490   22.854654  0
 51.205467   -9.666866   22.089437  0
 48.583916   -9.644650   22.044888  0
 47.460041   -9.471296   21.233604  0
 36.950958   -9.655072   21.812675  0
  4.827850   -8.524904   22.714733  0
 63.925056   -9.780529   22.572233  0
 61.422630  -10.008958   22.617197  0
 58.607578   -9.821403   21.873264  0
 57.443024  -10.097440   21.056990  0
 50.773304   -9.432007   20.907633  0
 46.989670   -9.396824   20.392721  0
  4.636441   -8.327809   21.110188  0
 57.113449   -9.723378   20.147985  0
 46.026920   -9.782458   19.991182  0
 36.758881   -9.582025   20.363966  0
 56.896942   -8.976136   19.875776  0
 55.872898   -9.640395   19.655994  0
 52.679688   -9.663407   20.196310  0
 54.234554   -9.356568   20.293753  0
 49.583447   -9.758107   20.109745  0
 55.766830   -8.950334   19.883505  0
 36.992729   -9.740741   18.851339  0
 37.490917  -10.014068   18.344198  0
 37.638348   -9.846704   16.865818  0
  6.682466   -8.531533   16.930199  0
 38.260303   -9.461867   15.609736  0
 39.321720   -9.476081   14.761923  0
 40.506237   -9.765841   14.068972  0
 40.822952   -9.955611   13.351250  0
 41.729683   -8.984632   13.126269  0
 52.176239   -9.601619   12.251894  0
 50.468204   -9.560222   13.457701  0
 47.982548   -9.167163   13.006200  0
 40.909203   -9.836741   12.729236  0
 41.783600   -9.140213   12.481984  0
 39.441647  -10.115365   12.992466  0
 60.499893   -9.611378   11.072524  0
 47.270168   -8.992582   11.881348  0
 38.398514   -9.839746   12.133091  0
 59.658566   -9.189095   10.109486  0
 46.310093   -9.836342   10.437604  0
 37.335300   -9.653153    9.554853  0
  4.978084   -8.970111   10.495472  0
  4.520127   -8.006989    9.669874  0
 64.490814  -10.471213    9.225945  0
 64.499382   -9.801657    9.462594  0
 65.629311   -9.905720    8.283728  0
 47.025547   -9.395302    9.624633  0
 47.750473   -9.077949    9.118566  0
 36.953308  -10.314884    8.738756  0
 64.238617   -9.959421    7.677976  0
 61.988022  -10.101852    7.343963  0
 60.332130  -10.092173    6.607267  0
 58.089436   -9.254199    8.844707  0
 53.937599   -8.820838    8.064836  0
 53.325035   -9.434407    8.675359  0
 49.500290   -9.639391    7.109924  0
 54.875481   -8.492014    7.449486  0
 49.865459   -9.970961    5.696510  0
 50.183746   -9.360801    6.384849  0
 50.198303   -8.599489    7.185703  0
  3.994071   -8.802562    4.499144  0
 58.771767   -8.962376    4.808757  0
 49.421478  -10.199452    4.364818  0
 49.476772   -8.782937    2.987109  0
 50.429882   -8.706740    4.519091  0
 37.403408  -10.132896    4.166536  0
 55.324963   -9.336350    3.105011  0
 37.624065   -9.415145    3.250157  0
  4.483923   -9.337041    3.162864  0
 52.595486   -9.646893    1.481916  0
 47.794735   -8.917250    1.722221  0
 37.114788   -9.120830    1.291007  0
 51.308815   -9.979479    0.289189  0
 37.011574   -8.738726   -0.276496  0
 51.231037  -10.136754   -1.134547  0
 46.506809   -8.432206    0.242193  0
 37.292747   -9.334279   -1.040863  0
 51.641438  -10.148197   -2.558085  0
 43.239922   -9.308421   -2.073082  0
 50.937767   -9.776011   -3.367612  0
 47.520981   -8.669012   -4.026287  0
 45.406219   -9.450727   -5.274651  0
  4.433668   -8.334603   -6.162745  0
 65.812851   -9.976659   -8.095847  0
 45.293884   -8.884817   -8.374248  0
 31.122408   -9.419073   -8.237325  0
 33.090530   -9.256280   -8.720216  0
 28.178129   -7.627385   -8.021006  0
 29.840767   -8.366005   -8.204903  0
 25.074289   -8.491400   -7.861705  0
  4.693799   -8.642343   -8.092566  0
 63.284813   -8.885389   -9.153446  0
 61.364883   -9.560179   -9.083734  0
 34.898132   -9.765733   -9.289715  0
 33.515068   -8.428514   -9.312426  0
 22.207939   -8.164231   -8.648010  0
 66.209976   -9.097793  -10.160226  0
 59.705929   -9.009407  -10.380662  0
 35.782219   -8.468590  -10.354744  0
 20.967196   -9.266579   -9.679756  0
  5.233692   -8.544552  -10.437507  0
 65.404854   -9.233200  -10.768332  0
 61.763721   -9.685187  -11.999801  0
 63.843105   -9.140195  -11.530509  0
 55.186672   -9.680011  -11.483532  0
 50.073269   -9.185609  -11.126847  0
 54.419434   -8.795774  -11.851629  0
 52.190323   -8.849947  -11.619372  0
 58.431267   -8.850910  -13.206559  0
 54.787876   -9.191451  -15.948250  0
 14.970370   -9.029099  -15.164145  0
  9.578629   -9.142801  -15.328658  0
  7.597694   -8.218665  -14.461016  0
 54.772869   -9.282366  -17.299360  0
 46.808590   -9.344586  -15.883100  0
 42.604382   -9.276913  -16.220470  0
 38.898842   -9.419879  -16.740353  0
 13.501875   -9.642839  -16.201326  0
 11.969419   -9.846226  -16.287930  0
 11.140725   -9.114673  -16.572731  0
 55.267647   -9.931372  -18.315350  0
 54.857262   -9.094960  -18.327812  0
 48.037018   -8.809110  -16.707394  0
 49.838791   -9.078287  -18.140957  0
 42.369888   -9.371247  -18.054512  0
 55.170723   -8.822766  -19.366474  0
 12.611058   -8.831367  -16.847527  0
 56.588451   -9.922891  -20.255518  0
 55.770332   -9.107799  -20.218094  0
 51.534836   -9.837917  -18.963728  0
 42.832443   -9.654106  -19.843740  0
 35.097717   -9.247220  -19.261490  0
 31.692677  -10.074109  -19.889347  0
 27.500101   -8.421780  -20.870375  0
 24.515707   -9.694975  -18.917936  0
 52.521038   -9.708911  -19.961435  0
 31.272518   -9.169899  -21.076057  0
 21.430967   -9.008310  -20.230961  0
 21.274649   -9.142694  -20.955961  0
 56.839401   -9.823492  -22.459309  0
 55.005394  -10.007546  -22.819447  0
 43.579922   -9.780899  -21.163454  0
 39.155273  -10.101872  -21.493883  0
 35.906368  -10.247556  -22.210461  0
 36.871479   -9.770630  -22.211611  0
 29.238897   -8.958420  -20.986837  0
 56.553860  -10.552336  -22.785524  0
 55.780182  -10.459132  -23.070330  0
 56.725590   -9.894485  -23.158504  0
 40.514313  -10.104694  -22.933245  0
 38.338245   -9.608989  -22.175999  0
 35.707863  -10.594276  -23.734385  0
 22.088688   -9.340429  -21.776424  0
 56.172920   -9.984879  -23.549931  0
 36.821815  -10.057168  -23.988657  0
 24.443476   -9.032083  -23.692554  0
 22.592310   -8.787297  -22.464897  0
 46.574036   -9.919502  -25.317844  0
 40.819801  -10.192930  -24.526611  0
 39.337566   -9.702147  -23.326822  0
 39.530785   -9.860279  -24.079338  0
 39.624290   -9.650826  -25.006044  0
 35.786961  -10.105132  -24.886442  0
 29.383966   -9.337367  -24.172792  0
 36.815502   -9.559703  -25.082581  0
 34.082867   -9.746836  -24.816107  0
 46.707932   -9.883699  -26.351131  0
 18.171961   -9.212118   63.105465  0
 18.572037   -9.143840   61.887428  0
 18.971130   -8.373124   63.733704  0
 18.037769   -8.468397   63.709755  0
 19.578291   -8.740531   62.805515  0
 16.700712   -8.315970   63.709694  0
 14.906978   -8.388483   63.792000  0
 13.315138   -8.358706   63.762463  0
 12.692574   -8.883859   63.479660  0
 33.801666   -8.445157   61.673340  0
 32.591881   -8.133802   61.853844  0
 31.703146   -7.772330   61.660492  0
 30.278515   -8.252040   61.891056  0
 11.614812   -8.072169   61.809555  0
 34.752224   -8.472303   61.035652  0
 19.364491   -8.698321   60.479973  0
 11.542476   -8.084848   60.510353  0
 34.761620   -8.447762   59.265156  0
 35.137280   -8.234315   60.133034  0
 30.814623   -7.904854   60.037231  0
 34.764206   -8.240575   58.025620  0
 30.206144   -8.084910   58.903492  0
 18.760920   -8.991747   57.230011  0
 12.000091   -8.133655   58.950596  0
 29.836809   -8.233458   57.815273  0
 12.369250   -8.467538   57.466099  0
 35.018696   -7.983291   56.842983  0
 29.006784   -8.048460   56.553944  0
 42.078350   -9.025175   56.690311  0
 42.525146   -8.566273   57.005409  0
 19.718090   -9.130974   55.533161  0
 20.106773   -8.490184   57.149761  0
 12.805880   -8.618004   55.355736  0
 41.341259   -8.264082   55.872787  0
 45.560703   -8.056377   54.612648  0
 44.897472   -7.947000   53.862785  0
 40.244686   -7.660861   54.420330  0
 27.088694   -7.449177   54.118778  0
 26.193605   -7.923357   53.107849  0
 20.496941   -8.975041   54.243401  0
 45.349968   -9.283903   52.813976  0
 40.158524   -9.000994   53.090622  0
 39.964211   -8.267082   53.491192  0
 33.057873   -7.592522   53.891090  0
 32.306973   -8.262069   52.849667  0
 12.536983   -8.518880   53.247120  0
 44.373978   -7.865018   51.901230  0
 39.388351   -7.762216   52.453369  0
 38.640511   -8.042053   51.516659  0
 31.488892   -7.745050   51.317329  0
 21.024748   -9.235889   52.227936  0
 11.655312   -8.290998   50.956223  0
 44.112335   -8.854212   50.784073  0
 38.469044   -9.002522   50.833889  0
 37.930183   -8.324927   50.266365  0
 25.217915   -8.013064   52.131878  0
 23.988529   -7.973719   51.894123  0
 23.044876   -8.655539   51.549133  0
 43.587257   -8.713555   49.384956  0
 36.806927   -8.279391   49.027676  0
 31.016197   -8.054381   50.295666  0
 30.563576   -8.341574   48.734333  0
 10.584475   -8.475369   49.010715  0
 43.052410   -8.946267   48.165508  0
 54.933578   -8.059614   48.404678  0
 55.005985   -7.889989   47.796886  0
 52.213451   -7.649234   48.793713  0
 50.310204   -8.040921   47.388607  0
 42.582466   -8.114180   47.283386  0
 35.705578   -8.342153   47.248692  0
  9.834469   -7.759417   48.502594  0
  9.087587   -8.499359   47.145088  0
 29.076408   -7.866610   45.858505  0
  8.893969   -8.302719   46.438999  0
 54.614666   -8.557826   46.898174  0
 53.735264   -8.570062   46.159672  0
 52.615047   -8.497388   45.439331  0
 49.192207   -8.383611   46.269287  0
 48.595428   -8.349083   45.242134  0
 34.760735   -8.392117   45.124008  0
  9.180039   -7.913539   45.966507  0
 47.764851   -8.616937   43.979622  0
 41.969482   -7.898696   45.152500  0
 51.722958   -8.821424   44.379429  0
 47.231487   -8.907334   43.015972  0
 33.871750   -7.866035   43.117245  0
 51.661213   -8.870502   43.259071  0
 33.287594   -8.532000   42.674145  0
 32.254383   -8.115319   42.003429  0
 52.017372   -8.729218   42.227356  0
 52.004311   -8.180196   41.357071  0
 47.866802   -8.924842   41.929661  0
 48.077251   -8.234664   43.056866  0
 41.569450   -8.047075   41.961395  0
 30.973358   -8.016514   41.932251  0
 30.019186   -7.866197   42.205700  0
 14.548656   -8.889300   42.058987  0
 49.822060   -8.763844   41.194309  0
 50.084915   -9.189654   40.444820  0
 16.494736   -8.541037   39.940968  0
 53.247585   -8.353168   39.932404  0
 39.347958   -9.011148   39.224167  0
 41.072407   -7.794450   39.883724  0
 53.690502   -8.285650   39.072506  0
 51.039532   -8.948980   39.268917  0
 39.140648   -8.647041   38.023491  0
 17.594204   -8.240085   38.223072  0
 54.639416   -8.061307   37.945007  0
 38.395828   -9.102231   37.185345  0
 38.364670   -9.031434   36.220024  0
 55.077385   -8.221183   37.091328  0
 55.244148   -8.781775   35.671970  0
 47.997116   -9.179816   34.773239  0
 39.128456   -8.329422   35.567963  0
 40.047913   -8.457046   34.631287  0
 47.095078   -8.842921   32.858002  0
 48.768574   -8.558137   33.718624  0
 41.814190   -8.315763   33.705864  0
 18.278355   -7.922642   34.060921  0
 13.028329   -7.934478   34.187733  0
 11.335732   -8.572944   34.508255  0
 10.231127   -8.541881   34.474659  0
 56.079967   -8.902304   33.485218  0
 46.561195   -8.601434   32.287773  0
 44.304356   -8.547814   32.723850  0
 43.230892   -8.094751   32.906876  0
 17.835159   -8.147120   33.685806  0
 15.076928   -7.135466   33.907875  0
 56.975662   -8.868484   31.192568  0
 46.124840   -8.039562   31.832645  0
  9.612883   -8.318591   32.440453  0
  9.363169   -7.923787   31.399038  0
 57.916313   -8.348701   30.367434  0
 60.619911   -8.882844   28.862125  0
 58.919304   -8.377755   29.609133  0
  9.063399   -7.955166   28.816750  0
 63.667000   -8.811930   27.535311  0
 61.390453   -9.389320   28.174143  0
 61.401066   -9.318844   26.896595  0
 62.936329   -8.408006   28.247686  0
 11.477335   -7.260655   28.276653  0
 63.793507   -8.986639   26.562866  0
 62.664253   -8.959816   25.846558  0
 11.962131   -8.730539   26.737238  0
 65.694069   -8.274829   25.687817  0
 64.584747   -9.046850   25.658001  0
 66.183220   -8.253572   24.519308  0
 47.152637   -9.149570   25.203907  0
 44.946842   -8.602081   25.422434  0
 48.049282   -8.017144   25.167101  0
 41.673996   -8.575879   25.236475  0
  8.861454   -8.148523   25.157129  0
 51.802525   -9.172097   24.034565  0
 52.747227   -9.243419   23.429943  0
 52.424824   -8.477376   24.064608  0
 49.813255   -8.856497   24.660849  0
 53.699505   -9.315022   22.304892  0
 54.329449   -8.743094   23.042795  0
 54.873108   -8.896295   22.150126  0
 52.529037   -9.551202   22.259550  0
 36.444836   -8.625934   21.489500  0
 65.921440   -8.865257   22.549511  0
 64.930267   -8.682958   21.793997  0
 62.737766   -8.927653   22.116835  0
 60.937157   -9.250048   22.232616  0
 59.282303   -8.838039   21.425949  0
 55.874580   -8.248752   21.988960  0
 55.856113   -8.557113   20.711313  0
 54.655251   -9.090658   20.955238  0
 53.164833   -9.371989   21.173910  0
 49.139084   -9.456204   20.598375  0
 60.926140   -8.532073   21.426348  0
 58.136654   -8.602171   20.563850  0
 59.578087   -8.110421   20.663597  0
 35.709370   -8.817471   19.166819  0
 35.081112   -8.079535   19.731533  0
 35.799187   -8.980291   18.336056  0
 36.320362   -9.141796   16.999218  0
  6.081250   -8.162723   17.722794  0
  5.299581   -7.576914   18.452318  0
 37.264278   -9.036858   15.856343  0
 36.382069   -8.598049   15.260821  0
 40.690475   -8.791273   13.948144  0
  6.580386   -6.977609   14.751361  0
 41.455086   -8.016764   12.778773  0
 52.923908   -8.701795   12.579437  0
 50.995956   -8.426223   12.962250  0
 53.409389   -8.587595   11.807726  0
 49.399994   -8.273467   12.534762  0
 48.071278   -8.629568   12.403336  0
 41.799870   -8.001266   12.149766  0
 41.402073   -8.327980   11.257226  0
 41.258568   -9.208454   11.967087  0
 40.145168   -9.010412   11.311100  0
  5.862596   -7.942719   12.437826  0
 62.115547   -8.919706   10.200521  0
 53.047306   -8.860000   10.680325  0
 47.637680   -8.787786   10.133822  0
 38.484821   -9.034593   10.060781  0
 61.247177   -8.313260    9.710404  0
 40.650719   -7.971531    9.527966  0
 65.689171   -8.973660    8.542047  0
 64.360138   -8.229143    9.004992  0
 66.573959   -8.324929    7.677845  0
 60.595093   -7.638847    8.719800  0
 48.555389   -8.730882    9.081738  0
 38.439560   -8.552532    8.532978  0
 65.824722   -9.403017    6.819259  0
 66.847672   -8.836226    7.051548  0
 58.443012   -7.870112    7.559005  0
 53.762024   -8.219579    9.049038  0
 49.512627   -8.179033    8.590321  0
  4.169113   -7.620644    8.002613  0
 64.050156   -9.075932    6.625295  0
 62.271877   -9.332758    6.659799  0
 56.656994   -7.694466    6.888196  0
 38.106358   -8.701503    6.267583  0
  3.898242   -8.325127    6.095327  0
 60.695431   -8.837585    5.837080  0
 50.891396   -8.016844    5.521909  0
 57.664139   -8.668695    3.933841  0
 38.535362   -8.204536    4.392446  0
 55.149548   -8.810913    2.039836  0
 37.660007   -8.550155    2.197459  0
  4.425027   -7.729434    3.382893  0
 54.353527   -8.790821    0.957868  0
  5.683559   -8.454329    1.782063  0
 53.497299   -8.988236   -0.052750  0
 36.922012   -7.337987    0.064780  0
  6.096110   -6.915063    0.437300  0
 53.114014   -9.386196   -1.729723  0
  6.111711   -7.464784   -0.608769  0
 52.758148   -9.233681   -2.618214  0
 54.387093   -8.648655   -2.126409  0
 44.258759   -8.099606   -1.986102  0
 37.382889   -8.636541   -1.447559  0
 52.831318   -8.389562   -2.714994  0
 38.635372   -8.841778   -2.486563  0
 51.664391   -8.870828   -3.229653  0
 42.662632   -7.843024   -3.053085  0
 41.380016   -7.427870   -3.689247  0
 40.172794   -8.770037   -2.963964  0
 48.995869   -8.578882   -3.609979  0
 45.218285   -8.224299   -5.785011  0
 65.091118   -8.110678   -9.313845  0
 66.192413   -8.602983   -9.091077  0
 66.185417   -8.107724  -10.072134  0
 46.007660   -8.488955   -9.325188  0
 31.525576   -8.250848   -8.868896  0
 20.420410   -7.239404   -9.455268  0
 63.225121   -7.626400  -10.437970  0
 47.282127   -8.310943  -10.073686  0
  5.022625   -8.196665   -9.178425  0
 57.809738   -8.723761  -11.485889  0
 49.025112   -8.366308  -10.681456  0
 37.961632   -8.024956  -11.556918  0
 65.656204   -8.229808  -10.853231  0
 64.406105   -8.043556  -11.614014  0
 63.063484   -7.913994  -12.594437  0
 57.350891   -7.884616  -12.033095  0
 51.227032   -8.223983  -11.440475  0
 39.292839   -8.509420  -12.272190  0
 17.850710   -8.268603  -12.302177  0
  6.186088   -7.338459  -12.597048  0
 61.099861   -7.712344  -13.138286  0
 56.962696   -7.736892  -13.885104  0
 39.948677   -8.658055  -13.427787  0
 39.952133   -8.054468  -14.969364  0
 16.525402   -8.123418  -13.649202  0
 15.664666   -7.639577  -14.413969  0
 55.691467   -7.595898  -14.912573  0
 55.191578   -7.563230  -16.895206  0
 44.903500   -8.358871  -15.877184  0
 43.506424   -8.635298  -15.852808  0
 42.681782   -7.755782  -16.918814  0
 13.571314   -8.335190  -16.527765  0
 10.491779   -8.043023  -16.482090  0
 42.247536   -8.232428  -17.651190  0
 42.290863   -8.539336  -18.907354  0
 38.935204   -7.291238  -16.671452  0
 38.081612   -7.943249  -17.639904  0
 37.318432   -8.194275  -18.881109  0
 11.503842   -8.011310  -16.866196  0
 51.350204   -8.966781  -19.360722  0
 36.437115   -8.889644  -19.122803  0
 34.154942   -9.115713  -20.557762  0
 25.647150   -8.876434  -19.812525  0
 22.173119   -8.621076  -19.838842  0
 23.711729   -8.643601  -19.671862  0
 56.441425   -9.140956  -21.611994  0
 42.400810   -8.554926  -21.197161  0
 35.057251   -8.218483  -21.455500  0
 32.847824   -9.161825  -21.035986  0
 21.385069   -8.246423  -21.362112  0
 53.624611   -8.762966  -22.678747  0
 44.057892   -9.165284  -23.190058  0
 42.919315   -8.726542  -22.426989  0
 37.893047   -9.549562  -22.989786  0
 32.975372   -8.012028  -21.771963  0
 55.047337   -9.045138  -24.036016  0
 38.021343   -9.758018  -23.759466  0
 23.145866   -8.214096  -23.406679  0
 56.310169   -9.137321  -23.812407  0
 44.781021   -8.721785  -24.725065  0
 38.161339   -9.761979  -24.519564  0
 31.471327   -7.992893  -24.547300  0
 27.448675   -8.136813  -24.759647  0
 26.253096   -8.746715  -24.457552  0
 38.233261   -9.159643  -25.362514  0
 35.616154   -8.763224  -25.330004  0
 33.918243   -7.996279  -24.986441  0
 46.018303   -8.992026  -26.892792  0
 40.013905   -8.867705  -25.998304  0
 37.220921   -8.219783  -25.809021  0
 41.096066   -8.121531  -26.963602  0
 44.416077   -8.253726  -27.645935  0
 18.125223   -7.602865   64.051514  0
 20.007391   -7.950803   64.384354  0
 20.015339   -7.493134   65.157997  0
 20.873322   -7.669855   65.023628  0
 21.332668   -7.976096   63.401310  0
 13.537601   -6.483853   63.691177  0
 11.841239   -7.428909   63.096100  0
 20.207962   -8.648206   62.081799  0
 10.995117   -7.220856   60.890438  0
 11.261711   -7.158940   62.243282  0
 34.671040   -7.160823   60.331444  0
 33.593826   -7.283062   61.094124  0
 31.206310   -7.573661   61.147408  0
 21.455975   -8.129224   61.908878  0
 34.951168   -7.450681   59.631207  0
 21.347666   -7.897466   60.443615  0
 11.188303   -7.051327   58.875183  0
 34.495003   -7.048362   58.760437  0
 21.112734   -7.965457   58.559471  0
 34.974880   -7.046381   57.353619  0
 11.226248   -7.292103   56.780537  0
 34.989880   -7.099303   56.413647  0
 21.207577   -7.979114   57.009007  0
 21.053097   -8.284462   56.046844  0
 21.925394   -7.228205   57.424831  0
 12.124965   -7.927575   55.833286  0
 43.845623   -7.078053   56.403374  0
 43.138092   -7.812479   56.856232  0
 44.919170   -7.269602   55.864315  0
 42.312340   -7.105423   56.546112  0
 41.803608   -8.182793   56.713318  0
 41.400497   -7.034992   55.766171  0
 34.151188   -6.520275   55.183998  0
