#!ascii file
22558  22833  23064  0
22822  23071  23072  0
22822  23072  23073  0
22822  23073  22823  0
23074  22823  23073  0
22836  22811  22572  0
23075  23066  23065  0
23075  23065  23076  0
22299  23066  23075  0
23066  22299  22815  0
22286  22815  22299  0
22821  22826  23070  0
23077  23070  22826  0
22826  22828  23077  0
22828  22831  23077  0
23078  23077  22831  0
23079  23078  22831  0
22831  22837  23079  0
22833  23080  23064  0
22834  22823  23074  0
22568  22569  23081  0
22824  23081  22569  0
22559  23068  22824  0
22839  22837  22830  0
22837  22839  23082  0
22832  23063  23083  0
22832  23083  22578  0
22833  23084  23080  0
22833  22838  23084  0
22296  22835  22576  0
22836  22845  23085  0
23075  23086  22299  0
23087  23082  23088  0
23087  23088  23089  0
22582  22299  23086  0
22839  22840  23088  0
23090  23088  22840  0
22839  23088  23082  0
22849  23088  23090  0
23088  22849  23089  0
22843  23089  22849  0
23083  22841  22578  0
22582  23086  22848  0
22840  22585  23090  0
23091  23090  22585  0
23090  23091  22849  0
22587  22851  22846  0
23092  22846  22851  0
22589  22852  22853  0
22854  22853  22852  0
22592  22855  23093  0
22585  22599  23091  0
23094  22849  23091  0
22849  23094  22842  0
23095  22842  23094  0
22842  23095  22850  0
23096  22850  23095  0
22850  23096  22856  0
22600  22319  23097  0
22852  22858  22854  0
23098  23094  23091  0
23095  23094  23098  0
23096  23099  22856  0
22856  23099  22851  0
23091  23100  23098  0
23091  22599  23100  0
22860  23100  22599  0
23098  23100  23101  0
23098  23101  23095  0
22600  23097  22328  0
22861  22862  23102  0
22862  22335  23102  0
23103  23102  22335  0
22604  22865  23104  0
22866  23103  22335  0
22867  22614  23105  0
22874  23105  22614  0
23106  22867  23105  0
23105  22874  23106  0
23107  23106  22874  0
22604  23104  23108  0
22874  22875  23107  0
22604  23109  22876  0
22870  22879  23110  0
22870  23110  22618  0
22618  23110  23111  0
22618  23111  22619  0
23112  22880  22881  0
23112  22881  23113  0
23112  23114  22880  0
22880  23114  23115  0
22880  23115  22871  0
22871  23115  23116  0
22871  23116  22882  0
22882  23116  23107  0
22882  23107  22875  0
22876  23109  23117  0
22876  23117  23118  0
22876  23118  22877  0
22877  23118  23119  0
22877  23119  22878  0
22878  23119  23120  0
22878  23120  22879  0
22619  23111  23121  0
22619  23121  22624  0
23113  22881  22886  0
23113  22886  23122  0
23113  23122  23123  0
23113  23123  23112  0
22630  23124  22887  0
22630  22888  23124  0
22888  22889  23125  0
22888  23125  23124  0
22889  22883  23126  0
22889  23126  23125  0
22883  22884  23127  0
22883  23127  23126  0
22884  22885  23127  0
22885  22624  23121  0
23122  22886  22891  0
23122  22891  23128  0
23122  23128  23123  0
23129  22896  23130  0
23129  23130  23131  0
22896  23132  23130  0
22896  22897  23133  0
22896  23133  23132  0
22897  23134  23133  0
22897  22898  23134  0
22898  22887  23135  0
22898  23135  23134  0
22887  23124  23136  0
22887  23136  23135  0
23124  23137  23136  0
22891  22899  23138  0
22891  23138  23128  0
22899  22900  23139  0
22899  23139  23138  0
22900  22893  22901  0
22900  22901  23139  0
23140  22905  23141  0
23140  23141  23142  0
23140  23142  23143  0
23140  23143  23144  0
23140  23144  22905  0
23145  22905  23144  0
23142  23141  23146  0
23142  23146  23147  0
23142  23147  23148  0
23142  23148  23143  0
23147  23146  23149  0
23147  23149  23150  0
23147  23150  23148  0
23151  23152  22903  0
23151  22903  23129  0
23151  23129  23131  0
23153  23152  23151  0
23129  22903  22896  0
23139  23154  23138  0
23139  22901  23154  0
22901  23155  23154  0
22901  22904  23145  0
22901  23145  23155  0
22904  22905  23145  0
22905  22906  22908  0
22905  22908  23141  0
23141  22908  22909  0
23141  22909  23146  0
23146  22909  23156  0
23146  23156  23149  0
23149  23156  23157  0
23149  23157  23158  0
23149  23158  23153  0
23149  23153  23150  0
23158  23157  23159  0
23158  23159  23152  0
23158  23152  23153  0
23152  23159  22907  0
23152  22907  22903  0
22909  22650  22911  0
22909  22911  23156  0
23156  22911  22912  0
23156  22912  23157  0
23157  22912  22913  0
23157  22913  23159  0
23159  22913  22910  0
23159  22910  22907  0
22662  23160  22915  0
23161  22915  23160  0
22662  22916  23160  0
22915  23162  22918  0
22915  22918  22914  0
22915  23161  23162  0
23162  23163  23164  0
23162  23164  22918  0
23165  23164  23163  0
22916  22917  23166  0
22916  23166  23160  0
22918  23164  22920  0
22918  22920  22666  0
23164  22923  22921  0
23164  22921  22920  0
23164  23165  22923  0
23167  22923  23165  0
23167  23168  22925  0
23167  22925  22923  0
23168  22926  22925  0
23168  23169  22926  0
23170  22926  23169  0
22917  22919  23171  0
22917  23171  23166  0
22923  22925  22922  0
22926  23170  22927  0
23172  23173  23174  0
23172  23175  23173  0
23172  23176  23175  0
23177  23175  23176  0
22927  22931  22924  0
23178  22928  22929  0
22919  22928  23178  0
23174  23173  23179  0
23174  23179  23180  0
23174  23180  23181  0
23173  23175  23182  0
23173  23182  23179  0
23175  23183  23184  0
23175  23184  23182  0
23175  23185  23183  0
23186  23183  23185  0
23183  23187  23184  0
23183  23186  23187  0
23187  23186  23188  0
23178  23188  23186  0
23188  23178  22929  0
22929  22414  23188  0
23189  23190  23191  0
23191  22938  23192  0
23192  22938  22932  0
23192  22932  22931  0
23180  23179  23193  0
23179  23182  23194  0
23184  23195  23182  0
23184  23187  22933  0
23184  22933  23195  0
23187  23188  22933  0
23188  22414  22933  0
23190  23196  23191  0
23191  23196  22938  0
23179  23194  23197  0
23179  23197  23193  0
23182  23195  22942  0
23182  22942  23194  0
23195  22933  22940  0
23195  22940  22942  0
22933  22935  22940  0
23190  23198  23196  0
22937  22938  23196  0
23193  23197  23199  0
23200  23197  23194  0
23194  22942  23200  0
23198  22943  23196  0
23196  22943  22937  0
23193  23199  23201  0
23202  23199  23197  0
23197  23200  23202  0
23199  23202  22947  0
22444  23202  23200  0
23200  22942  22444  0
22944  22943  23203  0
23202  22444  22947  0
22445  22947  22444  0
22945  22944  23204  0
22944  23203  23204  0
23205  23204  23203  0
22944  22945  22692  0
23206  22947  22946  0
22948  23206  22946  0
22945  23204  23207  0
22945  23207  22693  0
22949  22690  23208  0
22691  22949  23209  0
22691  23209  22950  0
23210  22948  22951  0
22695  23208  22690  0
22697  22950  22954  0
23211  23210  22951  0
22951  22953  23211  0
22701  23211  22953  0
22693  23207  22952  0
23212  22956  22707  0
23212  22707  23213  0
22956  23212  23214  0
22956  23214  22957  0
22957  23214  23215  0
22957  23215  22958  0
22958  23215  23216  0
22958  23216  22709  0
22452  22959  22699  0
22955  23217  22453  0
22952  23207  22960  0
22707  22961  23213  0
23218  23213  22961  0
22703  22453  23217  0
22703  23217  22711  0
22701  23219  23220  0
22701  22702  23219  0
23221  23219  22702  0
22961  22715  23218  0
22966  22711  23222  0
22702  22962  23221  0
23223  23221  22962  0
23224  23218  22715  0
22966  23225  22965  0
22962  22964  23223  0
23226  22964  22963  0
23227  23226  22963  0
22963  22713  23227  0
22722  23227  22713  0
22705  23228  22714  0
22715  22714  23224  0
22967  22965  23225  0
23227  22722  23229  0
23230  23229  22722  0
22969  23230  22722  0
22476  22971  23231  0
22476  23231  22716  0
22716  23231  23232  0
22716  23232  22717  0
22717  23232  23233  0
22717  23233  22477  0
23234  22969  22973  0
22977  23234  22973  0
22970  23235  22725  0
22488  23236  22978  0
22972  22975  22976  0
22977  22732  23237  0
22984  23237  22732  0
22725  23235  23238  0
22725  23238  22729  0
22729  22981  22486  0
22730  23239  23240  0
22730  23240  22733  0
22975  22983  22976  0
23241  22976  22983  0
22976  23241  22728  0
22491  22728  23241  0
22491  23241  22735  0
22984  22496  23242  0
22983  22735  23241  0
22496  22501  23243  0
22496  23243  23242  0
22739  23244  22987  0
22501  23001  23243  0
22743  22996  22988  0
22988  23245  22989  0
22988  22996  23246  0
22989  23245  22990  0
22990  23245  23247  0
22990  23247  22992  0
22992  23247  22993  0
23248  22994  22987  0
23248  22987  23244  0
22746  23002  23249  0
22746  23249  22995  0
22996  22995  23246  0
22998  22993  23250  0
22993  23251  23250  0
22999  23006  23000  0
22994  23248  23252  0
23002  23010  23253  0
22998  23250  23254  0
22998  23254  22997  0
23250  23251  23254  0
23005  23255  23006  0
23256  23006  23255  0
23006  23256  23000  0
23257  23000  23256  0
23000  23257  22751  0
23007  22751  23257  0
23007  23258  23001  0
22994  23252  23008  0
22757  23013  23010  0
23010  23259  23253  0
23253  23260  23002  0
23249  23002  23260  0
22997  23254  23261  0
22997  23261  23011  0
23252  23262  23008  0
23013  23263  23010  0
23259  23010  23263  0
23003  23011  23264  0
23003  23264  22758  0
23011  23261  23264  0
23265  23264  23261  0
23008  23262  23012  0
23012  23262  23266  0
23012  23266  23013  0
23263  23013  23266  0
23264  23265  22758  0
23267  22758  23265  0
22213  23016  23015  0
22761  22758  23267  0
22213  22214  23016  0
22761  23267  23268  0
22761  23268  23017  0
23269  23268  23267  0
23017  23268  23270  0
23017  23270  23019  0
23268  23269  23270  0
22519  23271  23020  0
23018  23020  23271  0
23019  23270  23021  0
22519  22217  23271  0
22217  23272  23271  0
23021  23270  23273  0
23274  23273  23270  0
22217  22763  23272  0
23021  23273  23275  0
23021  23275  22764  0
23273  23276  23275  0
23273  23274  23276  0
23277  23275  23276  0
22764  23275  22768  0
22764  22768  22228  0
23275  23277  23278  0
23275  23278  23279  0
23275  23279  22768  0
22766  23022  23024  0
22768  23279  23026  0
23279  23280  23026  0
23281  23026  23280  0
23022  23023  23282  0
23022  23282  23024  0
23023  23283  23282  0
23023  22767  23283  0
23026  23028  22769  0
23026  23281  23028  0
23284  23028  23281  0
23024  23282  23285  0
23024  23285  23025  0
23282  23286  23285  0
23028  23284  22771  0
23284  23031  22771  0
23284  23287  23031  0
23288  23031  23287  0
22772  23027  23033  0
23289  23286  23282  0
23282  23283  23289  0
23283  22767  23029  0
23031  23288  23032  0
23290  23283  23029  0
23291  23290  23029  0
23035  23291  23029  0
22781  23292  23040  0
23293  23040  23292  0
23292  22781  23032  0
22246  23032  22781  0
23292  23032  23294  0
23288  23294  23032  0
23295  23038  23037  0
23037  23039  23296  0
23297  23296  23039  0
23039  23040  23297  0
23293  23297  23040  0
22777  22782  23298  0
23041  23034  23299  0
23298  22776  22777  0
23041  23299  23300  0
23043  23041  23300  0
23043  23300  23301  0
23044  23043  23302  0
23303  23044  23302  0
23044  23303  23045  0
23045  23303  23047  0
23304  22786  22540  0
22540  22790  23304  0
22790  22791  23304  0
23305  23048  23046  0
23046  23047  23305  0
23306  23305  23047  0
23048  23305  23050  0
23306  23047  23307  0
22794  23052  23053  0
23053  23308  22798  0
23050  23305  23309  0
23050  23309  23054  0
23055  23310  23051  0
23051  23310  23311  0
23051  23311  23052  0
23052  23311  23312  0
23052  23312  23053  0
22798  23308  23313  0
22798  23313  22800  0
23054  23309  23314  0
23054  23314  23056  0
22800  23313  23057  0
23056  23314  23315  0
23056  23315  22805  0
22805  23315  23316  0
22805  23316  23317  0
22805  23317  23059  0
23058  22554  23318  0
22555  23318  22554  0
23060  23319  22807  0
23320  23321  23322  0
23062  22812  23323  0
23323  22812  23324  0
22809  23325  23320  0
22809  23320  23322  0
22809  22810  23325  0
23062  22297  22812  0
22812  22811  23326  0
22812  23326  23327  0
22812  23327  23324  0
23328  23324  23327  0
23327  23326  23329  0
23327  23329  23328  0
22810  23064  23330  0
22810  23330  23325  0
23326  22811  23331  0
23067  23069  23332  0
23069  23070  23332  0
23073  23072  23333  0
23073  23333  23074  0
22811  22836  23085  0
22811  23085  23334  0
22811  23334  23331  0
23331  23335  23326  0
23331  23336  23335  0
23077  23078  23070  0
23079  22837  23082  0
23079  23082  23337  0
23337  23082  23338  0
23064  23080  23339  0
23064  23339  23330  0
23331  23334  23340  0
22813  22568  23341  0
22568  23081  23341  0
22824  23068  23342  0
23082  23087  23338  0
23338  23087  23089  0
23338  23089  23343  0
23343  23083  23344  0
23080  23084  23345  0
23080  23345  23339  0
22834  23074  23346  0
22834  23346  22835  0
23085  23347  23334  0
23089  22841  23083  0
23089  23083  23343  0
22576  22835  23346  0
23089  22843  22841  0
23092  22851  23348  0
23100  22860  23349  0
23100  23349  23101  0
23095  23101  23350  0
23351  23099  23096  0
23096  23095  23350  0
23097  23352  22328  0
22861  23353  22860  0
22860  23353  23354  0
22860  23354  23349  0
23349  23354  23355  0
23349  23355  23101  0
22328  23352  22863  0
23356  22863  23352  0
22861  23102  23357  0
22861  23357  23353  0
23353  23357  23358  0
23353  23358  23354  0
22863  23356  22864  0
22865  22864  23356  0
23102  23359  23357  0
23102  23103  23360  0
23102  23360  23359  0
23104  22865  23361  0
22866  22867  23106  0
22866  23106  23103  0
23103  23106  23362  0
23103  23362  23360  0
23108  23104  23361  0
23106  23107  23363  0
23106  23363  23362  0
23109  22604  23108  0
23110  22879  23120  0
23364  23115  23114  0
23115  23365  23116  0
23366  23116  23365  0
23116  23366  23107  0
23363  23107  23366  0
23109  23367  23117  0
23368  23117  23367  0
23118  23117  23368  0
23118  23369  23119  0
23370  23119  23369  0
23119  23370  23120  0
23371  23120  23370  0
23120  23371  23110  0
23111  23110  23371  0
23112  23123  23114  0
23372  23114  23123  0
23114  23372  23364  0
23373  23374  23364  0
23375  23376  23377  0
23378  23377  23376  0
23124  23125  23137  0
23126  23137  23125  0
23126  23127  23379  0
23380  23379  23127  0
23127  22885  23381  0
23121  23381  22885  0
23127  23381  23380  0
23123  23128  23372  0
23382  23372  23128  0
23372  23373  23364  0
23383  23144  23384  0
23143  23384  23144  0
23384  23143  23377  0
23148  23377  23143  0
23378  23384  23377  0
23377  23148  23375  0
23150  23375  23148  0
23375  23150  23385  0
23386  23385  23150  0
23387  23385  23386  0
23386  23151  23131  0
23386  23131  23387  0
23388  23387  23131  0
23131  23130  23388  0
23132  23388  23130  0
23133  23134  23389  0
23390  23389  23134  0
23391  23390  23134  0
23134  23135  23391  0
23392  23391  23135  0
23135  23136  23392  0
23393  23392  23136  0
23136  23137  23393  0
23394  23393  23137  0
23137  23126  23394  0
23379  23394  23126  0
23395  23396  23128  0
23128  23396  23382  0
23128  23138  23395  0
23397  23145  23144  0
23383  23397  23144  0
23153  23386  23150  0
23386  23153  23151  0
23396  23395  23398  0
23399  23395  23138  0
23138  23154  23399  0
23400  23399  23154  0
23401  23400  23154  0
23154  23155  23401  0
23402  23401  23155  0
23155  23145  23403  0
23397  23403  23145  0
23155  23403  23404  0
23155  23404  23402  0
23405  23398  23395  0
23406  23396  23398  0
23395  23399  23405  0
23399  23400  23405  0
23401  23405  23400  0
23398  23405  23406  0
23407  23406  23405  0
23405  23401  23407  0
23408  23407  23401  0
23402  23408  23401  0
23409  23161  23160  0
23161  23410  23162  0
23161  23409  23410  0
23411  23410  23409  0
23162  23410  23412  0
23162  23412  23163  0
23163  23412  23413  0
23163  23413  23165  0
23165  23414  23167  0
23168  23167  23414  0
23165  23413  23415  0
23165  23415  23414  0
23169  23168  23414  0
23416  23176  23417  0
23417  23176  23418  0
23419  23160  23166  0
23160  23419  23409  0
23169  23414  23420  0
23169  23420  23170  0
23418  23176  23172  0
23421  23418  23172  0
23177  23176  23416  0
23416  23417  23422  0
23416  23423  23177  0
23416  23422  23424  0
23416  23424  23423  0
23425  23177  23423  0
23423  23424  23426  0
23166  23171  23419  0
23427  23419  23171  0
23419  23427  23409  0
23420  23428  23429  0
23429  23428  23430  0
23429  23431  23170  0
23432  23170  23431  0
23429  23170  23420  0
22927  23170  23432  0
23172  23174  23421  0
23433  23421  23174  0
23185  23175  23177  0
23434  23185  23177  0
23177  23425  23434  0
23178  23434  23425  0
23425  23423  23435  0
23425  23171  23178  0
22919  23178  23171  0
23425  23435  23436  0
23425  23436  23171  0
23171  23436  23427  0
23429  23437  23431  0
23432  23431  23437  0
23429  23430  23437  0
23432  23192  22927  0
22931  22927  23192  0
23174  23181  23433  0
23185  23434  23186  0
23178  23186  23434  0
23438  23439  23437  0
23189  23437  23439  0
23438  23437  23430  0
23437  23189  23432  0
23191  23432  23189  0
23432  23191  23192  0
23440  23181  23180  0
23439  23441  23189  0
23190  23189  23441  0
23180  23193  23440  0
23441  23198  23190  0
23201  23440  23193  0
23441  23439  23442  0
23441  23442  23198  0
22943  23198  23443  0
23198  23442  23443  0
23201  23199  23444  0
22947  23444  23199  0
23443  23203  22943  0
23444  23206  23445  0
23444  22947  23206  0
23203  23443  23205  0
23206  22948  23445  0
22948  23210  23445  0
23204  23205  23207  0
23446  23447  23448  0
23446  23448  23449  0
23449  23448  23450  0
23449  23450  23451  0
23208  23452  23453  0
23208  22695  23452  0
23208  23453  22949  0
23209  23454  22950  0
23205  23455  23207  0
23456  23446  23214  0
23456  23214  23212  0
23456  23457  23447  0
23456  23447  23446  0
23456  23212  23458  0
23456  23458  23457  0
23446  23449  23215  0
23446  23215  23214  0
23449  23451  23216  0
23449  23216  23215  0
23216  23451  23459  0
22959  23460  22699  0
23452  22699  23460  0
22699  23452  22695  0
22950  23454  22954  0
23461  22954  23454  0
23211  22701  23220  0
23211  23462  23210  0
23213  23463  23212  0
23458  23212  23463  0
23213  23464  23463  0
23216  22959  22709  0
23216  23459  22959  0
22955  22954  23461  0
22955  23461  23217  0
23211  23220  23219  0
23211  23219  23462  0
23455  22960  23207  0
23222  22711  23217  0
23222  23217  23465  0
23455  23466  22960  0
23467  22960  23466  0
22960  23467  22705  0
22964  23226  23468  0
22964  23468  23469  0
22964  23469  23223  0
23228  22705  23467  0
23224  22714  23228  0
22967  23470  23471  0
22967  23225  23470  0
23227  23229  23226  0
23231  23472  23232  0
23230  22969  23234  0
23230  23234  23473  0
23230  23473  23229  0
23471  22970  22967  0
22974  23474  22971  0
23475  22971  23474  0
22974  22978  23474  0
23231  22971  23475  0
23476  22477  23233  0
23234  22977  23473  0
22977  23237  23477  0
22977  23477  23473  0
22970  23471  23235  0
22477  23476  22979  0
22981  22729  23238  0
22981  23478  22488  0
22730  22979  23476  0
22730  23476  23239  0
22733  23240  23479  0
22733  23479  22986  0
22984  23242  23237  0
22739  22986  23480  0
22739  23480  23244  0
22988  23246  23245  0
23245  23246  23481  0
23482  23481  23246  0
23245  23481  23247  0
23483  23247  23481  0
23247  23484  23485  0
23247  23485  22993  0
23247  23483  23484  0
23486  23243  23001  0
22995  23487  23246  0
23488  23246  23487  0
23482  23246  23488  0
22993  23485  23251  0
23001  23258  23486  0
23248  23489  23252  0
23487  22995  23249  0
23490  23254  23251  0
23005  23004  23255  0
23491  23255  23004  0
23255  23492  23256  0
23493  23256  23492  0
23256  23493  23257  0
23494  23257  23493  0
23257  23494  23007  0
23495  23007  23494  0
23496  23007  23495  0
23007  23496  23258  0
23253  23259  23260  0
23497  23249  23260  0
23498  23249  23497  0
23490  23261  23254  0
23004  22760  23491  0
23499  23491  22760  0
23263  23500  23259  0
23259  23501  23260  0
23259  23500  23501  0
23502  23501  23500  0
23260  23501  23497  0
23261  23490  23265  0
22760  23014  23499  0
23252  23503  23262  0
23504  23263  23266  0
23263  23504  23500  0
23502  23500  23504  0
23265  23490  23505  0
23265  23505  23506  0
23265  23506  23267  0
23503  23507  23262  0
23503  23508  23507  0
23262  23507  23266  0
23502  23504  23509  0
23510  23509  23504  0
23267  23506  23269  0
23507  23511  23266  0
23512  23266  23511  0
23266  23512  23504  0
23269  23506  23513  0
23514  23504  23512  0
23504  23514  23510  0
23269  23274  23270  0
23269  23513  23274  0
23271  23515  23516  0
23271  23516  23018  0
23018  23516  23517  0
23276  23274  23518  0
23518  23274  23519  0
23276  23518  23277  0
23278  23277  23518  0
23518  23520  23278  0
23521  23278  23520  0
23520  23522  23521  0
23523  23521  23522  0
23520  23524  23522  0
23280  23278  23521  0
23521  23523  23280  0
23278  23280  23279  0
23281  23280  23523  0
23523  23525  23281  0
23523  23522  23525  0
22775  22763  22765  0
23281  23525  23284  0
23287  23284  23525  0
23027  23025  23033  0
23526  23033  23025  0
23527  23526  23025  0
23025  23285  23527  0
23287  23528  23288  0
23287  23529  23528  0
23528  23529  23530  0
23033  23531  23034  0
23033  23526  23532  0
23286  23527  23285  0
23531  23533  23034  0
23286  23289  23534  0
23535  23289  23283  0
23283  23290  23535  0
23292  23294  23293  0
23536  23293  23294  0
23294  23288  23537  0
23294  23537  23536  0
23288  23528  23537  0
23533  23299  23034  0
23535  23290  23538  0
23535  23539  23289  0
23290  23291  23035  0
23290  23035  23538  0
23037  23296  23295  0
23296  23297  23540  0
23296  23540  23541  0
23296  23541  23295  0
23297  23293  23542  0
23297  23542  23540  0
23293  23536  23542  0
23538  23035  23543  0
23035  22776  23543  0
23538  23543  23544  0
23543  22776  23545  0
23543  23545  23546  0
23543  23546  23547  0
23543  23547  23544  0
22776  23298  23548  0
22776  23548  23545  0
23298  22782  23549  0
23298  23549  23548  0
22782  23038  23550  0
22782  23550  23549  0
23038  23295  23551  0
23038  23551  23550  0
23295  23541  23551  0
23299  23552  23300  0
23545  23548  23553  0
23545  23553  23554  0
23545  23554  23555  0
23545  23555  23546  0
23548  23549  23553  0
23556  23550  23551  0
23553  23549  23557  0
23549  23550  23558  0
23549  23558  23557  0
23550  23556  23558  0
23301  23300  23559  0
23557  23558  23560  0
22018  22786  23042  0
23301  23561  23043  0
23562  23301  23563  0
23043  23561  23302  0
23301  23562  23561  0
23564  23561  23562  0
23561  23564  23302  0
23302  23565  23303  0
23566  23303  23565  0
23303  23566  23567  0
23567  23307  23303  0
23307  23047  23303  0
23304  22791  23568  0
22791  23049  23568  0
23305  23306  23569  0
23306  23307  23569  0
23053  23312  23308  0
23304  23568  23570  0
23305  23569  23571  0
23305  23571  23309  0
23311  23572  23312  0
23573  23312  23572  0
23312  23573  23308  0
23574  23308  23573  0
23308  23574  23313  0
23049  23058  23568  0
23309  23571  23575  0
23576  23309  23575  0
23309  23577  23315  0
23309  23315  23314  0
23309  23576  23577  0
23317  23577  23576  0
23058  23318  23568  0
23577  23317  23316  0
23577  23316  23315  0
23578  23318  23579  0
23317  23580  23059  0
23581  23059  23580  0
23318  22555  23579  0
23059  23581  23060  0
22555  23582  23579  0
23319  23060  23581  0
22555  23062  23323  0
22555  23323  23582  0
23583  23319  23584  0
23582  23323  23585  0
23323  23324  23585  0
23319  23583  22807  0
23061  22807  23583  0
23586  23320  23325  0
23587  23328  23329  0
23588  23587  23329  0
23583  23589  23061  0
23063  23061  23589  0
23590  23591  23072  0
23329  23326  23588  0
23592  23068  23067  0
23067  23332  23592  0
23337  23338  23593  0
23589  23344  23063  0
23589  23594  23344  0
23339  23325  23330  0
23325  23339  23586  0
23595  23586  23339  0
23591  23333  23072  0
23326  23335  23588  0
23335  23336  23588  0
22813  23065  22814  0
23596  23592  23332  0
23332  23070  23596  0
23070  23078  23596  0
23597  23596  23078  0
23078  23079  23597  0
23079  23337  23597  0
23338  23343  23593  0
23594  23593  23343  0
23343  23344  23594  0
23083  23063  23344  0
23598  23595  23339  0
23342  23081  22824  0
23339  23599  23598  0
23339  23345  23599  0
23346  23074  23600  0
23065  22813  23601  0
23341  23601  22813  0
23602  23341  23081  0
23346  23600  23603  0
23604  23605  23092  0
23348  23604  23092  0
22851  23099  23348  0
23097  23606  23352  0
23606  23607  23608  0
23606  23608  23352  0
23096  23350  23351  0
23099  23351  23609  0
23099  23609  23348  0
23610  23350  23611  0
23350  23610  23351  0
23355  23612  23101  0
23355  23354  23612  0
23613  23612  23354  0
23101  23612  23614  0
23101  23614  23350  0
23350  23614  23611  0
23356  23615  22865  0
23616  23354  23358  0
23354  23616  23613  0
23361  22865  23617  0
23357  23359  23358  0
23618  23358  23359  0
23358  23618  23616  0
23360  23362  23359  0
23619  23359  23362  0
23359  23619  23618  0
23618  23619  23620  0
23618  23620  23616  0
23108  23361  23621  0
23621  23361  23622  0
23362  23623  23624  0
23362  23624  23619  0
23362  23363  23623  0
23625  23623  23363  0
23619  23624  23626  0
23627  23625  23363  0
23108  23621  23628  0
23108  23628  23109  0
23115  23364  23374  0
23115  23374  23365  0
23365  23374  23629  0
23365  23629  23366  0
23366  23630  23627  0
23366  23627  23363  0
23366  23629  23630  0
23109  23628  23631  0
23109  23631  23367  0
23367  23632  23368  0
23367  23633  23632  0
23368  23632  23634  0
23368  23634  23118  0
23118  23634  23369  0
23369  23635  23370  0
23371  23636  23111  0
23111  23636  23121  0
23374  23373  23629  0
23629  23637  23630  0
23376  23375  23638  0
23376  23638  23378  0
23375  23385  23639  0
23375  23639  23638  0
23639  23385  23387  0
23639  23387  23388  0
23388  23640  23639  0
23632  23633  23641  0
23632  23641  23642  0
23632  23642  23634  0
23634  23642  23635  0
23634  23635  23369  0
23381  23121  23636  0
23643  23381  23636  0
23372  23644  23373  0
23645  23373  23644  0
23373  23645  23629  0
23637  23629  23645  0
23383  23384  23646  0
23383  23646  23647  0
23648  23383  23647  0
23384  23378  23646  0
23388  23132  23640  0
23132  23133  23389  0
23132  23389  23640  0
23392  23393  23649  0
23393  23394  23650  0
23393  23650  23649  0
23394  23379  23651  0
23394  23651  23652  0
23394  23652  23650  0
23379  23380  23653  0
23379  23653  23651  0
23380  23381  23643  0
23380  23643  23653  0
23397  23383  23648  0
23654  23397  23648  0
23390  23391  23655  0
23391  23392  23656  0
23391  23656  23655  0
23392  23649  23657  0
23392  23657  23656  0
23649  23650  23652  0
23649  23652  23657  0
23658  23396  23406  0
23658  23406  23659  0
23403  23397  23654  0
23403  23654  23660  0
23403  23660  23404  0
23661  23404  23660  0
23406  23662  23659  0
23402  23404  23661  0
23407  23408  23663  0
23402  23664  23408  0
23665  23408  23664  0
23663  23408  23665  0
23666  23667  23412  0
23666  23412  23410  0
23667  23413  23412  0
23668  23413  23667  0
23413  23668  23415  0
23669  23415  23668  0
23666  23410  23670  0
23410  23411  23671  0
23410  23671  23670  0
23415  23669  23414  0
23418  23672  23417  0
23673  23417  23672  0
23417  23673  23422  0
23674  23422  23673  0
23669  23428  23420  0
23669  23420  23414  0
23418  23421  23675  0
23422  23674  23424  0
23676  23424  23674  0
23424  23676  23426  0
23677  23426  23676  0
23426  23678  23435  0
23426  23435  23423  0
23426  23677  23678  0
23678  23436  23435  0
23678  23409  23427  0
23678  23427  23436  0
23678  23679  23409  0
23411  23409  23679  0
23680  23430  23428  0
23430  23681  23438  0
23433  23682  23421  0
23438  23683  23684  0
23181  23440  23685  0
23181  23685  23433  0
23433  23685  23686  0
23433  23686  23682  0
23684  23442  23439  0
23684  23439  23438  0
23687  23442  23684  0
23688  23442  23687  0
23440  23201  23689  0
23440  23689  23685  0
23685  23689  23690  0
23685  23690  23686  0
23688  23691  23443  0
23688  23443  23442  0
23201  23692  23689  0
23689  23692  23690  0
23201  23444  23692  0
23444  23445  23693  0
23444  23693  23694  0
23444  23694  23692  0
23691  23205  23443  0
23695  23696  23697  0
23698  23697  23448  0
23698  23448  23447  0
23698  23447  23699  0
23697  23696  23450  0
23697  23450  23448  0
23696  23700  23459  0
23696  23459  23450  0
23460  23459  23700  0
23701  23209  22949  0
23701  22949  23702  0
23701  23702  23703  0
23704  23209  23701  0
23445  23210  23705  0
23445  23705  23693  0
23691  23706  23205  0
23691  23707  23706  0
23708  23706  23707  0
23457  23709  23447  0
23699  23447  23709  0
23457  23458  23709  0
23450  23459  23451  0
23710  23452  23460  0
23453  23702  22949  0
23209  23704  23454  0
23711  23705  23210  0
23706  23455  23205  0
23459  23460  22959  0
23454  23704  23712  0
23454  23712  23461  0
23210  23462  23711  0
23461  23713  23217  0
23217  23713  23714  0
23715  23711  23462  0
23455  23706  23716  0
23213  23218  23464  0
23464  23218  23717  0
23718  23717  23218  0
22966  23465  23719  0
23222  23465  22966  0
23465  23217  23714  0
23462  23219  23715  0
23455  23716  23466  0
23718  23218  23224  0
23720  23718  23224  0
23719  23721  23225  0
23225  22966  23719  0
23715  23219  23722  0
23221  23722  23219  0
23224  23228  23720  0
23723  23720  23228  0
23471  23470  23724  0
23470  23225  23724  0
23721  23724  23225  0
23725  23722  23221  0
23221  23223  23469  0
23221  23469  23725  0
23726  23725  23469  0
23724  23727  23471  0
23728  23726  23469  0
23469  23468  23728  0
23729  23468  23226  0
23226  23229  23729  0
23472  23231  23730  0
23475  23730  23231  0
23232  23472  23731  0
23232  23731  23233  0
23233  23731  23732  0
23233  23732  23733  0
23468  23729  23734  0
23735  23729  23229  0
23474  22978  23736  0
23236  23736  22978  0
23233  23733  23476  0
23737  23735  23229  0
23229  23473  23737  0
23471  23727  23235  0
22488  23478  23236  0
23473  23477  23737  0
23738  23737  23477  0
22981  23238  23478  0
23239  23476  23739  0
23239  23739  23240  0
23740  23738  23477  0
23477  23237  23740  0
23479  23240  23741  0
23237  23242  23740  0
23742  23740  23242  0
23480  22986  23743  0
23479  23743  22986  0
23244  23480  23744  0
23745  23744  23480  0
23242  23243  23742  0
23486  23742  23243  0
23244  23746  23248  0
23481  23482  23483  0
23483  23747  23484  0
23248  23748  23489  0
23484  23747  23485  0
23489  23749  23252  0
23249  23498  23487  0
23487  23750  23488  0
23487  23498  23750  0
23251  23485  23751  0
23747  23751  23485  0
23251  23751  23752  0
23251  23752  23490  0
23255  23491  23492  0
23753  23492  23491  0
23492  23753  23493  0
23495  23494  23493  0
23258  23496  23486  0
23252  23749  23503  0
23497  23501  23498  0
23498  23501  23754  0
23498  23754  23750  0
23490  23752  23755  0
23490  23755  23505  0
23491  23756  23757  0
23491  23757  23753  0
23491  23499  23758  0
23491  23758  23756  0
23753  23757  23493  0
23493  23757  23759  0
23493  23759  23495  0
23495  23759  23760  0
23495  23760  23496  0
23749  23761  23503  0
23501  23502  23762  0
23501  23762  23763  0
23501  23763  23754  0
23764  23505  23755  0
23502  23509  23765  0
23502  23765  23762  0
23762  23765  23763  0
23763  23766  23754  0
23505  23764  23506  0
23767  23764  23768  0
23014  23015  23499  0
23503  23761  23508  0
23509  23769  23765  0
23765  23769  23770  0
23765  23770  23763  0
23763  23770  23766  0
23506  23764  23771  0
23764  23767  23771  0
23772  23771  23767  0
23773  23508  23761  0
23508  23511  23507  0
23769  23509  23774  0
23769  23774  23770  0
23506  23771  23775  0
23506  23775  23513  0
23771  23772  23775  0
23776  23775  23772  0
23018  23517  23016  0
23777  23511  23508  0
23511  23777  23512  0
23512  23777  23514  0
23514  23778  23510  0
23509  23510  23779  0
23513  23775  23780  0
23513  23780  23274  0
23775  23776  23781  0
23775  23781  23780  0
23776  23782  23781  0
23516  23515  23783  0
23516  23783  23517  0
23777  23778  23514  0
23778  23784  23510  0
23510  23784  23779  0
23780  23781  23519  0
23780  23519  23274  0
23785  23781  23782  0
23271  23272  23515  0
23786  23778  23787  0
23784  23778  23786  0
23519  23781  23520  0
23519  23520  23518  0
23781  23785  23524  0
23781  23524  23520  0
23788  23524  23785  0
23524  23788  23522  0
23789  23790  23791  0
23790  23792  23793  0
23790  23793  23794  0
23790  23794  23791  0
23793  23795  23794  0
23522  23788  23796  0
23522  23796  23525  0
23788  23797  23796  0
23789  23798  23790  0
23790  23798  23792  0
23792  23799  23793  0
23793  23799  23800  0
23793  23800  23801  0
23525  23796  23287  0
23798  23802  23792  0
23287  23796  23529  0
23796  23797  23529  0
23803  23529  23797  0
23804  23802  23798  0
23802  23805  23792  0
23792  23805  23806  0
23792  23806  23799  0
23799  23807  23800  0
23529  23803  23530  0
23033  23532  23531  0
23526  23527  23532  0
23527  23286  23808  0
23805  23802  23809  0
23802  23804  23809  0
23806  23807  23799  0
23530  23810  23528  0
23808  23811  23527  0
23534  23808  23286  0
23805  23812  23806  0
23806  23812  23807  0
23813  23536  23537  0
23537  23528  23813  0
23810  23813  23528  0
23539  23534  23289  0
23814  23541  23540  0
23540  23542  23815  0
23816  23815  23542  0
23540  23815  23814  0
23542  23536  23816  0
23813  23816  23536  0
23533  23817  23299  0
23541  23814  23818  0
23552  23299  23817  0
23539  23535  23819  0
23544  23819  23535  0
23535  23538  23544  0
23818  23551  23541  0
23820  23036  23042  0
23547  23821  23544  0
23822  23547  23546  0
23551  23818  23556  0
23823  23556  23818  0
23818  23824  23823  0
23559  23300  23552  0
23546  23555  23822  0
23825  23555  23554  0
23558  23556  23560  0
23826  23560  23556  0
23556  23823  23826  0
23559  23563  23301  0
23554  23553  23825  0
23827  23825  23553  0
23553  23557  23827  0
23826  23557  23560  0
23826  23823  23828  0
23826  23828  23829  0
23827  23557  23830  0
23831  23830  23557  0
23557  23826  23831  0
23829  23831  23826  0
23562  23832  23564  0
23564  23832  23833  0
23564  23833  23302  0
23302  23833  23565  0
23565  23834  23566  0
23566  23834  23835  0
23566  23835  23567  0
22786  23304  23836  0
23567  23835  23307  0
23307  23837  23569  0
23304  23570  23836  0
23571  23569  23837  0
23838  23570  23568  0
23575  23571  23839  0
23837  23839  23571  0
23575  23839  23840  0
23575  23840  23576  0
23568  23318  23838  0
23841  23838  23318  0
23317  23576  23842  0
23318  23578  23841  0
23317  23842  23843  0
23317  23843  23580  0
23844  23579  23582  0
23319  23581  23584  0
23582  23585  23844  0
23324  23845  23585  0
23583  23584  23589  0
23846  23589  23584  0
23320  23586  23847  0
23320  23847  23321  0
23321  23848  23849  0
23850  23849  23848  0
23324  23328  23845  0
23587  23588  23851  0
23587  23851  23328  0
23589  23846  23594  0
23851  23588  23336  0
23851  23336  23852  0
23593  23594  23846  0
23586  23595  23847  0
23333  23591  23600  0
23068  23592  23853  0
23068  23853  23342  0
23333  23600  23074  0
23081  23342  23602  0
23601  23341  23854  0
23853  23592  23855  0
23599  23856  23598  0
23854  23341  23857  0
23341  23602  23857  0
23858  23603  23859  0
23348  23609  23604  0
23351  23860  23609  0
23861  23352  23608  0
23352  23861  23356  0
23615  23356  23861  0
23612  23613  23862  0
23612  23862  23614  0
23611  23863  23610  0
23611  23614  23863  0
23615  23864  22865  0
23613  23616  23865  0
23613  23865  23862  0
23862  23866  23614  0
23862  23865  23867  0
23614  23866  23863  0
23617  22865  23864  0
23616  23620  23865  0
23865  23620  23868  0
23865  23868  23867  0
23622  23361  23617  0
23622  23617  23869  0
23619  23626  23620  0
23620  23870  23868  0
23871  23872  23621  0
23871  23621  23622  0
23626  23873  23870  0
23626  23870  23620  0
23626  23624  23873  0
23623  23874  23873  0
23623  23873  23624  0
23623  23625  23874  0
23621  23872  23875  0
23621  23875  23628  0
23630  23876  23877  0
23630  23877  23627  0
23878  23876  23630  0
23627  23877  23874  0
23627  23874  23625  0
23628  23879  23631  0
23633  23367  23631  0
23880  23370  23635  0
23370  23880  23371  0
23636  23371  23880  0
23630  23637  23878  0
23881  23878  23637  0
23882  23378  23638  0
23638  23883  23882  0
23638  23639  23883  0
23640  23883  23639  0
23631  23879  23884  0
23631  23884  23885  0
23631  23885  23633  0
23633  23885  23886  0
23633  23886  23641  0
23641  23886  23887  0
23641  23887  23642  0
23642  23887  23635  0
23635  23887  23880  0
23880  23643  23636  0
23645  23888  23881  0
23645  23881  23637  0
23647  23646  23889  0
23647  23889  23648  0
23882  23646  23378  0
23890  23883  23640  0
23640  23389  23890  0
23653  23652  23651  0
23648  23891  23654  0
23389  23390  23892  0
23655  23892  23390  0
23655  23656  23893  0
23894  23893  23656  0
23656  23657  23894  0
23895  23894  23657  0
23657  23652  23895  0
23896  23895  23652  0
23652  23653  23896  0
23660  23654  23891  0
23660  23891  23897  0
23660  23897  23661  0
23898  23664  23661  0
23402  23661  23664  0
23898  23661  23899  0
23897  23899  23661  0
23665  23664  23900  0
23898  23900  23664  0
23666  23670  23667  0
23667  23901  23668  0
23667  23670  23902  0
23667  23902  23901  0
23669  23668  23901  0
23903  23672  23418  0
23672  23903  23904  0
23672  23904  23673  0
23673  23904  23905  0
23673  23905  23674  0
23906  23671  23411  0
23671  23906  23902  0
23907  23902  23906  0
23902  23907  23901  0
23680  23901  23907  0
23901  23680  23669  0
23428  23669  23680  0
23418  23675  23903  0
23908  23903  23675  0
23674  23905  23909  0
23674  23909  23676  0
23677  23676  23910  0
23677  23910  23678  0
23678  23910  23679  0
23679  23911  23411  0
23411  23912  23906  0
23913  23906  23912  0
23411  23911  23912  0
23906  23913  23907  0
23681  23907  23913  0
23907  23681  23680  0
23430  23680  23681  0
23682  23675  23421  0
23675  23682  23908  0
23913  23683  23681  0
23438  23681  23683  0
23913  23914  23683  0
23915  23908  23682  0
23682  23686  23915  0
23916  23915  23686  0
23686  23917  23916  0
23918  23919  23920  0
23920  23919  23921  0
23920  23921  23922  0
23923  23917  23686  0
23917  23923  23924  0
23925  23924  23923  0
23918  23920  23926  0
23927  23926  23920  0
23928  23918  23926  0
23920  23922  23927  0
23929  23927  23922  0
23930  23929  23922  0
23922  23931  23930  0
23686  23690  23923  0
23932  23923  23690  0
23933  23923  23932  0
23923  23933  23925  0
23934  23928  23926  0
23935  23927  23929  0
23929  23930  23935  0
23930  23931  23936  0
23687  23937  23688  0
23926  23927  23938  0
23939  23938  23927  0
23926  23938  23934  0
23927  23935  23939  0
23936  23935  23930  0
23690  23692  23932  0
23940  23932  23692  0
23932  23940  23933  0
23941  23933  23940  0
23933  23941  23942  0
23688  23937  23691  0
23934  23938  23943  0
23696  23939  23935  0
23935  23936  23696  0
23944  23696  23936  0
23692  23694  23940  0
23945  23942  23941  0
23943  23938  23946  0
23695  23946  23938  0
23943  23946  23947  0
23948  23947  23946  0
23938  23939  23695  0
23696  23695  23939  0
23694  23693  23949  0
23694  23949  23940  0
23940  23949  23950  0
23940  23950  23941  0
23941  23950  23945  0
23699  23946  23698  0
23699  23948  23946  0
23699  23709  23948  0
23946  23695  23697  0
23946  23697  23698  0
23696  23944  23700  0
23950  23951  23945  0
23700  23944  23460  0
23944  23710  23460  0
23710  23952  23452  0
23952  23953  23452  0
23703  23702  23954  0
23703  23955  23701  0
23701  23955  23704  0
23693  23705  23956  0
23693  23956  23949  0
23949  23956  23957  0
23949  23957  23950  0
23950  23957  23951  0
23958  23709  23458  0
23452  23953  23453  0
23702  23453  23953  0
23705  23711  23959  0
23705  23959  23956  0
23956  23959  23960  0
23956  23960  23957  0
23708  23961  23706  0
23717  23958  23464  0
23958  23458  23463  0
23958  23463  23464  0
23712  23962  23461  0
23713  23461  23962  0
23711  23963  23959  0
23718  23964  23717  0
23711  23715  23965  0
23711  23965  23963  0
23706  23961  23716  0
23964  23718  23966  0
23967  23466  23716  0
23966  23718  23720  0
23721  23968  23724  0
23721  23719  23969  0
23721  23969  23968  0
23466  23967  23467  0
23723  23467  23967  0
23723  23228  23467  0
23723  23967  23720  0
23724  23968  23970  0
23727  23724  23970  0
23971  23727  23970  0
23726  23728  23972  0
23728  23468  23734  0
23728  23734  23972  0
23973  23472  23730  0
23472  23973  23731  0
23974  23732  23731  0
23972  23975  23726  0
23734  23729  23976  0
23734  23976  23977  0
23734  23977  23978  0
23734  23978  23972  0
23729  23735  23976  0
23736  23236  23979  0
23474  23736  23475  0
23732  23974  23980  0
23732  23980  23733  0
23976  23735  23981  0
23976  23981  23977  0
23735  23737  23981  0
23737  23982  23981  0
23478  23983  23984  0
23478  23984  23985  0
23478  23985  23236  0
23236  23985  23979  0
23733  23980  23986  0
23733  23986  23476  0
23737  23987  23982  0
23737  23738  23987  0
23727  23971  23988  0
23727  23988  23235  0
23235  23988  23238  0
23238  23988  23983  0
23238  23983  23478  0
23739  23989  23240  0
23476  23986  23739  0
23738  23740  23990  0
23738  23990  23987  0
23741  23240  23989  0
23743  23745  23480  0
23244  23744  23746  0
23483  23482  23991  0
23992  23742  23486  0
23248  23746  23748  0
23993  23488  23750  0
23488  23994  23991  0
23488  23991  23482  0
23488  23993  23994  0
23489  23748  23749  0
23750  23754  23993  0
23995  23993  23754  0
23751  23747  23996  0
23751  23996  23752  0
23496  23997  23486  0
23486  23997  23992  0
23766  23995  23754  0
23998  23995  23766  0
23752  23996  23999  0
23752  23999  23755  0
23496  23760  24000  0
23496  24000  23997  0
24001  24002  23998  0
23755  23768  23764  0
23755  23999  23768  0
24003  23998  23766  0
24001  23998  24003  0
23768  24004  24005  0
23768  24005  23767  0
23761  23749  24006  0
23766  23770  24003  0
24007  24003  23770  0
24003  24007  24001  0
23767  24005  24008  0
23767  24008  24009  0
23767  24009  23772  0
23499  23015  24010  0
24011  24010  23015  0
24012  23770  23774  0
23770  24012  24007  0
24007  24013  24001  0
24014  24007  24012  0
23015  23016  24011  0
24015  24011  23016  0
23761  24006  23773  0
23774  24016  24012  0
24017  24012  24016  0
24014  24012  24017  0
23016  23517  24015  0
23508  23787  23777  0
24018  23509  23779  0
23509  24018  23774  0
23774  24018  24016  0
24019  24017  24016  0
23782  23776  24020  0
23782  24020  24021  0
23517  23783  24015  0
23777  23787  23778  0
24018  24022  24016  0
24016  24022  24019  0
24019  24022  24023  0
24024  24019  24023  0
23782  24021  24025  0
23782  24025  23785  0
23787  24026  23786  0
23786  24027  23784  0
24028  23784  24027  0
23784  24028  23779  0
23779  24028  24018  0
24029  24018  24028  0
24018  24029  24022  0
24023  24030  24024  0
24024  24030  24031  0
24024  24031  24032  0
24031  24033  24032  0
24034  24032  24033  0
24033  24035  24034  0
24036  24034  24035  0
23785  24025  24037  0
23785  24037  23788  0
24027  24038  24028  0
24039  24029  24028  0
24040  24029  24039  0
24029  24040  24022  0
24022  24040  24023  0
24041  24023  24040  0
24023  24041  24030  0
23791  24030  24041  0
24030  23791  24031  0
24031  23791  24033  0
23794  24033  23791  0
24033  23794  24035  0
24042  24035  23794  0
24035  24042  24036  0
24036  24042  24043  0
24044  24043  24042  0
23797  23788  24037  0
24027  24045  24038  0
24038  24046  24028  0
24047  24028  24046  0
24048  24046  24038  0
24049  24039  24028  0
24039  24049  24040  0
24041  24040  24049  0
23795  24042  23794  0
24042  23795  24050  0
24042  24050  24044  0
24044  24050  24051  0
24028  24047  24049  0
24049  24047  23789  0
24049  23789  24041  0
24041  23789  23791  0
23795  23793  23801  0
23795  23801  24052  0
23795  24052  24050  0
24050  24052  24053  0
24050  24053  24051  0
24051  24053  24054  0
24046  24055  24047  0
24047  24055  24056  0
24047  24056  23789  0
23789  24056  23798  0
23801  24057  24052  0
24052  24057  24053  0
24058  24055  24046  0
23798  24056  23804  0
23801  23800  24057  0
24057  24059  24053  0
24053  24059  24060  0
24053  24060  24054  0
24054  24060  23803  0
24054  23803  23797  0
24055  24058  24061  0
24055  24061  24056  0
23800  23807  24062  0
23800  24062  24057  0
24057  24062  24059  0
24059  24062  24063  0
24059  24063  24060  0
24064  23803  24060  0
23803  24064  23530  0
23810  23530  24064  0
23527  23811  23532  0
24058  24065  24066  0
24058  24066  24061  0
24056  24061  23809  0
24056  23809  23804  0
23807  23812  24067  0
23807  24067  24062  0
24062  24067  24068  0
24062  24068  24069  0
22775  23036  24070  0
23533  23531  24071  0
23532  24072  24073  0
23532  23811  24072  0
23809  24061  24074  0
23809  24074  23805  0
23812  24075  24067  0
24067  24075  23815  0
24067  23815  24068  0
23036  24076  24070  0
23811  24077  24072  0
23811  23808  24077  0
23808  23534  24078  0
23808  24078  24079  0
23808  24079  24077  0
23534  23539  24078  0
24061  24066  24080  0
24061  24080  24074  0
23805  24074  24081  0
23805  24081  23812  0
23812  24081  24075  0
24075  23814  23815  0
23815  23816  24082  0
23815  24082  24068  0
23816  23813  24083  0
23816  24083  24082  0
24078  24084  24079  0
23539  23819  24078  0
24075  24085  23814  0
23814  24085  23818  0
24086  23818  24085  0
24078  23819  24084  0
23819  23544  23821  0
23819  23821  24087  0
23819  24087  24088  0
23819  24088  24084  0
24080  24089  24074  0
24081  24074  24089  0
24081  24090  24075  0
24085  24075  24090  0
23817  24091  23552  0
23821  23547  24092  0
23547  23822  24092  0
23818  24086  23824  0
24093  23824  24086  0
24091  23559  23552  0
24092  23822  24094  0
24092  24094  24095  0
24092  24095  24096  0
24092  24096  23821  0
23822  23555  23825  0
23822  23825  24094  0
23559  24091  23563  0
24094  23825  24097  0
24094  24097  24098  0
24094  24098  24095  0
23825  23827  23830  0
23825  23830  24097  0
23823  23824  23828  0
24099  23824  24093  0
23042  24100  24101  0
24091  24102  23563  0
23563  24102  23562  0
24097  23830  24103  0
24097  24103  24104  0
23830  23831  24103  0
23829  23828  24105  0
23828  23824  24099  0
23828  24099  24106  0
23828  24106  24105  0
23042  22786  24100  0
23562  24102  23832  0
24107  24104  24103  0
24103  23831  24107  0
23829  24107  23831  0
23836  24100  22786  0
23834  23565  23833  0
23833  23832  24108  0
23833  24108  23834  0
23834  24108  23835  0
23837  23835  24109  0
23835  24108  24109  0
23835  23837  23307  0
24109  23839  23837  0
24109  24110  23839  0
23570  23838  24111  0
23839  24110  24112  0
23839  24112  23840  0
23840  24112  24113  0
23840  24113  23576  0
24114  23838  23841  0
23838  24114  24115  0
24116  24115  24114  0
23838  24115  24117  0
23576  24113  24118  0
23576  24118  23842  0
23841  24119  24120  0
23841  24120  24114  0
23841  23578  24119  0
23578  23579  24119  0
23581  23580  23843  0
23843  23842  24121  0
23844  24119  23579  0
23843  24121  23581  0
23581  24121  24122  0
23581  24122  23584  0
24123  23585  24124  0
24124  23585  24125  0
23584  24122  24126  0
23844  23585  24123  0
23846  23584  24126  0
23846  24126  24127  0
23321  23847  23848  0
24128  23848  23847  0
23848  24128  23850  0
24129  23845  23328  0
23328  23851  24129  0
23847  24130  24128  0
24129  23851  24131  0
23851  23852  24131  0
23593  23846  24132  0
24127  24132  23846  0
24133  24130  23847  0
24134  23845  24129  0
24129  24131  24134  0
23847  23595  24133  0
24135  24134  24131  0
23592  23596  23855  0
24136  24135  24131  0
23342  23853  23602  0
24137  23602  23853  0
24138  24137  23853  0
23855  24138  23853  0
24139  24136  24140  0
23601  23854  24141  0
24142  24141  23854  0
23854  23857  24142  0
24143  24142  23857  0
