#!ascii file
16902  17188  16922  0
16906  16908  17189  0
16908  16911  17189  0
17191  16909  17192  0
16909  17191  16912  0
17193  16912  17191  0
16912  17193  16913  0
17194  16913  17193  0
16913  17194  16914  0
16915  16914  17194  0
16916  16604  17195  0
17196  16922  17188  0
16903  16608  17188  0
16917  17188  16608  0
17197  16911  16923  0
17197  17189  16911  0
17193  17198  17194  0
17194  17199  17200  0
17194  17200  16915  0
17194  17198  17199  0
16915  17200  16918  0
16915  16918  16609  0
16605  16919  16610  0
17201  16610  16919  0
16919  16326  17201  0
17202  16326  16606  0
17203  16611  16920  0
16922  17196  16929  0
16922  16929  16607  0
16337  16614  17204  0
16337  17204  16917  0
16596  16910  17205  0
16596  17205  16614  0
17206  16923  16622  0
17206  17207  17208  0
17206  17208  16923  0
17200  17209  16918  0
17200  17199  17210  0
17200  17210  17209  0
16918  17209  16925  0
16610  17211  16928  0
16610  17201  17211  0
17201  16326  17212  0
17201  17212  17213  0
17201  17213  17211  0
16326  17214  17212  0
16613  16620  17215  0
16622  16627  17216  0
16622  17216  17206  0
17217  16930  16924  0
17217  17218  16930  0
16924  16631  17219  0
16924  17219  17217  0
16631  16632  17220  0
16631  17220  17219  0
16632  16931  17220  0
16925  17221  16634  0
16925  17209  17221  0
16928  17211  17222  0
16928  17222  16635  0
17211  17213  17222  0
16614  17223  17204  0
16627  17218  17216  0
16627  16930  17218  0
16932  16633  16935  0
16932  16935  17224  0
17221  16933  16634  0
17221  17225  16933  0
16635  17222  16936  0
16620  17226  17215  0
16642  17227  16938  0
16938  17227  17228  0
16935  16640  16939  0
16935  16939  17229  0
16933  17230  16934  0
16620  16937  17226  0
16938  17228  16940  0
16939  16643  16941  0
17230  17231  16934  0
16934  17231  16927  0
16076  16936  17232  0
16076  17232  16650  0
16941  16648  17233  0
16942  16649  17234  0
16649  16647  16943  0
16943  16644  17235  0
16648  16664  17236  0
16648  17236  17233  0
16664  16956  17236  0
16655  16654  17237  0
16674  16653  16375  0
16946  16655  17237  0
16946  16948  16944  0
16956  16955  17238  0
16965  17238  16955  0
17239  17238  16965  0
16674  16945  16653  0
16948  16946  17237  0
17240  16952  16951  0
16952  17240  16953  0
17241  16953  17240  0
16953  17241  16962  0
16963  16962  17241  0
16968  17239  16965  0
16971  17239  16968  0
16945  17242  16957  0
17243  16948  17244  0
16948  17243  16959  0
16959  17245  16960  0
16960  17245  16961  0
17246  16961  17245  0
16961  17246  16951  0
17240  16951  17246  0
17240  17247  17241  0
17248  16963  17241  0
16963  17248  16964  0
17249  16964  17248  0
16964  17249  16967  0
17250  16967  17249  0
16957  17242  16973  0
16958  16974  17251  0
16683  16675  17252  0
16959  17253  17245  0
17254  17245  17253  0
17255  17245  17254  0
17245  17255  17246  0
17246  17255  17240  0
17256  16967  17250  0
16970  16976  17257  0
17258  17257  16976  0
16973  17259  16972  0
16981  16972  17259  0
17260  16975  16683  0
16683  17252  17260  0
16675  16966  17252  0
16978  17252  16966  0
16686  16967  17261  0
17256  17261  16967  0
16686  17261  16979  0
16976  17262  17258  0
17263  16702  16975  0
16975  17260  17263  0
17252  16978  17264  0
16984  17264  16978  0
17265  16991  16979  0
16979  17261  17265  0
16976  16980  17262  0
17266  16708  16981  0
16981  17267  17266  0
17268  17266  17267  0
17269  17270  17263  0
16984  16987  17271  0
16987  16986  17272  0
16987  17272  17271  0
16992  16986  16985  0
16989  16990  16993  0
17273  16993  16990  0
16990  16991  17273  0
16980  17274  17262  0
17258  17262  17274  0
16980  16995  17274  0
16708  17266  16996  0
17268  16996  17266  0
17275  17272  16986  0
16986  16992  17276  0
17277  17276  16992  0
16986  17276  17275  0
16992  16993  17277  0
17278  17277  16993  0
16993  17273  17278  0
17279  17273  16991  0
16997  16995  16994  0
16996  17268  17280  0
16996  17280  17281  0
16996  17281  16722  0
17282  17276  17277  0
17277  17278  17282  0
16997  16722  17283  0
17281  17283  16722  0
16724  16998  17003  0
17000  17284  17001  0
17001  17284  17002  0
17002  17285  16723  0
16723  17285  16998  0
16998  17286  17003  0
17003  17004  16727  0
17003  17286  17287  0
17003  17287  17004  0
16432  16729  17007  0
16432  17007  16999  0
16999  17288  17284  0
16999  17284  17000  0
16999  17007  17289  0
16999  17289  17288  0
17004  17287  17290  0
17004  17290  17006  0
17006  17290  17008  0
17008  17290  16733  0
17009  17011  17291  0
17009  17291  17007  0
17012  17292  17293  0
17012  17293  16732  0
17012  17013  17292  0
16732  17293  17010  0
16733  17294  17295  0
16733  17295  16440  0
17014  16441  17015  0
17014  17015  17296  0
17014  17296  17013  0
16440  17297  16446  0
17297  16739  16446  0
17015  17016  17298  0
17015  17298  17296  0
16739  17297  17018  0
17018  17299  17020  0
17018  17300  17299  0
17016  17017  17019  0
17020  17299  17301  0
17023  17302  17027  0
17302  17023  17303  0
17302  17304  17305  0
17302  17305  17027  0
17302  17303  17306  0
17302  17306  17304  0
17020  17301  17021  0
17307  17023  17025  0
17027  17305  17028  0
17305  17304  17308  0
16740  17030  17019  0
17021  17301  17309  0
17021  17309  17022  0
17025  17026  17310  0
17025  17310  17311  0
17025  17311  17307  0
17028  17305  17032  0
17305  17308  17312  0
17305  17312  17032  0
17309  17313  17042  0
17309  17042  17036  0
17310  17026  17314  0
17310  17314  17315  0
17310  17315  17311  0
17032  17312  17316  0
17032  17316  17033  0
17312  17317  17316  0
17045  17042  17318  0
17309  17036  17034  0
17309  17034  17022  0
17314  17026  17035  0
17033  17316  17039  0
17029  17319  17030  0
17320  17045  17321  0
17045  17041  17042  0
16169  17043  16746  0
16746  17322  16747  0
17323  17037  16747  0
17035  17038  17324  0
17035  17324  17314  0
17029  17040  17319  0
17045  17320  17046  0
17325  17037  17323  0
17326  17324  17038  0
17320  17048  17046  0
17037  17049  16766  0
17037  17325  17049  0
16758  17039  17047  0
17327  16465  16467  0
17038  16768  17326  0
17054  17040  17044  0
17328  17048  17320  0
16467  16778  17327  0
16774  17050  17329  0
17053  17326  16768  0
17330  17051  17047  0
17056  17048  17328  0
17329  17331  16774  0
17057  16774  17331  0
17051  17330  17059  0
17332  17059  17330  0
16778  16786  17333  0
17057  17334  16779  0
16804  16779  17334  0
17060  17053  17058  0
17064  17059  17332  0
17332  17335  17064  0
17336  17056  17328  0
17337  17333  16786  0
16786  16797  17337  0
17338  17334  17057  0
17339  17060  17063  0
17064  17335  17340  0
17056  17336  17055  0
17341  17339  17063  0
17064  17340  17065  0
17070  17065  17340  0
17055  17336  17062  0
16808  16804  17334  0
17342  17334  17338  0
17063  17068  17341  0
17343  17341  17068  0
17344  17062  17336  0
17062  17344  17067  0
17334  17342  16808  0
17345  16808  17342  0
17067  17344  17069  0
16797  16814  17346  0
16808  17345  17072  0
17347  17072  17345  0
17068  16813  17343  0
16810  17073  17348  0
16810  17348  16483  0
17071  17069  17349  0
17349  17069  17344  0
17350  17346  16814  0
17072  17347  16811  0
16813  17351  17352  0
17353  17352  17351  0
17349  17075  17071  0
16491  17071  17075  0
16811  17347  17074  0
17074  17351  16813  0
16814  16815  17076  0
16814  17076  17350  0
17074  17354  17351  0
16817  17075  17355  0
16815  16816  17076  0
16817  17355  17077  0
16493  17077  16820  0
16492  16818  17356  0
16492  17356  17076  0
17356  16818  17357  0
16818  16819  17357  0
17079  17358  17080  0
17080  17358  17084  0
17083  17359  16822  0
16822  17359  17360  0
16822  17360  17079  0
17079  17360  17361  0
17079  17361  17358  0
17358  17362  17084  0
17084  17362  17086  0
17084  17086  17081  0
17357  16819  16505  0
17357  16505  17089  0
17082  17085  16502  0
17082  17363  17085  0
17085  17363  17083  0
17362  17364  17086  0
17086  17364  17087  0
17086  17087  16823  0
17087  17365  17366  0
17087  17366  16824  0
17087  17364  17365  0
17366  17088  16824  0
17366  17365  17088  0
16827  17092  16828  0
17092  17093  17367  0
17090  17368  17094  0
17098  17096  17369  0
17098  17369  17370  0
17371  17097  17100  0
17371  17372  17097  0
17369  17097  17372  0
17097  17369  17096  0
16510  17101  17095  0
17373  16832  17104  0
17373  17100  16833  0
17373  16833  16832  0
17373  17371  17100  0
17101  16242  16514  0
17103  16515  17374  0
16839  17375  17106  0
17106  17104  16836  0
17373  17104  17106  0
17103  17376  17105  0
17377  16517  17105  0
17378  16517  17377  0
16517  17378  16835  0
17379  17380  17109  0
17381  17379  17109  0
17109  17110  17381  0
16845  17382  17110  0
17110  17382  17381  0
16845  17107  17382  0
17383  17382  17107  0
17107  17108  17383  0
17108  16526  17111  0
16843  17115  17380  0
16847  17380  17115  0
16843  17380  17384  0
17380  16847  17109  0
17112  17385  17111  0
17112  16528  17386  0
17113  17386  16528  0
16837  17387  16253  0
17114  17120  17113  0
17113  17120  17386  0
17388  17121  17117  0
17116  17117  17121  0
17389  17117  16850  0
16850  16852  17389  0
17118  17389  16852  0
17390  17120  17119  0
16855  17121  17125  0
17388  17391  17121  0
17121  17391  17125  0
16857  17392  17118  0
16537  16253  17126  0
17387  17126  16253  0
17123  17133  17122  0
17390  17122  17393  0
17122  17133  17393  0
17394  17393  17133  0
17122  17390  17119  0
17124  17125  17134  0
17395  17392  16857  0
16857  16858  17395  0
17396  17130  17397  0
17398  17397  17130  0
17399  17130  17396  0
17130  17399  17131  0
17394  17131  17399  0
17131  17394  17133  0
16865  17134  17140  0
17134  17400  17140  0
17395  16858  17147  0
17135  17147  16858  0
17401  17398  17130  0
17141  17140  17402  0
17146  17395  17147  0
17130  17129  17401  0
17129  17142  17401  0
17403  17142  17143  0
17143  17137  17404  0
17143  17404  17403  0
17137  17144  17404  0
17144  17145  17405  0
17402  17405  17145  0
17144  17405  17404  0
17145  17141  17402  0
17146  17149  17406  0
17150  17151  17407  0
17408  17407  17151  0
17151  17152  17408  0
17409  17408  17152  0
17152  17153  17409  0
17154  17410  16876  0
17157  17411  17153  0
17411  17157  17412  0
17159  17413  16879  0
17157  17158  17414  0
17157  17414  17412  0
17160  17415  17416  0
17160  17416  17161  0
17161  17416  17417  0
17161  17417  17162  0
17162  17417  17418  0
17162  17418  17163  0
17163  17418  16881  0
17165  17419  17166  0
17166  17419  17420  0
17166  17420  16882  0
16882  17420  16573  0
16573  17420  17167  0
17167  17413  17159  0
17413  17169  16879  0
17414  17158  17421  0
17414  17421  17422  0
17414  17422  17412  0
17158  16554  17421  0
16567  16877  17423  0
17169  17424  17170  0
17169  17413  17424  0
17421  16554  17171  0
17421  17171  17425  0
16567  17423  17426  0
16567  17426  16884  0
17170  17427  16885  0
17171  17176  17428  0
17171  17428  17425  0
17172  17173  17429  0
17173  16888  17430  0
17173  17430  17429  0
16888  16889  17431  0
16888  17431  17430  0
16889  16890  17432  0
16889  17432  17431  0
16890  16891  17433  0
16890  17433  17432  0
16891  17174  17433  0
17174  17434  17433  0
17174  16892  17434  0
16892  16893  17434  0
16885  17435  17175  0
16885  17427  17435  0
16884  17436  17177  0
17175  17437  16585  0
17175  17435  17437  0
16585  17437  16894  0
17176  16896  17438  0
17178  16588  17180  0
17178  17180  17439  0
17180  16589  17183  0
16894  17437  16895  0
16895  17184  16590  0
16896  17181  17440  0
16304  17177  17441  0
16304  17441  16898  0
16897  17442  16593  0
16899  17186  17443  0
16899  17443  17182  0
17186  16595  17187  0
17444  16900  16593  0
17185  17445  17181  0
16898  17446  16310  0
17187  16916  17195  0
16900  17444  17185  0
17447  17185  17444  0
17190  17189  17448  0
17190  17448  17449  0
17190  17449  16907  0
17192  16907  17449  0
16907  17192  16909  0
16310  17446  16910  0
17189  17197  17448  0
17450  17448  17197  0
17191  17192  17451  0
17191  17452  17193  0
17198  17193  17452  0
17188  16917  17196  0
17450  17208  17207  0
16923  17208  17197  0
17208  17450  17197  0
17191  17453  17452  0
17454  17452  17453  0
17452  17455  17198  0
17452  17454  17455  0
17456  17455  17454  0
17199  17198  17455  0
16326  17202  17214  0
17202  16606  17457  0
17458  17457  16606  0
16606  16611  17458  0
17459  17458  16611  0
16611  17203  17459  0
17203  16920  17460  0
17461  17460  16920  0
16920  16612  17461  0
16921  17461  16612  0
17462  16921  16613  0
17215  17462  16613  0
17196  16917  16929  0
17463  16929  16917  0
17204  17463  16917  0
17207  17206  17216  0
17455  17464  17199  0
17455  17456  17464  0
17210  17199  17464  0
16604  16926  17465  0
17466  17465  16926  0
17212  17214  17467  0
17468  17467  17214  0
17469  17212  17467  0
17214  17202  17468  0
17470  17459  17203  0
17203  17460  17470  0
17463  16642  16929  0
17463  17204  17227  0
16614  17205  17223  0
17216  17218  17471  0
17218  17217  17471  0
17472  17471  17217  0
17217  17219  17472  0
17473  17219  17220  0
17220  16931  17473  0
17464  17474  17210  0
17221  17209  17210  0
17222  17213  17475  0
17476  17475  17213  0
17222  17475  17477  0
17213  17212  17476  0
17469  17476  17212  0
17227  16642  17463  0
17227  17204  17228  0
17204  17223  17228  0
16931  16932  17473  0
17224  17473  16932  0
17225  17210  17474  0
17210  17225  17221  0
17478  16926  16927  0
16936  17222  17479  0
17477  17479  17222  0
17228  17223  17480  0
17223  17205  17480  0
17229  17224  16935  0
17225  17481  16933  0
17228  17480  16940  0
17224  17229  17482  0
16941  17229  16939  0
16933  17481  17230  0
17230  17481  17483  0
17230  17483  17231  0
16927  17231  17478  0
16936  17479  17232  0
17229  16941  17233  0
17229  17233  17484  0
17229  17484  17485  0
17229  17485  17482  0
17232  17479  17486  0
17232  17486  17487  0
17232  17487  16650  0
16942  17234  16937  0
16644  16940  17235  0
16940  17480  17235  0
16650  17487  16654  0
16649  17488  17234  0
16649  16943  17488  0
17238  17239  17489  0
16945  16674  17242  0
16674  16958  17490  0
17237  17491  17492  0
17237  17492  17493  0
17237  17493  16948  0
16948  17493  17244  0
16971  16970  17257  0
16971  17257  17494  0
16971  17494  17239  0
17242  16674  17490  0
17244  17495  17243  0
17244  17493  17495  0
17243  17495  17253  0
17243  17253  16959  0
17247  17496  17241  0
17247  17240  17497  0
17247  17497  17496  0
17241  17496  17248  0
17248  17498  17249  0
17249  17498  17499  0
17249  17499  17250  0
16973  17242  17259  0
17251  16974  17500  0
17251  17500  17501  0
17495  17502  17253  0
17253  17503  17504  0
17253  17504  17254  0
17253  17502  17503  0
17255  17254  17505  0
17255  17505  17506  0
17255  17506  17507  0
17255  17507  17240  0
17240  17507  17497  0
17250  17499  17256  0
17257  17258  17508  0
16974  16977  17500  0
17504  17503  17505  0
17504  17505  17254  0
17258  17509  17508  0
16981  17259  17510  0
16981  17510  17267  0
16977  16983  17511  0
16977  17511  17500  0
17260  17252  17512  0
17252  17264  17512  0
17264  17513  17512  0
16984  17271  17264  0
17261  17256  17514  0
17280  17268  17267  0
17264  17271  17515  0
17264  17515  17513  0
17271  17272  17515  0
16991  17265  17279  0
17265  17261  17514  0
17265  17514  17516  0
17517  17258  17274  0
17258  17517  17518  0
17258  17518  17509  0
17517  17280  17518  0
17269  17519  17270  0
17520  17515  17272  0
17272  17275  17520  0
17521  17275  17276  0
17522  17278  17273  0
17273  17279  17522  0
17279  17265  17523  0
17516  17523  17265  0
17279  17523  17522  0
17524  17522  17523  0
16995  16997  17274  0
17517  17274  16997  0
17517  17283  17280  0
17281  17280  17283  0
17276  17282  17521  0
17525  17521  17282  0
17282  17278  17525  0
17526  17525  17278  0
17278  17522  17526  0
17527  17526  17522  0
17283  17517  16997  0
17525  17526  17528  0
17529  17528  17526  0
17527  17529  17526  0
17284  17530  17002  0
17531  17002  17530  0
17284  17532  17530  0
17002  17531  17285  0
17533  16998  17285  0
16998  17533  17286  0
17534  17286  17533  0
17532  17284  17288  0
17286  17535  17287  0
17290  17287  17535  0
17286  17534  17535  0
17536  17535  17534  0
17291  17289  17007  0
17535  17536  17290  0
17537  17290  17536  0
17538  17290  17537  0
17290  17538  16733  0
17291  17011  17539  0
16733  17538  17294  0
17293  17540  17010  0
17541  17010  17540  0
17010  17541  17011  0
17013  17542  17292  0
17011  17541  17539  0
17297  16440  17295  0
17300  17297  17295  0
17013  17296  17542  0
17543  17542  17296  0
17018  17297  17300  0
17296  17298  17543  0
17306  17303  17544  0
17545  17544  17303  0
17019  17298  17016  0
17299  17546  17301  0
17547  17301  17546  0
17548  17023  17307  0
17023  17545  17303  0
17023  17548  17545  0
17306  17549  17304  0
17550  17304  17549  0
17304  17550  17551  0
17547  17313  17301  0
17307  17552  17548  0
17304  17551  17308  0
17553  17308  17551  0
17554  17019  17030  0
17555  17318  17042  0
17555  17042  17313  0
17309  17301  17313  0
17307  17311  17552  0
17308  17553  17312  0
17317  17312  17553  0
17553  17556  17317  0
17318  17557  17321  0
17030  17319  17554  0
17321  17558  17320  0
17321  17045  17318  0
17315  17314  17559  0
17316  17317  17560  0
17317  17561  17560  0
17317  17556  17561  0
17319  17040  17562  0
16746  17043  17322  0
17322  17323  16747  0
17314  17324  17559  0
17316  17560  17039  0
17043  16465  17563  0
17043  17563  17322  0
17324  17326  17564  0
17039  17560  17565  0
17560  17561  17566  0
17039  17565  17330  0
17039  17330  17047  0
17560  17566  17565  0
16465  17327  17567  0
17049  17325  17568  0
17049  17568  17050  0
17326  17569  17564  0
17565  17566  17570  0
17566  17571  17570  0
17040  17054  17572  0
17327  17573  17567  0
17050  17568  17574  0
17050  17574  17329  0
17326  17053  17569  0
17327  16778  17575  0
17327  17575  17573  0
16778  17333  17575  0
17329  17574  17331  0
17053  17576  17569  0
17330  17565  17335  0
17330  17335  17332  0
17565  17570  17335  0
17331  17577  17057  0
17331  17574  17577  0
17053  17060  17576  0
17057  17577  17338  0
17060  17339  17576  0
17335  17578  17340  0
17335  17570  17578  0
17337  16797  17579  0
17338  17577  17580  0
17339  17341  17581  0
17338  17580  17342  0
17341  17343  17582  0
17343  16813  17582  0
17070  17340  17073  0
17340  17578  17073  0
17578  17348  17073  0
17348  17578  17066  0
17066  16483  17348  0
16797  17346  17579  0
17345  17342  17580  0
17583  17352  17353  0
17346  17350  17584  0
17585  17584  17350  0
17354  17347  17586  0
17347  17354  17074  0
17587  17351  17354  0
17351  17587  17353  0
17588  17353  17587  0
17353  17588  17583  0
17589  17583  17588  0
17075  17349  17355  0
17590  17585  17350  0
17350  17076  17590  0
17591  17592  17593  0
17593  17592  17594  0
17594  17592  17595  0
17596  17591  17593  0
17597  17590  17076  0
17356  17597  17076  0
17594  17598  17593  0
17596  17593  17598  0
17077  17599  16820  0
17078  16820  17599  0
17598  17600  17596  0
17601  17596  17600  0
17597  17356  17602  0
17357  17602  17356  0
17600  17603  17601  0
17082  16821  17078  0
17363  17082  17078  0
17604  17083  17363  0
17359  17083  17604  0
17361  17605  17358  0
17358  17605  17362  0
17603  17606  17607  0
17362  17608  17364  0
17364  17608  17365  0
17602  17357  17091  0
17602  17091  17609  0
17357  17089  17091  0
17365  17608  17610  0
17365  17610  17611  0
17365  17611  17088  0
17088  17611  17090  0
17090  17611  17368  0
17612  17369  17372  0
17612  17613  17369  0
17369  17613  17370  0
17370  17614  17098  0
17098  17615  17099  0
17098  17614  17615  0
16828  17092  17616  0
17092  17367  17616  0
17367  17093  17617  0
17367  17617  17616  0
17093  17094  17617  0
17618  17619  17373  0
17618  17620  17621  0
17618  17621  17619  0
17619  17371  17373  0
17619  17372  17371  0
17619  17621  17612  0
17619  17612  17372  0
17099  17615  17622  0
17099  17622  16514  0
16514  17622  17101  0
17101  17623  17095  0
17618  17106  17375  0
17618  17375  17620  0
17618  17373  17106  0
16828  17624  16515  0
16515  17624  17374  0
17374  17376  17103  0
17375  16839  17625  0
17105  17376  17377  0
16839  16843  17626  0
16839  17626  17625  0
17627  17380  17379  0
17627  17384  17380  0
17381  17628  17379  0
17381  17382  17628  0
17629  17382  17383  0
16835  17378  16837  0
17626  16843  17384  0
17108  17111  17630  0
17108  17630  17383  0
16837  17378  17631  0
17630  17111  17632  0
17111  17385  17632  0
16837  17631  17387  0
17385  17112  17633  0
17385  17633  17634  0
17112  17386  17633  0
17633  17386  17120  0
17388  17117  17635  0
17388  17635  17636  0
17117  17389  17635  0
17389  17118  17637  0
17118  17392  17638  0
17118  17638  17637  0
17390  17639  17633  0
17633  17120  17390  0
17391  17636  17640  0
17391  17388  17636  0
17126  17387  17641  0
17642  17393  17394  0
17642  17394  17399  0
17642  17643  17639  0
17642  17639  17393  0
17393  17639  17390  0
17134  17125  17400  0
17125  17391  17640  0
17392  17644  17645  0
17392  17645  17638  0
17646  17638  17645  0
17392  17395  17644  0
17647  17397  17398  0
17396  17648  17399  0
17642  17399  17648  0
17402  17649  17650  0
17649  17402  17400  0
17140  17400  17402  0
17649  17400  17651  0
17125  17651  17400  0
17401  17647  17398  0
17402  17650  17405  0
17652  17405  17650  0
17406  17645  17644  0
17644  17395  17406  0
17146  17406  17395  0
16547  17653  16870  0
17647  17401  17654  0
17655  17654  17401  0
17656  17655  17401  0
17401  17142  17656  0
17142  17403  17656  0
17652  17656  17403  0
17403  17404  17652  0
17652  17404  17405  0
17657  17646  17645  0
17645  17406  17658  0
17149  17658  17406  0
17645  17658  17657  0
17658  17149  17407  0
17150  17407  17149  0
17658  17407  17657  0
17408  17659  17407  0
17657  17407  17659  0
17148  17660  16264  0
16875  16264  17660  0
17661  17659  17408  0
17660  17662  16875  0
17154  16875  17662  0
17663  17661  17408  0
17408  17409  17663  0
17409  17153  17411  0
17409  17411  17663  0
17411  17412  17663  0
17664  17663  17412  0
16877  16876  17410  0
17665  16877  17410  0
17666  17664  17412  0
16877  17665  17423  0
17418  17667  16881  0
17668  16881  17667  0
16881  17668  17164  0
17164  17668  17165  0
17669  17165  17668  0
17165  17669  17419  0
17419  17669  17420  0
17670  17420  17669  0
17671  17420  17670  0
17420  17671  17167  0
17167  17671  17413  0
17412  17422  17666  0
17672  17160  16568  0
17673  17424  17413  0
17422  17421  17425  0
17422  17425  17666  0
17674  17666  17425  0
16568  17168  17672  0
17675  17424  17673  0
17428  17674  17425  0
17436  16884  17426  0
17168  17172  17672  0
17676  17672  17172  0
17172  17429  17676  0
17431  17429  17430  0
17431  17432  17677  0
17432  17433  17677  0
17678  17677  17433  0
17434  17678  17433  0
17434  16893  17679  0
17179  17679  16893  0
16893  16584  17179  0
17424  17675  17170  0
17170  17675  17427  0
17680  17427  17675  0
17438  17428  17176  0
17439  17179  17178  0
17427  17680  17435  0
17437  17435  17681  0
17439  17180  17682  0
17438  16896  17440  0
17681  17683  17437  0
17437  17683  16895  0
17682  17180  17684  0
17180  17183  17684  0
17183  17182  17685  0
17183  17685  17686  0
16898  17441  17687  0
17182  17443  17685  0
17442  16897  17688  0
16898  17687  17446  0
17443  17186  17187  0
17442  17689  17444  0
17442  17444  16593  0
17187  17690  17443  0
17185  17691  17445  0
17185  17447  17691  0
17449  17448  17692  0
17449  17692  17451  0
17449  17451  17192  0
17690  17187  17195  0
17690  17195  17693  0
17694  17450  17207  0
17694  17448  17450  0
17448  17694  17695  0
17448  17695  17692  0
17451  17696  17453  0
17451  17453  17191  0
17451  17692  17697  0
17451  17697  17696  0
17195  16604  17693  0
17207  17216  17698  0
17207  17698  17694  0
17453  17696  17699  0
17453  17699  17454  0
17693  16604  17465  0
17457  17700  17202  0
17205  16910  17701  0
17456  17454  17702  0
17456  17702  17464  0
17467  17468  17469  0
17468  17202  17700  0
17459  17470  17703  0
17460  17461  17704  0
17460  17704  17470  0
17216  17471  17698  0
17471  17705  17698  0
17471  17472  17705  0
17219  17473  17706  0
17219  17706  17472  0
17474  17464  17707  0
17706  17473  17708  0
17473  17224  17708  0
17474  17707  17225  0
16926  17478  17466  0
17479  17477  17486  0
17475  17476  17709  0
17475  17709  17477  0
17205  17710  17480  0
17711  17708  17224  0
17224  17482  17711  0
17226  16937  17712  0
17713  17711  17482  0
17225  17714  17481  0
17715  17478  17231  0
17234  17712  16937  0
17716  17717  17480  0
17718  17713  17482  0
17719  17231  17483  0
17720  17231  17719  0
17715  17231  17720  0
17721  17487  17486  0
17486  17722  17721  0
17480  17717  17235  0
17482  17485  17718  0
17237  16654  17487  0
17488  16943  17717  0
16943  17235  17717  0
17723  17484  17233  0
17233  17236  17723  0
16956  17723  17236  0
17239  17724  17489  0
17239  17494  17725  0
17490  16958  17726  0
17727  17726  16958  0
17728  16958  17251  0
17729  17493  17492  0
17498  17248  17496  0
17730  17494  17257  0
17257  17508  17730  0
17731  17730  17508  0
17242  17490  17259  0
17732  17259  17490  0
17501  17728  17251  0
17733  17493  17729  0
17493  17733  17495  0
17734  17495  17733  0
17495  17734  17502  0
17735  17503  17502  0
17736  17506  17505  0
17506  17736  17507  0
17737  17507  17736  0
17507  17737  17497  0
17738  17497  17737  0
17497  17738  17496  0
17498  17496  17738  0
17498  17739  17499  0
17740  17503  17735  0
17503  17741  17505  0
17503  17740  17741  0
17505  17741  17736  0
17742  17736  17741  0
17736  17743  17737  0
17738  17737  17743  0
17736  17742  17743  0
17738  17744  17498  0
17745  17498  17744  0
17498  17745  17739  0
17499  17739  17745  0
17746  17256  17499  0
17508  17509  17731  0
17747  17731  17509  0
17748  17731  17747  0
17259  17732  17510  0
17260  17512  17263  0
17513  17749  17512  0
17256  17746  17514  0
17509  17518  17747  0
17747  17518  17280  0
17747  17280  17267  0
17747  17267  17750  0
17747  17750  17748  0
17267  17510  17750  0
17511  17751  17752  0
17511  17752  17500  0
17263  17512  17753  0
17263  17753  17269  0
17754  17269  17753  0
17512  17749  17753  0
17515  17755  17513  0
17756  17516  17514  0
17751  17757  17752  0
17519  17269  17754  0
17515  17520  17758  0
17515  17758  17755  0
17520  17275  17521  0
17520  17521  17759  0
17520  17759  17760  0
17520  17760  17758  0
17523  17516  17761  0
17523  17761  17524  0
17516  17756  17762  0
17516  17762  17761  0
17759  17521  17763  0
17759  17763  17760  0
17521  17525  17528  0
17521  17528  17764  0
17521  17764  17763  0
17522  17524  17765  0
17522  17765  17527  0
17761  17762  17766  0
17761  17766  17524  0
17764  17528  17767  0
17528  17529  17768  0
17528  17768  17767  0
17527  17765  17769  0
17527  17769  17529  0
17765  17524  17766  0
17529  17769  17768  0
17530  17532  17770  0
17285  17531  17533  0
17533  17531  17771  0
17533  17771  17534  0
17288  17289  17772  0
17288  17772  17532  0
17532  17773  17770  0
17532  17772  17774  0
17532  17774  17773  0
17534  17771  17775  0
17534  17775  17536  0
17289  17291  17776  0
17289  17776  17772  0
17772  17776  17774  0
17291  17539  17776  0
17538  17777  17295  0
17538  17295  17294  0
17292  17778  17779  0
17292  17779  17293  0
17293  17779  17540  0
17295  17777  17780  0
17295  17780  17781  0
17781  17300  17295  0
17292  17542  17782  0
17292  17782  17778  0
17541  17783  17784  0
17541  17784  17539  0
17300  17781  17785  0
17300  17785  17299  0
17299  17785  17786  0
17542  17543  17787  0
17299  17786  17546  0
17788  17789  17306  0
17788  17306  17544  0
17788  17544  17790  0
17789  17549  17306  0
17789  17791  17549  0
17543  17298  17787  0
17547  17546  17786  0
17544  17545  17790  0
17549  17792  17550  0
17549  17791  17792  0
17298  17793  17787  0
17298  17019  17793  0
17557  17555  17313  0
17557  17313  17794  0
17551  17556  17553  0
17551  17550  17795  0
17551  17795  17556  0
17556  17795  17796  0
17554  17793  17019  0
17557  17318  17555  0
17797  17552  17311  0
17321  17557  17558  0
17315  17797  17311  0
17556  17796  17561  0
17562  17554  17319  0
17797  17315  17559  0
17797  17559  17798  0
17559  17324  17798  0
17799  17798  17324  0
17571  17566  17561  0
17800  17322  17563  0
17324  17564  17799  0
17562  17040  17801  0
17567  17563  16465  0
17322  17802  17323  0
17325  17323  17802  0
17322  17800  17802  0
17571  17801  17572  0
17801  17040  17572  0
17325  17802  17568  0
17571  17572  17570  0
17803  17570  17572  0
17054  17803  17572  0
17320  17804  17328  0
17803  17054  17061  0
17337  17575  17333  0
17574  17805  17577  0
17803  17061  17578  0
17576  17339  17581  0
17570  17803  17578  0
17066  17578  17061  0
17337  17579  17806  0
17577  17807  17580  0
17582  17581  17341  0
17328  17808  17336  0
17582  16813  17352  0
17336  17808  17344  0
17806  17579  17346  0
17806  17346  17584  0
17806  17584  17809  0
17586  17345  17810  0
17811  17812  17352  0
17813  17344  17808  0
17345  17586  17347  0
17352  17583  17811  0
17811  17583  17814  0
17811  17814  17815  0
17344  17813  17349  0
17584  17816  17809  0
17355  17349  17813  0
17816  17584  17585  0
17583  17589  17817  0
17583  17817  17814  0
17588  17592  17589  0
17589  17592  17591  0
17589  17591  17817  0
17585  17590  17816  0
17592  17588  17595  0
17817  17591  17818  0
17355  17819  17077  0
17816  17820  17821  0
17822  17823  17594  0
17822  17594  17595  0
17822  17595  17824  0
17591  17596  17818  0
17816  17590  17820  0
17820  17590  17825  0
17590  17597  17825  0
17823  17826  17598  0
17823  17598  17594  0
17596  17601  17818  0
17825  17827  17820  0
17826  17828  17600  0
17826  17600  17598  0
17078  17599  17829  0
17827  17830  17820  0
17597  17602  17825  0
17078  17604  17363  0
17078  17829  17604  0
17604  17829  17359  0
17360  17831  17361  0
17361  17831  17605  0
17828  17832  17600  0
17603  17600  17832  0
17603  17607  17601  0
17833  17830  17827  0
17827  17825  17833  0
17609  17833  17825  0
17825  17602  17609  0
17606  17834  17607  0
17362  17605  17608  0
17603  17832  17606  0
17833  17609  17623  0
17610  17835  17611  0
17095  17623  17609  0
17609  17091  17095  0
17613  17836  17837  0
17613  17612  17836  0
17613  17837  17370  0
17370  17837  17614  0
17838  16828  17616  0
17617  17839  17616  0
17840  17617  17094  0
17094  17368  17840  0
17611  17840  17368  0
17621  17836  17612  0
17622  17623  17101  0
17624  16828  17838  0
17625  17620  17375  0
17841  17377  17376  0
17842  17377  17841  0
17377  17842  17378  0
17843  17378  17842  0
17625  17626  17844  0
17384  17844  17626  0
17845  17844  17384  0
17384  17627  17845  0
17846  17845  17627  0
17627  17379  17846  0
17628  17846  17379  0
17629  17628  17382  0
17630  17629  17383  0
17632  17385  17634  0
17847  17387  17631  0
17633  17639  17634  0
17635  17848  17636  0
17849  17637  17638  0
17848  17850  17640  0
17640  17636  17848  0
17847  17641  17387  0
17642  17648  17851  0
17851  17643  17642  0
17639  17643  17851  0
17852  17649  17651  0
17850  17852  17651  0
17125  17640  17651  0
17651  17640  17850  0
17638  17646  17849  0
17126  17641  16547  0
17653  16547  17641  0
17853  17397  17647  0
17853  17854  17397  0
17855  17397  17854  0
17397  17855  17396  0
17648  17396  17855  0
17852  17856  17649  0
17649  17856  17650  0
17853  17647  17857  0
17853  17857  17858  0
17647  17654  17857  0
17859  17652  17860  0
17860  17652  17650  0
17860  17650  17856  0
17646  17861  17849  0
17655  17656  17862  0
17656  17859  17862  0
17656  17652  17859  0
17646  17657  17861  0
16870  17653  17148  0
17657  17863  17861  0
17659  17864  17657  0
17659  17661  17864  0
17865  17866  17661  0
17865  17661  17663  0
17154  17867  17410  0
17865  17868  17866  0
17865  17663  17664  0
17865  17664  17868  0
17664  17869  17868  0
17410  17867  17665  0
17664  17666  17870  0
17415  17871  17416  0
17415  17160  17871  0
17416  17872  17417  0
17418  17417  17873  0
17418  17873  17667  0
17667  17873  17668  0
17668  17874  17669  0
17669  17875  17670  0
17671  17670  17876  0
17671  17876  17673  0
17671  17673  17413  0
17160  17672  17871  0
17875  17877  17670  0
17670  17877  17878  0
17670  17878  17876  0
17666  17674  17870  0
17423  17665  17426  0
17674  17428  17879  0
17672  17676  17880  0
17429  17431  17881  0
17429  17881  17676  0
17431  17677  17882  0
17431  17882  17881  0
17677  17883  17882  0
17677  17678  17883  0
17434  17679  17678  0
17428  17438  17884  0
17428  17884  17879  0
17679  17179  17885  0
17179  17439  17886  0
17435  17680  17681  0
17438  17887  17884  0
17439  17682  17886  0
17681  17888  17683  0
17438  17440  17887  0
17684  17183  17686  0
16895  17683  17184  0
17184  17683  17889  0
17184  17889  17890  0
16897  17184  17890  0
17890  17688  16897  0
17181  17445  17440  0
17891  17686  17685  0
17689  17442  17688  0
17892  17685  17443  0
17892  17891  17685  0
17690  17892  17443  0
17892  17690  17893  0
17693  17893  17690  0
17701  16910  17446  0
17894  17692  17695  0
17893  17693  17895  0
17896  17444  17689  0
17444  17896  17447  0
17897  17447  17896  0
17447  17897  17691  0
17694  17698  17898  0
17692  17894  17697  0
17899  17697  17894  0
17697  17899  17696  0
17900  17696  17899  0
17696  17900  17699  0
17895  17693  17465  0
17895  17465  17901  0
17902  17700  17457  0
17457  17458  17902  0
17903  17902  17458  0
17703  17903  17458  0
17458  17459  17703  0
17461  16921  17904  0
17905  17898  17698  0
17698  17705  17905  0
17699  17900  17454  0
17906  17454  17900  0
17454  17906  17702  0
17907  17901  17465  0
17465  17466  17907  0
17908  17468  17700  0
17703  17470  17704  0
17710  17205  17701  0
17909  17705  17472  0
17472  17706  17909  0
17910  17702  17906  0
17702  17911  17464  0
17707  17464  17911  0
17702  17910  17911  0
17912  17907  17466  0
17913  17476  17469  0
17469  17468  17914  0
17908  17914  17468  0
17469  17914  17913  0
17706  17708  17915  0
17916  17915  17708  0
17917  17707  17911  0
17466  17478  17912  0
17913  17709  17476  0
17708  17711  17916  0
17917  17225  17707  0
17918  17477  17709  0
17709  17913  17918  0
17480  17710  17716  0
17225  17917  17714  0
17483  17481  17714  0
17478  17715  17912  0
17486  17477  17722  0
17918  17722  17477  0
17722  17919  17721  0
17712  17234  17920  0
17921  17718  17922  0
17713  17718  17921  0
17921  17922  17923  0
17718  17485  17922  0
17924  17719  17483  0
17719  17924  17720  0
17487  17721  17919  0
17487  17919  17237  0
17488  17717  17925  0
17922  17485  17926  0
17922  17926  17927  0
17485  17484  17723  0
17485  17723  17926  0
17237  17919  17928  0
17926  17929  17927  0
17926  17723  17929  0
17723  16956  17930  0
17723  17930  17929  0
17237  17928  17491  0
16956  17238  17489  0
16956  17489  17931  0
17725  17494  17932  0
17494  17730  17933  0
17494  17933  17932  0
16958  17728  17727  0
17733  17729  17934  0
17733  17935  17734  0
17734  17936  17735  0
17734  17735  17502  0
17734  17935  17936  0
17732  17490  17937  0
17735  17936  17938  0
17735  17938  17740  0
17743  17742  17939  0
17743  17939  17738  0
17738  17939  17744  0
17745  17940  17499  0
17499  17940  17746  0
17732  17937  17510  0
17741  17740  17941  0
17741  17941  17742  0
17742  17941  17942  0
17742  17942  17939  0
17939  17942  17744  0
17744  17943  17745  0
17745  17943  17940  0
17940  17944  17746  0
17746  17945  17514  0
17746  17944  17945  0
17500  17752  17946  0
17946  17752  17947  0
17749  17948  17753  0
17749  17513  17949  0
17513  17755  17949  0
17945  17950  17514  0
17753  17948  17754  0
17755  17758  17951  0
17755  17951  17949  0
17758  17760  17952  0
17758  17952  17951  0
17756  17514  17950  0
17756  17950  17953  0
17756  17953  17954  0
17760  17763  17955  0
17760  17955  17952  0
17763  17764  17956  0
17763  17956  17955  0
17762  17756  17954  0
17762  17957  17766  0
17764  17767  17956  0
17767  17768  17958  0
17766  17957  17959  0
17766  17959  17765  0
17768  17960  17958  0
17768  17769  17960  0
17765  17959  17769  0
17530  17770  17961  0
17530  17961  17531  0
17531  17962  17771  0
17770  17773  17963  0
17771  17962  17964  0
17771  17964  17775  0
17775  17964  17965  0
17775  17965  17536  0
17536  17965  17537  0
17966  17537  17965  0
17774  17776  17967  0
17968  17967  17776  0
17537  17966  17538  0
17777  17538  17966  0
17969  17777  17966  0
17970  17540  17779  0
17776  17539  17968  0
17971  17968  17539  0
17972  17971  17539  0
17777  17969  17780  0
17973  17780  17969  0
17780  17973  17974  0
17975  17974  17973  0
17976  17974  17975  0
17541  17540  17970  0
17783  17541  17970  0
17780  17974  17781  0
17785  17781  17974  0
17974  17976  17785  0
17977  17785  17976  0
17783  17978  17784  0
17539  17784  17972  0
17972  17784  17979  0
17785  17977  17786  0
17980  17786  17977  0
17542  17787  17782  0
17784  17981  17979  0
17982  17788  17790  0
17788  17983  17789  0
17788  17982  17983  0
17789  17984  17791  0
17789  17983  17984  0
17985  17984  17983  0
17792  17791  17984  0
17986  17984  17985  0
17984  17986  17792  0
17786  17987  17547  0
17988  17790  17545  0
17790  17988  17982  0
17989  17982  17988  0
17792  17990  17795  0
17787  17793  17991  0
17313  17547  17794  0
17992  17545  17548  0
17545  17992  17988  0
17993  17988  17992  0
17792  17795  17550  0
17552  17994  17548  0
17992  17548  17994  0
17795  17995  17796  0
17996  17796  17995  0
17995  17997  17996  0
17793  17554  17998  0
17558  17557  17999  0
17552  17797  17994  0
17994  18000  17992  0
18001  18000  17994  0
17992  18000  17993  0
18002  17993  18000  0
17558  17999  18003  0
18004  17797  18005  0
17797  17798  18005  0
17797  18004  17994  0
18001  17994  18004  0
17796  17996  17561  0
17998  17554  18006  0
17562  18006  17554  0
18007  17558  18003  0
17571  17561  17996  0
17996  18008  17571  0
18006  17571  18008  0
17558  18007  17320  0
17799  18009  17798  0
17801  17571  18006  0
18006  17562  17801  0
18010  17320  18007  0
17320  18010  17804  0
17800  17563  18011  0
17563  17567  18011  0
18012  17802  17800  0
17564  17569  18013  0
17564  18013  17799  0
18012  17568  17802  0
17568  18012  18014  0
17568  18014  17574  0
17569  17576  18015  0
17804  18016  17328  0
17573  17575  18017  0
17573  18017  18018  0
17573  18018  17567  0
17574  18014  17805  0
17328  18016  17808  0
17575  17337  18017  0
17576  17581  18019  0
17337  17806  18020  0
17337  18020  18017  0
17805  17807  17577  0
17581  17582  18019  0
18019  17582  18021  0
17806  18022  18020  0
17807  18023  17580  0
17582  17352  18021  0
18022  17806  17809  0
17580  18023  17345  0
17345  18023  17810  0
18021  17352  17812  0
17809  18024  18022  0
17812  17811  17815  0
18024  18025  18026  0
18024  18026  18027  0
18024  17809  18025  0
17586  17810  18028  0
17586  18028  18029  0
17586  18029  17354  0
18025  18030  18031  0
18025  18031  18026  0
17809  17816  18025  0
17354  18029  18032  0
17354  18032  17587  0
18032  18033  17587  0
17814  17817  18034  0
17355  17813  18035  0
18025  17816  18030  0
17587  18033  17588  0
17588  18033  17595  0
17817  18036  18034  0
18030  18037  18031  0
18030  17816  17821  0
18038  18039  18040  0
18038  18040  18041  0
18040  17822  17824  0
18033  17824  17595  0
17355  18035  17819  0
18037  18042  18043  0
18030  17821  18037  0
18039  18038  18044  0
18040  18039  17823  0
18040  17823  17822  0
17817  17818  18036  0
17077  17819  17599  0
18045  18043  18042  0
18037  17821  18042  0
17820  18042  17821  0
17826  17823  18039  0
18042  18046  18045  0
18042  17820  18046  0
18039  18044  17826  0
17828  17826  18044  0
17599  18047  17829  0
17830  18046  17820  0
18048  17829  18049  0
17829  18048  17359  0
17359  18048  17360  0
17831  17360  18048  0
17831  18050  17605  0
18051  18046  17830  0
17832  17828  18052  0
18053  17601  17607  0
18054  17832  18052  0
18055  17608  17605  0
17610  17608  18055  0
18056  18057  17830  0
17830  17833  18056  0
18052  18058  18054  0
17606  17832  18054  0
17835  17610  18059  0
17623  18056  17833  0
18054  18060  17606  0
17606  18060  17834  0
18061  17835  18059  0
18062  17835  18061  0
17617  18063  17839  0
17835  18062  17611  0
17621  17620  18064  0
18064  18065  17621  0
18064  18066  18065  0
18067  18065  18066  0
17836  17621  18065  0
18068  18065  18067  0
18065  18068  17836  0
17836  18068  17837  0
18069  17837  18068  0
18070  17837  18069  0
17837  18070  17614  0
18071  17614  18070  0
17614  18071  17615  0
18072  17615  18071  0
17615  18072  17622  0
18056  17623  17622  0
17616  17839  18073  0
17616  18073  17838  0
17617  17840  18074  0
18062  17840  17611  0
17620  17625  18075  0
18076  17624  17838  0
17624  18076  17374  0
17625  17844  18075  0
18077  18075  17844  0
17844  17845  18077  0
18078  17845  17846  0
17846  17628  18078  0
17628  17629  18079  0
18080  18079  17629  0
17629  17630  18081  0
17629  18081  18080  0
17378  17843  18082  0
17378  18082  17631  0
17632  17634  18083  0
17631  18082  18084  0
18083  17634  18085  0
17631  18084  17847  0
18085  17639  18086  0
18085  17634  17639  0
17848  17635  18087  0
17635  17637  18087  0
17635  17389  17637  0
18086  17639  17851  0
18086  17851  18088  0
17848  18087  17850  0
17849  18089  17637  0
17641  17847  18090  0
17855  18091  18092  0
17855  17854  18091  0
18092  17851  17648  0
18092  17648  17855  0
18092  18088  17851  0
17852  18093  17856  0
17849  18094  18089  0
17641  18090  17653  0
17853  18095  17854  0
17853  17858  18095  0
17856  18093  18096  0
17856  18096  17860  0
17849  18097  18094  0
17654  17655  18098  0
18098  17655  18099  0
18100  17862  17859  0
18100  17859  17860  0
18100  17860  18101  0
17849  17861  18097  0
18097  18102  18094  0
18094  18102  18103  0
17655  17862  18099  0
17862  18104  18099  0
17862  18100  18104  0
17861  18105  18097  0
18097  18105  18102  0
17653  18106  17148  0
17861  17863  18105  0
18105  18107  18102  0
18102  18107  18108  0
17660  17148  17662  0
17657  17864  18109  0
17657  18109  17863  0
17863  18109  18105  0
18105  18109  18110  0
18105  18110  18107  0
18109  18111  18110  0
18109  17864  18111  0
17866  17864  17661  0
17864  17866  18111  0
17154  17662  17867  0
17868  18112  17866  0
17868  17869  18112  0
17869  17664  17870  0
17869  18113  18112  0
17416  17871  18114  0
17416  18114  17872  0
17417  17872  18115  0
17417  18115  17873  0
17873  18116  17668  0
17668  18116  17874  0
17874  17875  17669  0
18117  18113  17869  0
17869  17870  18117  0
17875  17874  17877  0
18118  18119  18117  0
17674  18117  17870  0
17665  18120  17426  0
17876  17878  18121  0
17876  18121  17673  0
17673  18121  18122  0
18117  17674  17879  0
18117  17879  18118  0
18123  17880  17676  0
17676  17881  18123  0
18124  17675  17673  0
18125  17436  17426  0
17678  17679  18126  0
17885  18126  17679  0
17886  17885  17179  0
18127  17675  18124  0
17675  18127  17680  0
18128  17436  18125  0
18129  17681  17680  0
17436  18128  17177  0
18130  17886  17682  0
17440  18131  17887  0
17682  17684  18132  0
18131  17440  18133  0
17684  17686  18134  0
17445  18133  17440  0
17687  18135  17446  0
17686  18136  18134  0
17686  17891  18136  0
17688  18137  17689  0
17445  17691  18133  0
18138  18133  17691  0
17891  17892  18139  0
17893  18139  17892  0
18137  18140  17689  0
18138  17691  17897  0
17446  18141  17701  0
17695  17694  17898  0
17893  17895  18142  0
17901  18142  17895  0
17893  18142  18143  0
17896  17689  18140  0
17695  18144  17894  0
18145  17894  18144  0
17894  18145  17899  0
18146  17899  18145  0
17899  18146  17900  0
17903  17703  18147  0
17903  18147  17902  0
17703  17704  18148  0
17703  18148  18147  0
17704  17904  18148  0
17704  17461  17904  0
16921  17462  18149  0
17462  18150  18149  0
17898  17905  18144  0
17905  18151  18144  0
17900  18146  18152  0
17900  18152  17906  0
17901  17907  18153  0
17701  18154  17710  0
17705  17909  18155  0
17705  18155  17905  0
17909  17706  17915  0
17909  17915  18156  0
17909  18156  18155  0
17906  18152  18157  0
17906  18157  17910  0
17907  17912  18158  0
17215  17226  18159  0
17226  18160  18159  0
17915  17916  18161  0
17915  18161  18156  0
17916  18162  18161  0
17911  17910  18163  0
17911  18163  17917  0
17914  18164  17913  0
17226  17712  18160  0
17913  18165  17918  0
18165  17913  18164  0
17916  17711  18162  0
17711  17713  18162  0
17715  18166  17912  0
17716  18167  17717  0
17713  18168  18162  0
17713  17921  18169  0
17713  18169  18168  0
17919  17722  17918  0
17234  17488  17920  0
17921  17923  18170  0
17921  18170  18169  0
17714  18171  17483  0
17483  18171  17924  0
17720  18166  17715  0
17488  17925  17920  0
17717  18167  17925  0
17923  17922  17927  0
17923  17927  18172  0
17923  18172  18170  0
17714  18173  18171  0
17720  17924  18174  0
17927  17929  18175  0
17927  18175  18176  0
17927  18176  18172  0
17929  17930  18175  0
17930  16956  17931  0
17930  17931  18177  0
17930  18177  18175  0
17931  18178  18177  0
17931  17489  18179  0
17931  18179  18178  0
17489  17724  18179  0
17724  17239  18180  0
17239  17725  18180  0
17725  17932  18180  0
17491  18181  18182  0
17491  18182  17492  0
17729  17492  18183  0
17492  18182  18184  0
17492  18184  18183  0
18183  18184  18185  0
18183  18185  17729  0
17934  17729  18186  0
17729  18185  18186  0
18187  18186  18185  0
17935  17733  17934  0
18188  17730  17731  0
17490  17726  17937  0
18189  17937  17726  0
17728  17501  18190  0
18186  18187  17934  0
18191  17934  18187  0
17934  18191  17935  0
18192  17936  17935  0
18193  17936  18192  0
17936  18193  17938  0
18194  18188  17731  0
18195  17510  17937  0
18196  17501  17500  0
17500  17946  18196  0
17947  18196  17946  0
17938  17941  17740  0
17938  18197  17941  0
18198  17744  17942  0
17744  18198  17943  0
17944  17940  17943  0
17731  17748  18194  0
17748  17750  18194  0
18199  18194  17750  0
18200  17750  17510  0
17510  18195  18200  0
17749  17949  17948  0
18201  17941  18202  0
17941  18201  17942  0
17942  18201  18198  0
17943  18203  17944  0
18204  17944  18203  0
17944  18204  17945  0
18205  17945  18204  0
17945  18205  17950  0
18206  18199  17750  0
17750  18200  18206  0
18207  17947  17752  0
17754  17948  18208  0
18209  18208  17948  0
18210  18209  17948  0
17948  17949  18210  0
18211  18210  17949  0
18212  18211  17949  0
17949  17951  18212  0
18213  17951  17952  0
18214  17954  17953  0
18208  18209  18215  0
18208  18215  18216  0
17952  17955  18213  0
18217  18213  17955  0
17955  17956  18217  0
17762  17954  17957  0
18218  17957  17954  0
17954  18214  18218  0
18219  17956  17767  0
17767  17958  18219  0
18220  17959  17957  0
18221  17958  17960  0
17960  17769  18222  0
17769  17959  18222  0
18223  18222  17959  0
17959  18220  18223  0
18224  17960  18222  0
18222  18223  18224  0
17770  17963  17961  0
17962  17531  17961  0
17774  17967  17773  0
17773  18225  17963  0
18226  17963  18225  0
17773  17967  18225  0
18227  18225  17967  0
17963  18226  17961  0
18228  17961  18226  0
17961  18228  17962  0
18229  17962  18228  0
17962  18229  17964  0
18230  17964  18229  0
17964  18230  17965  0
17967  17968  18227  0
18231  18227  17968  0
17965  18232  17966  0
