#!ascii file
6235  6499  6510  0
6235  6510  6508  0
6499  6500  6510  0
6499  6237  6500  0
6246  6241  6243  0
6246  6243  6511  0
6505  6512  6506  0
6505  6504  6513  0
6505  6513  6514  0
6504  6507  6513  0
6507  6509  6515  0
6507  6515  6513  0
5998  5996  6246  0
6514  6513  6516  0
6513  6515  6516  0
5993  5997  6517  0
5999  5998  6518  0
6519  6517  5997  0
6248  5758  6247  0
6519  5997  6000  0
6249  6254  6004  0
6004  6254  6250  0
6520  6250  6254  0
6521  6000  6251  0
6258  6254  6253  0
6254  6258  6520  0
6522  6520  6258  0
6521  6251  6255  0
6258  6259  6522  0
6263  6523  6522  0
6256  6524  6008  0
6268  6522  6259  0
6522  6268  6263  0
6260  6264  6261  0
6525  6261  6264  0
6265  6008  6524  0
6259  6267  6268  0
6273  6268  6267  0
6264  6024  6525  0
6019  6526  6270  0
6527  6270  6526  0
6019  6020  6526  0
6271  6270  6527  0
6271  6528  6272  0
6529  6272  6528  0
6272  6529  6267  0
6267  6529  6530  0
6267  6530  6273  0
6273  6530  6028  0
6273  6028  6021  0
6531  6532  6031  0
6031  6532  6274  0
6024  6276  6525  0
6025  6269  6533  0
6025  6533  6026  0
6027  6534  6020  0
6028  6530  6029  0
6029  6535  6275  0
6029  6530  6535  0
6275  6536  6030  0
6275  6535  6536  0
6030  6536  6531  0
6030  6531  6031  0
6034  6023  6277  0
6278  6284  6037  0
6278  6537  6538  0
6278  6538  6284  0
6278  6277  6537  0
6279  6539  5569  0
6540  6286  6281  0
6281  6280  6540  0
6280  6282  6541  0
6282  5791  6542  0
6282  6542  6541  0
5791  5792  6542  0
5792  6283  6542  0
6543  6041  6285  0
6543  6285  6284  0
6543  6284  6538  0
6543  6538  6544  0
6286  6540  6545  0
6286  6545  6287  0
6283  6546  6542  0
6283  6041  6543  0
6283  6543  6547  0
6283  6547  6546  0
6288  6042  6295  0
6039  6548  6289  0
6039  5799  6549  0
6039  6549  6548  0
5799  6040  6550  0
5799  6550  6549  0
6040  6296  6550  0
6287  6545  6291  0
6290  6551  5809  0
6046  6045  6552  0
6553  6297  6047  0
6301  6553  6047  0
6291  6554  6292  0
6555  6294  6299  0
6551  6556  5809  0
5809  6556  6300  0
6296  5814  6557  0
6046  6558  6050  0
6559  6050  6558  0
6554  6302  6292  0
6307  6292  6302  0
6292  6307  6303  0
6298  6308  6299  0
6555  6299  6560  0
6299  6308  6560  0
6556  6306  6300  0
6050  6559  6054  0
6561  6054  6559  0
6311  6060  6562  0
6563  6562  6060  0
6562  6564  6311  0
6311  6564  6312  0
6565  6312  6564  0
6063  6312  6565  0
6565  6308  6063  0
6565  6560  6308  0
6566  6065  6309  0
6567  6054  6561  0
6060  6314  6563  0
6568  6563  6314  0
6566  6316  6065  0
5821  6569  6310  0
5821  6067  6569  0
6054  6567  5822  0
6313  5822  6567  0
6314  6315  6568  0
6570  6568  6315  0
6315  6069  6320  0
6315  6320  6570  0
6571  6570  6320  0
6321  6571  6320  0
6070  6066  6321  0
6572  6067  5837  0
5838  6071  6322  0
6071  6323  6573  0
6071  6573  6322  0
6323  6574  6573  0
6318  6575  6319  0
6572  6075  6576  0
6075  6076  6576  0
6075  6572  5837  0
6324  6322  6577  0
6322  6573  6577  0
6323  6073  6077  0
6323  6077  6578  0
6076  6579  6576  0
6325  6580  6326  0
6325  6074  6324  0
6325  6324  6580  0
6077  6327  6581  0
6327  6078  6582  0
6327  6582  6583  0
6326  6580  6331  0
6327  6583  6581  0
6329  6584  6328  0
6329  6330  6584  0
6585  6332  6331  0
6330  6333  6586  0
6334  6332  6585  0
6334  6585  6587  0
6334  6587  6336  0
6333  6083  6588  0
6333  6588  6586  0
6335  6336  6589  0
6335  6589  5856  0
6083  6337  6588  0
6339  6338  6345  0
6339  6590  6340  0
6340  6590  6341  0
6345  6346  6591  0
6345  6591  6592  0
6345  6592  6339  0
6341  6342  6087  0
6593  6346  6594  0
6593  6595  6591  0
6593  6591  6346  0
6346  6596  6594  0
6346  6344  6597  0
6346  6597  6596  0
6344  6347  6597  0
6343  6342  6598  0
6343  6598  6090  0
6599  6595  6593  0
6600  6594  6596  0
6601  6597  6347  0
6347  6091  6601  0
6602  6601  6091  0
6091  6348  6602  0
6090  6598  6092  0
6349  6092  6598  0
6593  6594  6599  0
6603  6599  6594  0
6604  6349  6598  0
6605  6603  6594  0
6594  6600  6605  0
6349  6604  6351  0
6352  6355  6356  0
6606  6356  6355  0
6358  6356  6606  0
6353  6354  6607  0
6608  6358  6606  0
6358  6608  6360  0
6354  6609  6607  0
6360  6610  6361  0
6611  6361  6610  0
6360  6608  6610  0
6362  6609  6363  0
6612  6613  6614  0
6614  6361  6612  0
6611  6612  6361  0
6615  6616  6617  0
6618  6617  6619  0
6620  6619  6617  0
6621  6618  6619  0
6617  6616  6620  0
6368  6620  6616  0
6616  6367  6368  0
6616  6615  6367  0
6622  6367  6615  0
6365  6623  6362  0
6624  6375  6625  0
6626  6619  6627  0
6626  6627  6628  0
6626  6629  6619  0
6621  6619  6629  0
6626  6628  6630  0
6626  6630  6629  0
6619  6620  6631  0
6619  6631  6627  0
6620  6368  6369  0
6620  6369  6631  0
6367  6622  6376  0
6367  6376  6370  0
6632  6372  6371  0
6371  6373  6633  0
6372  6632  6364  0
6364  6632  6104  0
6365  6104  6632  0
6375  6624  6374  0
6378  6380  6634  0
6378  6634  6635  0
6378  6635  6383  0
6636  6628  6637  0
6636  6638  6630  0
6636  6630  6628  0
6636  6637  6638  0
6628  6627  6639  0
6627  6631  6639  0
6622  6640  6376  0
6376  6641  6377  0
6376  6640  6641  0
6373  6115  6642  0
6373  6642  6633  0
6111  6374  6643  0
6111  6643  6112  0
6112  5900  6116  0
6380  6644  6634  0
6380  6381  6645  0
6380  6645  6644  0
6635  6646  6383  0
6383  6637  6384  0
6383  6646  6638  0
6383  6638  6637  0
6637  6628  6647  0
6637  6647  6384  0
6628  6639  6647  0
6639  6631  6648  0
6631  6369  6386  0
6631  6386  6648  0
6641  6649  6387  0
6641  6387  6377  0
6115  6388  6642  0
6381  6650  6645  0
6381  6382  6651  0
6381  6651  6650  0
6382  6384  6652  0
6382  6652  6651  0
6384  6647  6652  0
6649  6653  6387  0
6649  6654  6653  0
6655  6656  6390  0
6655  6657  6656  0
6650  6651  6658  0
6651  6652  6658  0
6647  6639  6652  0
6639  6648  6659  0
6639  6659  6660  0
6639  6660  6652  0
6648  6386  6394  0
6648  6394  6659  0
6653  6396  6387  0
6661  6656  6657  0
6661  6657  6662  0
6661  6662  6663  0
6661  6663  6664  0
6659  6394  6393  0
6396  6665  6666  0
6396  6666  6397  0
6396  6653  6665  0
6664  6663  6667  0
6668  6659  6393  0
6669  6668  6393  0
6393  6392  6669  0
6392  6397  6669  0
6670  6669  6397  0
6671  6670  6397  0
6397  6666  6671  0
6666  6665  6672  0
6666  6672  6671  0
6670  6671  6673  0
6672  6673  6671  0
6674  6398  6399  0
6675  6667  6676  0
6136  6677  6399  0
6678  6675  6676  0
6675  6678  6402  0
6403  6402  6678  0
6677  6136  6140  0
6404  6679  6405  0
6680  6679  6404  0
6406  6143  6405  0
6140  6145  6677  0
6681  6677  6145  0
6682  6407  6137  0
6137  6408  6682  0
6409  6403  6678  0
6406  6683  6411  0
6681  6145  6155  0
6684  6682  6408  0
6408  6412  6684  0
6685  6684  6412  0
6686  6685  6412  0
6412  6150  6686  0
6409  6687  6142  0
6687  6410  6142  0
6410  6687  6413  0
6688  6413  6687  0
6416  6415  6689  0
6148  6416  6404  0
6690  6404  6416  0
6155  6691  6681  0
6407  6682  6417  0
6682  6684  6417  0
6692  6686  6150  0
6150  6151  6692  0
6420  6692  6151  0
6413  6688  6162  0
6693  6163  6162  0
6153  6419  6694  0
6153  6694  6414  0
6414  6694  6695  0
6414  6695  6154  0
6154  6695  6415  0
6696  6415  6695  0
6415  6696  6689  0
6417  6684  6167  0
6684  6685  6422  0
6684  6422  6167  0
6685  6686  6697  0
6685  6697  6698  0
6685  6698  6422  0
6157  6161  6699  0
6157  6699  6420  0
6418  6423  6700  0
6418  6700  6419  0
6701  6166  6411  0
6159  6691  6155  0
6159  6702  6691  0
6422  6698  6168  0
6703  6168  6698  0
6161  6704  6699  0
6163  6693  6170  0
6423  6705  6700  0
6424  6421  6706  0
6421  6425  6706  0
6425  6707  6706  0
6425  6172  6707  0
6427  6428  6173  0
6428  6702  6159  0
6432  6708  6431  0
6432  6179  6433  0
6433  6709  6432  0
6433  5948  6168  0
6433  6168  6703  0
6433  6703  6709  0
6161  6429  6704  0
6170  6693  6710  0
6423  6424  6705  0
6707  6172  6711  0
6172  6430  6711  0
6426  6166  6701  0
6427  6181  6712  0
6427  6712  6713  0
6427  6713  6428  0
6708  6183  6431  0
6170  6710  6177  0
6711  6714  6707  0
6180  5943  6715  0
5943  6426  6715  0
6436  6183  6716  0
6708  6716  6183  0
6177  6710  6717  0
6711  6430  6718  0
6434  6718  6430  0
6719  6720  6434  0
6434  5954  6719  0
6435  6721  6181  0
6722  6723  6724  0
6722  6724  6725  0
6726  6718  6434  0
6434  6720  6726  0
5954  6437  6719  0
6438  6719  6437  0
6436  6727  6184  0
6184  6727  6440  0
6723  6728  6729  0
6730  6729  6728  0
6728  6722  6448  0
6725  6448  6722  0
6728  6723  6722  0
6731  6438  6188  0
6443  6191  6180  0
6732  6439  6192  0
6445  6190  6441  0
6733  6728  6449  0
6448  6449  6728  0
6730  6728  6733  0
6734  6733  6449  0
6448  6725  6451  0
6735  6451  6725  0
6725  6736  6735  0
6737  6735  6736  0
6188  6442  6731  0
6738  6731  6442  0
6443  6739  5966  0
6203  5966  6739  0
6739  6740  6203  0
6444  6203  6740  0
6739  6741  6740  0
6740  6192  6444  0
6732  6192  6740  0
6742  6446  6447  0
6742  6743  6446  0
6449  6450  6744  0
6449  6744  6734  0
6451  6735  6210  0
6745  6210  6735  0
6746  6735  6737  0
6747  6456  6445  0
6742  6447  6748  0
6742  6748  6749  0
6447  6457  6748  0
6463  6750  6751  0
6750  6463  6464  0
6453  6454  6752  0
6453  6752  6450  0
6450  6752  6744  0
6210  6745  6467  0
6753  6745  6754  0
6747  6470  6456  0
6755  6470  6747  0
6458  6459  6756  0
6459  6757  6756  0
6459  6460  6757  0
6460  6461  6758  0
6463  6759  6462  0
6454  6465  6752  0
6752  6465  6471  0
6752  6471  6760  0
6467  6745  6761  0
6467  6761  6468  0
6745  6753  6761  0
6470  6762  6473  0
6470  6755  6762  0
6461  6763  6758  0
6461  6462  6763  0
6471  6472  6764  0
6471  6764  6760  0
6472  6468  6765  0
6472  6765  6764  0
6468  6766  6765  0
6761  6767  6468  0
6761  6753  6767  0
6473  6762  6474  0
6479  6768  6480  0
6479  6477  6769  0
6479  6769  6768  0
6766  6468  6770  0
6468  6767  6770  0
6218  6771  6469  0
6474  6772  6475  0
6475  6476  6219  0
6475  6772  6476  0
6476  6772  6773  0
6476  6773  6769  0
6476  6769  6477  0
6480  6481  6478  0
6480  6774  6481  0
6766  6770  6775  0
6770  6767  6485  0
6770  6485  6484  0
6770  6484  6775  0
6767  6776  6485  0
6218  6223  6771  0
6481  6774  6482  0
6484  6777  6775  0
6485  6776  6487  0
6776  6778  6489  0
6776  6489  6487  0
6482  6779  6483  0
6484  6486  6777  0
6780  6777  6486  0
6489  6778  6781  0
6489  6781  6488  0
6493  6494  6782  0
6783  6782  6494  0
6494  6495  6783  0
6779  6783  6495  0
6495  6496  6483  0
5991  6483  6496  0
6495  6483  6779  0
6784  6486  6491  0
6785  6492  6488  0
6245  6493  6501  0
6786  6491  6498  0
6492  6785  6500  0
6787  6500  6785  0
6243  6242  6788  0
6789  6788  6242  0
6242  6501  6789  0
6790  6791  6506  0
6506  6791  6498  0
6786  6498  6791  0
6792  6509  6508  0
6508  6510  6792  0
6790  6506  6512  0
6793  6512  6505  0
6515  6509  6794  0
6795  6794  6509  0
6509  6792  6795  0
6796  6795  6792  0
5993  6517  6240  0
6511  5998  6246  0
6505  6514  6793  0
6516  6793  6514  0
6516  6515  6797  0
6794  6797  6515  0
5757  5999  6798  0
5757  6798  6247  0
5999  6518  6798  0
6000  6521  6519  0
6255  6799  6521  0
6255  6261  6799  0
6261  6525  6799  0
6265  6800  6269  0
6526  6020  6534  0
6526  6534  6801  0
6271  6527  6802  0
6271  6802  6528  0
6528  6802  6803  0
6531  6536  6804  0
6531  6804  6532  0
6532  6805  6274  0
6269  6800  6533  0
6027  6806  6534  0
6528  6803  6807  0
6528  6807  6529  0
6529  6807  6808  0
6529  6808  6530  0
6530  6808  6535  0
6536  6535  6809  0
6536  6809  6804  0
6805  6810  6274  0
6274  6810  6023  0
6276  6032  6811  0
6276  6811  6812  0
6533  6813  6806  0
6533  6806  6026  0
6026  6806  6027  0
6807  6814  6808  0
6808  6814  6809  0
6808  6809  6535  0
6810  6537  6277  0
6810  6805  6537  0
6810  6277  6023  0
6032  6539  6811  0
6032  5569  6539  0
6537  6815  6816  0
6537  6816  6538  0
6816  6544  6538  0
6544  6817  6543  0
6038  6818  6279  0
6819  6545  6820  0
6821  6820  6545  0
6545  6540  6821  0
6822  6821  6540  0
6540  6280  6822  0
6823  6822  6280  0
6280  6541  6823  0
6824  6823  6541  0
6541  6542  6824  0
6825  6824  6542  0
6826  6825  6542  0
6546  6826  6542  0
6817  6547  6543  0
6818  6038  6288  0
6827  6288  6295  0
6550  6296  6828  0
6557  6828  6296  0
6819  6829  6545  0
6291  6545  6829  0
6546  6547  6826  0
6830  6826  6547  0
6547  6817  6830  0
6831  6830  6817  0
6295  6294  6827  0
6555  6827  6294  0
6046  6552  6558  0
6832  6558  6552  0
6553  6045  6297  0
6553  6301  6302  0
6553  6302  6833  0
6829  6833  6302  0
6554  6829  6302  0
6829  6554  6291  0
6834  6557  5814  0
6835  6560  6836  0
6560  6835  6555  0
6837  6306  6556  0
5814  6310  6834  0
6562  6838  6564  0
6839  6564  6838  0
6562  6563  6838  0
6840  6838  6563  0
6841  6564  6839  0
6564  6841  6565  0
6836  6565  6841  0
6565  6836  6560  0
6309  6306  6566  0
6837  6566  6306  0
6568  6842  6563  0
6840  6563  6842  0
6316  6566  6843  0
6844  6316  6843  0
6842  6568  6845  0
6568  6570  6846  0
6568  6846  6845  0
6321  6844  6571  0
6321  6066  6844  0
6066  6316  6844  0
6569  6067  6847  0
6067  6572  6847  0
6848  6313  6567  0
6313  6848  6317  0
6849  6317  6848  0
6850  6317  6849  0
6317  6850  6318  0
6318  6850  6575  0
6851  6575  6850  0
6572  6576  6847  0
6577  6852  6853  0
6577  6853  6324  0
6577  6573  6854  0
6577  6854  6852  0
6573  6574  6854  0
6574  6323  6578  0
6575  6078  5850  0
6575  5850  6319  0
6575  6851  6582  0
6575  6582  6078  0
6580  6324  6853  0
6578  6077  6581  0
6578  6581  6855  0
6578  6855  6574  0
6583  6582  6856  0
6328  6857  6579  0
6328  6579  6076  0
6580  6858  6331  0
6581  6859  6855  0
6581  6583  6859  0
6860  6584  6330  0
6860  6330  6861  0
6328  6584  6857  0
6585  6331  6858  0
6585  6858  6862  0
6861  6330  6586  0
6861  6586  6863  0
6861  6863  6864  0
6587  6585  6862  0
6863  6586  6588  0
6863  6865  6864  0
6589  6336  6587  0
6589  6866  5856  0
6588  6337  6863  0
6337  5856  6866  0
6867  6341  6590  0
6592  6868  6869  0
6592  6591  6868  0
6592  6869  6870  0
6592  6870  6339  0
6339  6870  6590  0
6342  6341  6867  0
6871  6595  6872  0
6595  6871  6868  0
6595  6868  6591  0
6599  6872  6595  0
6873  6596  6597  0
6597  6601  6873  0
6601  6602  6874  0
6342  6875  6598  0
6876  6600  6596  0
6596  6873  6876  0
6874  6873  6601  0
6877  6874  6602  0
6602  6348  6877  0
6878  6877  6348  0
6348  6350  6878  0
6604  6598  6879  0
6603  6605  6880  0
6881  6605  6600  0
6600  6876  6881  0
6877  6878  6882  0
6604  6883  6351  0
6355  6351  6883  0
6350  6099  6878  0
6884  6878  6099  0
6099  6353  6884  0
6353  6607  6885  0
6607  6886  6885  0
6355  6887  6606  0
6888  6606  6887  0
6606  6888  6608  0
6889  6608  6888  0
6609  6886  6607  0
6608  6889  6610  0
6890  6611  6610  0
6886  6609  6891  0
6362  6891  6609  0
6892  6612  6611  0
6890  6892  6611  0
6618  6893  6617  0
6617  6893  6615  0
6613  6612  6894  0
6613  6894  6625  0
6895  6625  6894  0
6618  6621  6896  0
6618  6896  6893  0
6893  6897  6615  0
6615  6898  6622  0
6615  6897  6898  0
6362  6623  6891  0
6625  6895  6624  0
6899  6624  6895  0
6629  6630  6621  0
6898  6640  6622  0
6632  6371  6633  0
6632  6900  6365  0
6623  6365  6900  0
6624  6901  6374  0
6624  6899  6901  0
6630  6902  6621  0
6903  6640  6898  0
6640  6904  6641  0
6640  6903  6904  0
6633  6642  6905  0
6901  6906  6374  0
6374  6906  6643  0
6643  6907  6112  0
6643  6908  6907  0
6909  6644  6645  0
6909  6910  6644  0
6909  6645  6911  0
6644  6910  6912  0
6644  6912  6634  0
6634  6912  6913  0
6634  6913  6635  0
6635  6913  6914  0
6635  6914  6646  0
6646  6914  6915  0
6646  6915  6638  0
6638  6915  6902  0
6638  6902  6630  0
6904  6649  6641  0
6904  6903  6916  0
6907  6389  5900  0
6907  5900  6112  0
6645  6650  6917  0
6645  6917  6911  0
6904  6654  6649  0
6904  6916  6918  0
6904  6918  6654  0
6388  6919  6642  0
6655  6389  6907  0
6655  6907  6920  0
6655  6920  6657  0
6650  6921  6917  0
6650  6658  6921  0
6658  6922  6923  0
6658  6923  6921  0
6652  6660  6658  0
6654  6924  6653  0
6654  6925  6924  0
6388  6128  6919  0
6662  6657  6926  0
6657  6920  6926  0
6658  6660  6922  0
6660  6927  6922  0
6924  6928  6653  0
6924  6925  6928  0
6653  6928  6665  0
6929  6919  6128  0
6930  6927  6660  0
6660  6659  6930  0
6931  6930  6659  0
6659  6668  6931  0
6665  6928  6932  0
6665  6932  6672  0
6128  6398  6929  0
6933  6934  6668  0
6668  6934  6931  0
6668  6669  6933  0
6669  6670  6933  0
6672  6932  6935  0
6398  6674  6929  0
6934  6933  6936  0
6937  6936  6933  0
6934  6936  6931  0
6938  6931  6936  0
6939  6937  6933  0
6933  6670  6939  0
6670  6673  6940  0
6670  6940  6941  0
6670  6941  6939  0
6673  6672  6940  0
6935  6940  6672  0
6942  6674  6399  0
6405  6679  6936  0
6938  6936  6679  0
6936  6937  6405  0
6943  6405  6937  0
6937  6939  6943  0
6944  6943  6939  0
6942  6399  6677  0
6676  6945  6678  0
6405  6943  6406  0
6683  6406  6943  0
6946  6683  6943  0
6947  6677  6681  0
6687  6409  6678  0
6404  6690  6680  0
6948  6680  6690  0
6949  6416  6689  0
6683  6946  6411  0
6950  6681  6691  0
6688  6687  6951  0
6693  6162  6688  0
6689  6696  6952  0
6689  6952  6949  0
6953  6411  6946  0
6954  6697  6686  0
6686  6692  6954  0
6699  6692  6420  0
6955  6693  6688  0
6419  6700  6956  0
6419  6956  6694  0
6694  6956  6957  0
6694  6957  6695  0
6695  6957  6696  0
6696  6958  6959  0
6696  6959  6952  0
6411  6953  6701  0
6698  6697  6960  0
6698  6960  6703  0
6697  6954  6960  0
6699  6704  6961  0
6699  6961  6962  0
6699  6962  6692  0
6700  6705  6963  0
6700  6963  6956  0
6958  6696  6957  0
6432  6964  6965  0
6432  6709  6964  0
6703  6960  6709  0
6693  6966  6710  0
6967  6705  6968  0
6967  6963  6705  0
6705  6424  6969  0
6705  6969  6968  0
6424  6970  6969  0
6424  6706  6970  0
6706  6971  6970  0
6706  6707  6971  0
6712  6181  6972  0
6428  6713  6702  0
6961  6704  6429  0
6969  6970  6973  0
6970  6971  6714  0
6970  6714  6973  0
6971  6707  6714  0
6426  6701  6974  0
6426  6974  6715  0
6181  6721  6975  0
6181  6975  6972  0
6710  6976  6717  0
6969  6973  6729  0
6969  6729  6977  0
6969  6977  6968  0
6973  6723  6729  0
6973  6714  6724  0
6973  6724  6723  0
6714  6978  6724  0
6714  6711  6979  0
6714  6979  6978  0
6711  6718  6979  0
6439  6721  6435  0
6727  6436  6980  0
6716  6980  6436  0
6717  6976  6981  0
6736  6725  6724  0
6724  6978  6736  0
6737  6736  6978  0
6978  6979  6737  0
6982  6737  6979  0
6979  6718  6982  0
6726  6982  6718  0
6726  6720  6983  0
6715  6984  6180  0
6721  6439  6975  0
6732  6975  6439  0
6985  6440  6727  0
6986  6977  6729  0
6729  6730  6986  0
6987  6986  6730  0
6988  6719  6438  0
6731  6988  6438  0
6989  6180  6984  0
6180  6989  6443  0
6739  6443  6989  0
6441  6440  6990  0
6985  6990  6440  0
6441  6990  6445  0
6991  6445  6990  0
6992  6446  6743  0
6993  6733  6734  0
6733  6993  6730  0
6987  6730  6993  0
6737  6982  6746  0
6994  6746  6982  0
6741  6995  6740  0
6732  6740  6995  0
6742  6996  6743  0
6742  6749  6996  0
6744  6997  6734  0
6734  6997  6998  0
6734  6998  6993  0
6735  6746  6745  0
6754  6745  6746  0
6746  6994  6754  0
6991  6747  6445  0
6755  6747  6991  0
6749  6748  6999  0
7000  7001  6751  0
7002  6751  7001  0
6751  6759  6463  0
7003  6997  7004  0
6998  6997  7003  0
7003  7004  7005  0
6997  6744  7004  0
6442  6455  6738  0
6457  6458  7006  0
6457  7006  6748  0
6458  6756  7007  0
6458  7007  7006  0
6756  6757  7007  0
6757  6460  6758  0
6757  6758  7008  0
6757  7008  7007  0
6751  7002  6759  0
7009  6759  7002  0
6759  7009  6462  0
7010  6462  7009  0
7004  7011  7012  0
7004  7012  7005  0
7004  6744  7013  0
7004  7013  7011  0
6744  6752  6760  0
6744  6760  7013  0
6455  6469  7014  0
6455  7014  6738  0
7015  6762  6755  0
7008  6758  7016  0
6758  6763  7017  0
6758  7017  7016  0
6763  6462  7018  0
6763  7018  7019  0
6763  7019  7017  0
6462  7010  7018  0
7011  7013  7020  0
7013  6760  7021  0
7013  7021  7020  0
6760  6764  7022  0
6760  7022  7021  0
6764  6765  7023  0
6764  7023  7022  0
6765  6766  7024  0
6765  7024  7023  0
6753  6776  6767  0
6762  7025  6474  0
6768  7026  6774  0
6768  6774  6480  0
7018  7010  7019  0
6766  6775  7027  0
6766  7027  7024  0
6469  6771  7014  0
6474  7025  7028  0
6474  7028  6772  0
6772  7029  7030  0
6772  7030  6773  0
6772  7028  7031  0
6772  7031  7029  0
6773  7030  7032  0
6773  7032  6769  0
6769  7032  7033  0
6769  7033  6768  0
6774  7026  7034  0
6776  7035  6778  0
6771  6223  7036  0
7029  7037  7030  0
7030  7037  7038  0
7030  7038  7032  0
7032  7038  6782  0
7032  6782  7039  0
7032  7039  7033  0
7039  7034  7026  0
7039  7026  7033  0
6774  7034  6779  0
6774  6779  6482  0
6775  6777  7040  0
7041  7040  6777  0
6778  7035  7042  0
7029  7031  7043  0
6783  7039  6782  0
7039  6783  7034  0
7034  6783  6779  0
7041  6777  6780  0
6778  7042  6781  0
6223  6490  7044  0
6501  7038  7037  0
7037  7029  7043  0
7038  6501  6782  0
6493  6782  6501  0
6486  6784  6780  0
6780  7045  7041  0
6780  6784  7045  0
6488  6781  6785  0
6785  6781  7046  0
6490  6240  7047  0
7037  6789  6501  0
7037  7043  7048  0
7037  7048  6789  0
6491  6786  6784  0
6785  7046  7049  0
7050  7047  6240  0
7048  6788  6789  0
6791  6790  7051  0
6791  7051  7052  0
6791  7052  6786  0
6792  6510  6796  0
7053  6796  6510  0
6510  6500  7053  0
6500  6787  7053  0
6787  6785  7054  0
7049  7054  6785  0
6511  6243  7055  0
6788  7055  6243  0
6240  6517  7050  0
7056  7050  6517  0
5998  6511  7057  0
7055  7057  6511  0
5998  7057  6518  0
6512  6793  7058  0
7059  7058  6793  0
6793  6516  7059  0
6797  7059  6516  0
6797  6794  7060  0
7061  6247  6798  0
7061  6248  6247  0
7062  6248  7061  0
6517  6519  7063  0
6517  7063  7056  0
7064  6248  7062  0
6519  7065  7063  0
6248  7064  6256  0
7066  6256  7064  0
6519  6521  7065  0
6521  6799  7067  0
6521  7067  7065  0
6256  7066  6524  0
7068  6524  7066  0
6524  7068  6265  0
6265  7068  6800  0
6526  7069  6527  0
7070  7071  7072  0
7070  7073  7074  0
7070  7074  7071  0
7070  7072  7075  0
7070  7075  7073  0
6525  6276  6812  0
6525  6812  6799  0
6800  7076  6533  0
6534  7077  6801  0
6534  6806  7077  0
6803  7078  6807  0
6804  6809  7079  0
6804  7080  6532  0
6532  7080  6805  0
7081  7082  7075  0
7081  7075  7072  0
7081  7083  7084  0
7081  7084  7082  0
7072  7071  7085  0
7072  7085  7081  0
7071  7086  7085  0
7071  7074  7086  0
6533  7076  6813  0
6807  7078  7087  0
6807  7087  6814  0
6814  7087  7088  0
6814  7088  6809  0
6809  7088  7079  0
6805  7080  6815  0
6805  6815  6537  0
7083  7081  7089  0
7081  7085  7089  0
7085  7086  7090  0
7085  7090  7089  0
7086  7091  7092  0
7086  7092  7090  0
7091  7093  7092  0
7091  7086  7094  0
7091  7094  7093  0
7093  7094  7095  0
7089  7096  7083  0
7089  7090  7097  0
7098  7097  7090  0
7089  7097  7096  0
7090  7092  7098  0
7099  7098  7092  0
7092  7093  7099  0
7100  7099  7093  0
7093  7095  7100  0
6279  6818  6539  0
6544  6816  7101  0
7102  7101  6816  0
6815  7102  6816  0
7103  7097  7098  0
7098  7099  7103  0
7100  7103  7099  0
6824  6825  7104  0
7105  6817  7106  0
6544  7106  6817  0
6288  7107  6818  0
6288  6827  7107  0
7108  7107  6827  0
6290  6289  7109  0
7110  7109  6289  0
6290  7109  7111  0
6289  6548  7110  0
7112  7110  6548  0
6548  6549  7112  0
7113  7112  6549  0
6549  6550  7113  0
6828  7113  6550  0
6820  6833  6829  0
6829  6819  6820  0
7114  7104  6825  0
6825  6826  7114  0
6817  7105  6831  0
6827  6555  7108  0
7115  7108  6555  0
7111  6556  6551  0
6551  6290  7111  0
6828  6557  7116  0
7117  7116  6557  0
7118  6552  6045  0
6045  6553  7118  0
6833  7118  6553  0
6830  7114  6826  0
7115  6555  6835  0
6557  6834  7117  0
6839  7119  6841  0
7120  6841  7119  0
6841  7120  6836  0
6835  6836  7120  0
6556  7121  6837  0
6558  7122  6559  0
6561  6559  7122  0
7123  6839  6838  0
6843  6566  6837  0
7124  6834  6310  0
6561  7125  6567  0
6848  6567  7125  0
6310  6569  7124  0
6842  6845  7126  0
6842  7126  6840  0
6845  6846  7126  0
6846  6570  7127  0
6570  6571  7128  0
6570  7128  7127  0
6571  6844  7128  0
6844  7129  7128  0
6850  7130  6851  0
6576  7131  6847  0
6576  7132  7131  0
6852  6854  7133  0
6851  7134  6582  0
7132  6576  6579  0
6853  7135  7136  0
6853  7136  6580  0
6853  6852  7133  0
6853  7133  7135  0
6854  6574  7137  0
6854  7137  7133  0
6574  6855  7137  0
6582  7138  6856  0
6857  7139  6579  0
6858  6580  7136  0
6858  7136  6862  0
7137  6855  7140  0
7137  7140  7141  0
6855  6859  7140  0
6859  6583  6856  0
6860  7142  6584  0
6860  6861  6864  0
6584  7142  6857  0
6862  7143  6587  0
6589  6587  7144  0
6587  7143  7144  0
6865  6863  7145  0
6863  6337  7145  0
6337  6866  7145  0
6869  7146  6870  0
6870  7146  7147  0
6870  7147  6590  0
6590  7147  6867  0
6871  7148  6868  0
6868  7148  7149  0
6868  7149  6869  0
6869  7149  7146  0
6599  7150  7151  0
6599  7151  6872  0
7152  7150  6599  0
6342  6867  6875  0
6875  6879  6598  0
6599  6603  7152  0
6880  7152  6603  0
7153  6876  6873  0
6873  6874  7153  0
6874  6877  7154  0
6605  6881  6880  0
7155  6880  6881  0
6881  6876  7155  0
7156  7155  6876  0
6876  7153  7156  0
6874  7154  7153  0
7157  7154  6877  0
6877  6882  7157  0
6883  6604  6879  0
7158  7159  7160  0
6882  6878  7161  0
6885  6884  6353  0
6883  7162  6355  0
6887  6355  7162  0
7163  6887  7164  0
6887  7163  6888  0
7159  7158  7165  0
6885  6886  7166  0
7167  6889  6888  0
6889  7167  6610  0
7168  6610  7167  0
6610  7168  6890  0
7169  6892  6890  0
7170  6894  6612  0
6612  6892  7170  0
6893  6896  6897  0
6899  6895  6894  0
6896  7171  6897  0
6897  7171  6898  0
6632  6633  6900  0
6621  6902  7172  0
6621  7172  6896  0
6896  7172  7173  0
6896  7173  7171  0
7171  7174  6898  0
7175  6898  7174  0
6898  7175  6903  0
6633  7176  6900  0
6633  6905  7176  0
6899  7177  6901  0
7178  6901  7177  0
6901  7178  6906  0
6643  6906  6908  0
6909  6911  7179  0
6909  7179  6910  0
6910  7180  6912  0
7181  6912  7180  0
6912  7182  6913  0
6912  7181  7182  0
6913  7182  6914  0
6914  7183  6915  0
6902  6915  7184  0
6902  7184  7172  0
6903  7185  6916  0
6903  7175  7185  0
6905  6642  7186  0
6908  7187  6907  0
6911  6917  7188  0
6911  7189  7179  0
6911  7188  7189  0
7182  7181  7190  0
7182  7190  7191  0
7182  7191  6914  0
6914  7191  7183  0
7183  7184  6915  0
7185  6918  6916  0
7185  7175  7192  0
6642  6919  7186  0
6920  6907  7187  0
6917  6921  7193  0
6917  7193  7188  0
7185  7192  7194  0
7185  7194  6918  0
6918  6925  6654  0
6921  6923  7193  0
6922  7195  6923  0
6918  7196  6925  0
6919  6929  7186  0
6662  6926  7197  0
6662  7197  7198  0
6662  7198  6663  0
6922  6927  7195  0
6927  6930  7199  0
6925  7200  6928  0
6928  7200  6932  0
7198  7201  6663  0
6667  6663  7201  0
7202  6930  6931  0
7203  6929  6674  0
7201  7204  6667  0
6676  6667  7204  0
7205  7202  6931  0
6931  6938  7205  0
7206  6941  6940  0
7207  6940  6935  0
6935  6932  7208  0
6935  7208  7207  0
7207  7208  7209  0
6674  6942  7203  0
6679  6680  6938  0
7210  6938  6680  0
6938  7210  7205  0
6939  6941  6944  0
7206  6940  7207  0
6676  7204  7211  0
6676  7211  6945  0
6680  6948  7210  0
6943  6944  6946  0
6944  6941  7212  0
7213  7212  6941  0
6944  7212  7214  0
6944  7214  6946  0
6941  7206  7213  0
6677  6947  6942  0
7215  6946  7214  0
7216  6678  6945  0
6678  7216  6687  0
6951  6687  7216  0
6416  6949  6690  0
6690  7217  6948  0
6690  6949  7217  0
7218  7217  6949  0
6946  7215  6953  0
6681  6950  6947  0
7219  6688  6951  0
7218  6949  6952  0
7220  6688  7219  0
6688  7220  6955  0
6959  7221  6952  0
6691  7222  6950  0
6954  6692  7223  0
6962  7223  6692  0
6693  6955  6966  0
6956  6963  7224  0
6956  7224  6957  0
6957  7224  6958  0
7225  6701  6953  0
6691  6702  7226  0
6691  7226  7222  0
6432  6965  7227  0
6432  7227  6708  0
6964  6709  7228  0
6709  6960  7228  0
6960  6954  7228  0
6954  7223  7228  0
6962  6961  7229  0
6967  7230  6963  0
6963  7230  7231  0
6963  7231  7224  0
7224  7232  6958  0
6958  7233  6959  0
6712  6972  7234  0
6712  7234  6713  0
7235  6716  6708  0
7235  6708  7227  0
6961  7236  7229  0
7237  6710  6966  0
6967  6968  7230  0
7231  7238  7224  0
7224  7238  7232  0
7233  6958  7232  0
6701  7225  7239  0
6701  7239  6974  0
6972  6975  7240  0
6716  7235  6980  0
6976  6710  7237  0
6976  7237  7241  0
6968  6977  7242  0
6968  7242  7230  0
6975  6732  7243  0
6975  7243  7240  0
6980  6985  6727  0
6974  7239  6715  0
6715  7239  6984  0
6977  6986  7242  0
7244  7242  6986  0
6986  6987  7244  0
7245  7244  6987  0
6726  6983  6982  0
7246  6982  6983  0
6983  6720  7247  0
6983  7247  7246  0
6720  6719  7247  0
6988  7247  6719  0
6984  7248  6989  0
6989  6741  6739  0
6989  7248  6741  0
6741  7249  6995  0
6732  6995  7243  0
6980  6990  6985  0
6990  7250  6991  0
7251  6996  7252  0
7253  7252  6996  0
7251  6743  6996  0
6743  7251  6992  0
6987  7254  7245  0
6982  7246  6994  0
7250  7255  6991  0
7256  7253  6996  0
7001  7000  7257  0
6993  7254  6987  0
7258  6993  6998  0
7259  6754  6994  0
6731  6738  7260  0
6991  7261  6755  0
6996  6749  7256  0
6999  7256  6749  0
7262  7002  7001  0
7003  7005  6998  0
7263  6998  7005  0
6754  7259  6753  0
7264  6999  6748  0
6748  7006  7264  0
7006  7007  7264  0
7012  7265  7005  0
7265  7266  7005  0
7263  7005  7266  0
6738  7014  7267  0
6738  7267  7260  0
7007  7008  7268  0
7269  7268  7008  0
7265  7012  7270  0
7265  7270  7266  0
7012  7011  7271  0
7012  7271  7270  0
7272  7270  7271  0
7011  7020  7271  0
7021  7022  7273  0
7021  7273  7020  0
7022  7023  7274  0
7022  7274  7273  0
6753  7259  7035  0
6753  7035  6776  0
7014  7036  7267  0
7025  6762  7015  0
7027  6775  7275  0
7259  7276  7035  0
7014  6771  7036  0
7277  7028  7025  0
7028  7277  7031  0
6768  7033  7026  0
6775  7040  7275  0
7035  7276  7042  0
7031  7277  7278  0
7040  7041  7279  0
6223  7044  7036  0
7031  7278  7280  0
7031  7280  7043  0
7042  7281  6781  0
7044  6490  7047  0
7044  7047  7282  0
7043  7280  7283  0
6781  7281  7046  0
7046  7281  7284  0
7043  7283  7285  0
7043  7285  7048  0
7286  6784  6786  0
6784  7286  7045  0
7046  7287  7049  0
7046  7284  7287  0
6786  7052  7286  0
7053  6787  7288  0
7054  7288  6787  0
7289  7049  7287  0
6512  7290  7291  0
6512  7291  6790  0
6512  7058  7290  0
7292  7290  7058  0
6790  7291  7293  0
6790  7293  7051  0
7051  7293  7294  0
6794  6795  7060  0
7295  7060  6795  0
6795  6796  7296  0
6795  7296  7295  0
6796  7053  7296  0
7288  7296  7053  0
7288  7054  7297  0
7054  7049  7289  0
7058  7059  7292  0
7298  7292  7059  0
7059  6797  7298  0
7057  7299  6798  0
6798  7299  7061  0
6798  6518  7057  0
7061  7300  7062  0
7301  7063  7065  0
7302  7303  7304  0
7305  7304  7303  0
7304  7306  7302  0
7307  7302  7306  0
7308  7306  7304  0
7306  7309  7307  0
7310  7307  7309  0
7306  7308  7309  0
7309  7311  7310  0
7312  7310  7311  0
7065  7067  7301  0
7313  7303  7314  0
7313  7315  7303  0
7316  7314  7303  0
7305  7303  7315  0
7303  7302  7316  0
7307  7316  7302  0
7066  7317  7068  0
7318  7068  7317  0
7319  7313  7320  0
7321  7320  7313  0
7319  7320  7322  0
7313  7314  7321  0
7323  7321  7314  0
7314  7316  7323  0
7324  7323  7316  0
7316  7307  7324  0
7307  7310  7324  0
7325  7324  7310  0
6799  7326  7067  0
7068  7318  6800  0
7327  6800  7318  0
7069  6526  6801  0
7328  7074  7073  0
7073  7075  7329  0
7074  7328  7320  0
7322  7320  7328  0
7320  7321  7330  0
7320  7330  7074  0
7321  7323  7331  0
7321  7331  7330  0
7324  7325  7332  0
6799  6812  7326  0
6800  7327  7076  0
7333  6803  6802  0
6804  7079  7334  0
6804  7334  7080  0
7329  7075  7082  0
7074  7330  7086  0
7330  7331  7094  0
7330  7094  7086  0
7331  7323  7335  0
7331  7335  7094  0
7323  7324  7332  0
7323  7332  7335  0
7332  7325  7336  0
7337  7332  7336  0
6812  6811  7326  0
6813  7338  6806  0
6806  7338  7077  0
6803  7333  7339  0
6803  7339  7078  0
7078  7339  7087  0
7087  7340  7341  0
7087  7341  7088  0
7088  7341  7342  0
7088  7342  7079  0
7079  7342  7343  0
7079  7343  7334  0
7334  7344  6815  0
7334  6815  7080  0
7334  7343  7345  0
7334  7345  7344  0
7094  7335  7095  0
7335  7332  7346  0
7335  7346  7095  0
7332  7337  7346  0
7087  7339  7340  0
7344  7102  6815  0
7344  7345  7347  0
7344  7347  7102  0
7083  7096  7348  0
7083  7348  7084  0
7096  7097  7349  0
7096  7349  7348  0
7095  7350  7100  0
7095  7346  7350  0
6818  7351  6539  0
7102  7347  7101  0
7097  7103  7349  0
7100  7352  7103  0
7100  7350  7352  0
6818  7107  7351  0
7353  6820  6821  0
6821  6822  7353  0
6823  6824  7354  0
7104  7354  6824  0
7106  6544  7355  0
7101  7355  6544  0
7103  7352  7356  0
7357  7113  6828  0
7358  7359  7118  0
7353  7118  6833  0
6833  6820  7353  0
7104  7114  7360  0
7361  7360  7114  0
6556  7111  7362  0
6556  7362  7121  0
6828  7116  7357  0
6552  7359  7363  0
6552  7363  6832  0
6552  7118  7359  0
7364  7361  7114  0
7114  6830  7364  0
7365  7364  6830  0
6830  6831  7365  0
7366  7120  7367  0
7120  7366  6835  0
6835  7366  7115  0
6558  6832  7122  0
6839  7123  7119  0
7368  7119  7123  0
7119  7368  7120  0
7367  7120  7368  0
7124  7117  6834  0
7125  6561  7122  0
6838  6840  7123  0
7369  7123  6840  0
7123  7369  7370  0
7371  7370  7369  0
6837  7121  7372  0
6837  7372  6843  0
6840  7126  7369  0
7373  7129  6844  0
6844  6843  7373  0
7372  7373  6843  0
7124  6569  7374  0
7375  7374  6569  0
7125  7376  6848  0
7377  6848  7376  0
7378  7126  6846  0
6846  7127  7378  0
7379  7378  7127  0
7127  7128  7379  0
6847  7131  7380  0
6847  7380  6569  0
6848  7377  6849  0
7381  6849  7377  0
6849  7381  6850  0
7130  6850  7381  0
7382  6851  7130  0
6851  7382  7134  0
7131  7132  7383  0
6579  7139  7132  0
7135  7133  7384  0
7135  7384  7385  0
7133  7386  7384  0
7133  7137  7386  0
7138  7387  6856  0
7138  6582  7134  0
7139  7388  7132  0
7136  7135  7385  0
7386  7137  7141  0
7386  7141  7389  0
7140  6859  7387  0
6859  6856  7387  0
6860  6864  7390  0
6860  7390  7142  0
7388  6857  7142  0
6857  7388  7139  0
6862  7136  7143  0
7141  7140  7389  0
7143  7136  7391  0
6864  6865  7392  0
7143  7391  7144  0
6865  7145  7393  0
6865  7393  7392  0
7145  7394  7393  0
7145  6866  7394  0
6866  6589  7144  0
7395  7396  7397  0
7395  7398  7399  0
7395  7399  7396  0
7397  7400  7395  0
7398  7395  7401  0
7398  7401  7402  0
7398  7402  7399  0
7395  7400  7403  0
7395  7403  7401  0
7403  7400  7404  0
6872  7405  7406  0
6872  7406  6871  0
6872  7151  7405  0
6871  7406  7148  0
7148  7407  7149  0
7149  7408  7146  0
7146  7408  7147  0
7147  7408  6867  0
7152  6880  7409  0
7410  7409  6880  0
7155  7410  6880  0
6867  7408  7411  0
6867  7411  6875  0
7412  7156  7153  0
7153  7154  7412  0
6879  7162  6883  0
6879  6875  7413  0
6879  7413  7162  0
7155  7156  7414  0
7415  7160  7156  0
7156  7160  7414  0
7416  7414  7160  0
7156  7412  7415  0
7159  7417  7416  0
7159  7416  7160  0
7160  7415  7158  0
7418  7158  7415  0
7415  7412  7419  0
7420  7419  7412  0
7415  7419  7418  0
7412  7154  7420  0
7421  7420  7154  0
7154  7157  7421  0
7422  7421  7157  0
7157  6882  7422  0
7161  7422  6882  0
6884  7161  6878  0
7162  7164  6887  0
7159  7165  7417  0
7423  7417  7165  0
7424  7418  7419  0
7164  7425  7163  0
7426  7163  7425  0
7163  7426  6888  0
7165  7158  7427  0
7165  7427  7423  0
7428  7423  7427  0
7158  7418  7427  0
7429  7427  7418  0
7430  6888  7426  0
6888  7430  7167  0
7431  6890  7168  0
7429  7428  7427  0
7166  6886  7432  0
6891  7432  6886  0
7166  7432  7433  0
7169  7170  6892  0
7431  7169  6890  0
7434  7432  6891  0
6894  7170  7435  0
6891  6623  7434  0
6899  6894  7436  0
7435  7436  6894  0
7434  6623  7437  0
6623  6900  7437  0
7171  7173  7174  0
7437  6900  7176  0
7176  6905  7438  0
6910  7439  7180  0
7440  7180  7439  0
6910  7179  7439  0
7180  7441  7181  0
7180  7440  7441  0
7172  7184  7173  0
7173  7184  7442  0
7173  7442  7174  0
7174  7442  7175  0
6905  7186  7443  0
6905  7443  7438  0
7444  6906  7178  0
6906  7444  6908  0
7187  6908  7444  0
7189  7445  7179  0
7446  7181  7441  0
7181  7446  7190  0
7191  7447  7183  0
7183  7448  7184  0
7183  7447  7448  0
7184  7449  7442  0
7192  7175  7442  0
7187  7450  6920  0
7451  6920  7450  0
7188  7193  7452  0
7188  7452  7453  0
7188  7453  7189  0
7454  7191  7190  0
7191  7454  7447  0
7192  7455  7194  0
6926  6920  7451  0
6926  7451  7456  0
7452  7457  7453  0
7193  7458  7452  0
7193  6923  7458  0
7186  6929  7459  0
7197  6926  7456  0
7197  7460  7198  0
7452  7461  7457  0
7452  7458  7461  0
6923  7195  7458  0
6927  7199  7462  0
6927  7462  7195  0
6925  7463  7200  0
6925  7464  7463  0
7198  7460  7465  0
7199  6930  7202  0
7200  7466  6932  0
6929  7203  7467  0
6929  7467  7459  0
7198  7465  7468  0
7198  7468  7201  0
6932  7466  7208  0
7208  7469  7209  0
7201  7468  7470  0
7201  7470  7204  0
7203  6942  7471  0
7204  7470  7211  0
7472  7205  7210  0
7206  7207  7473  0
7206  7473  7213  0
7207  7474  7473  0
7209  7474  7207  0
7210  6948  7472  0
7217  7472  6948  0
7214  7212  7215  0
7212  7213  7475  0
7212  7475  7215  0
6945  7211  7476  0
6945  7476  7477  0
6945  7477  7216  0
7217  7218  7478  0
7479  6947  6950  0
7216  7480  6951  0
7481  7218  6952  0
7219  6951  7480  0
7481  6952  7221  0
7482  7218  7481  0
7483  6955  7220  0
6955  7483  6966  0
7484  7481  7221  0
7485  7227  6965  0
6965  6964  7486  0
6964  7228  7486  0
7487  7486  7228  0
7228  7223  7488  0
6962  7488  7223  0
7237  6966  7483  0
7489  7481  7484  0
6702  7490  7226  0
7235  7227  7485  0
7488  7487  7228  0
7488  6962  7491  0
7229  7491  6962  0
7233  7492  6959  0
6959  7492  7221  0
7221  7492  7484  0
7234  7493  6713  0
7234  6972  7493  0
6713  7494  6702  0
7490  6702  7494  0
7235  7495  6980  0
7229  7236  7491  0
7496  7241  7237  0
7230  7242  7231  0
7231  7497  7238  0
7238  7497  7232  0
7232  7497  7233  0
7240  7243  7498  0
7240  7493  6972  0
7499  6980  7495  0
7236  7500  7501  0
7236  7501  7491  0
7242  7244  7231  0
7231  7244  7497  0
7497  7502  7233  0
7233  7502  7492  0
7492  7503  7484  0
7239  7248  6984  0
7239  7504  7248  0
6995  7498  7243  0
6995  7249  7498  0
7499  6990  6980  0
7505  7251  7252  0
7251  7505  7501  0
7251  7501  6992  0
6992  7501  7500  0
7244  7245  7497  0
7497  7245  7502  0
7502  7506  7503  0
7502  7503  7492  0
7248  7249  6741  0
6990  7499  7250  0
7507  7252  7253  0
7507  7508  7252  0
7245  7254  7509  0
7245  7509  7502  0
7502  7509  7506  0
7246  7510  6994  0
7247  7511  7246  0
7247  6988  7512  0
7247  7512  7511  0
6988  6731  7260  0
6988  7260  7512  0
7507  7253  7256  0
7513  7514  7257  0
7257  7514  7262  0
6993  7258  7254  0
7515  7254  7258  0
7516  7254  7515  0
7254  7516  7509  0
7509  7516  7506  0
7517  7259  6994  0
6994  7510  7517  0
7511  7510  7246  0
7261  7518  6755  0
7256  6999  7519  0
7520  7519  6999  0
7257  7262  7001  0
6998  7263  7258  0
7258  7263  7515  0
7521  7515  7263  0
7515  7521  7516  0
6755  7518  7015  0
6999  7264  7520  0
7522  7520  7264  0
7264  7007  7522  0
7262  7523  7002  0
7002  7524  7009  0
7002  7523  7524  0
7266  7525  7263  0
7263  7525  7526  0
7263  7526  7521  0
7527  7521  7526  0
7260  7267  7528  0
7007  7268  7522  0
7266  7270  7525  0
7529  7525  7270  0
7530  7272  7271  0
7271  7020  7531  0
7532  7531  7020  0
7271  7531  7530  0
7273  7532  7020  0
7533  7274  7023  0
7259  7517  7276  0
7036  7528  7267  0
7015  7534  7025  0
7270  7272  7529  0
7530  7529  7272  0
7023  7024  7533  0
7535  7533  7024  0
7024  7027  7535  0
7536  7535  7027  0
7027  7275  7536  0
7537  7536  7275  0
7276  7517  7538  0
7528  7036  7539  0
7528  7539  7540  0
7025  7541  7277  0
7542  7277  7541  0
7275  7040  7537  0
7537  7040  7543  0
7277  7542  7278  0
7040  7279  7543  0
7276  7538  7281  0
7276  7281  7042  0
7538  7544  7281  0
7538  7545  7544  0
7539  7546  7540  0
7539  7036  7044  0
7547  7278  7542  0
7278  7547  7280  0
7279  7041  7548  0
7544  7545  7549  0
7549  7545  7546  0
7540  7546  7545  0
7539  7044  7546  0
7041  7045  7548  0
7281  7544  7550  0
7281  7550  7284  0
7544  7549  7551  0
7544  7551  7550  0
7549  7546  7552  0
7549  7552  7551  0
7546  7044  7282  0
7546  7282  7552  0
7283  7553  7285  0
7551  7554  7550  0
7552  7282  7555  0
7552  7555  7556  0
7552  7556  7551  0
7282  7047  7555  0
7052  7051  7294  0
7284  7550  7557  0
7284  7557  7287  0
7550  7554  7557  0
7555  7047  7050  0
7555  7050  7558  0
7055  6788  7559  0
6788  7048  7560  0
6788  7560  7559  0
7048  7285  7560  0
7290  7561  7291  0
7290  7292  7562  0
7290  7562  7561  0
7296  7563  7295  0
7296  7288  7564  0
7296  7564  7563  0
7288  7297  7564  0
7297  7054  7565  0
7054  7289  7565  0
7287  7557  7289  0
7050  7056  7558  0
7055  7559  7566  0
7055  7566  7057  0
6797  7060  7298  0
7567  7298  7060  0
7060  7568  7567  0
7060  7295  7568  0
7563  7568  7295  0
7565  7289  7569  0
7570  7569  7289  0
7571  7570  7289  0
7289  7557  7571  0
7566  7299  7057  0
7299  7572  7061  0
7573  7292  7298  0
7567  7573  7298  0
7574  7558  7056  0
7300  7061  7575  0
7572  7575  7061  0
7064  7062  7300  0
7056  7063  7574  0
7576  7577  7308  0
7309  7308  7577  0
7576  7578  7577  0
7579  7576  7308  0
7577  7311  7309  0
7311  7577  7580  0
7311  7580  7581  0
7063  7301  7574  0
7317  7066  7064  0
7582  7304  7305  0
7304  7582  7308  0
7579  7308  7582  0
7311  7581  7312  0
7313  7319  7315  0
7583  7315  7319  0
7584  7305  7315  0
7310  7312  7325  0
7585  7301  7067  0
7319  7322  7583  0
7586  7583  7322  0
7587  7325  7312  0
7312  7588  7587  0
7067  7326  7585  0
7589  6801  7077  0
7069  7590  6527  0
6802  6527  7590  0
7073  7329  7328  0
7591  7328  7329  0
7328  7591  7322  0
7592  7322  7591  0
7322  7592  7586  0
7587  7336  7325  0
7593  7585  7326  0
7077  7338  7594  0
7077  7594  7589  0
7333  6802  7590  0
7329  7082  7595  0
7329  7595  7591  0
7591  7595  7596  0
7591  7596  7592  0
7592  7597  7586  0
7326  6811  7593  0
7340  7339  7598  0
7340  7599  7341  0
7600  7341  7599  0
7342  7341  7600  0
7343  7601  7345  0
7082  7084  7348  0
7082  7348  7595  0
7596  7595  7602  0
7592  7596  7597  0
7337  7336  7587  0
7593  6811  7603  0
6811  6539  7604  0
6811  7604  7603  0
7348  7602  7595  0
7348  7349  7605  0
7348  7605  7602  0
7350  7346  7606  0
7346  7337  7606  0
7351  7604  6539  0
7350  7606  7607  0
7107  7608  7351  0
7353  6822  7609  0
6822  6823  7610  0
6823  7354  7610  0
7354  7104  7611  0
7104  7360  7611  0
7612  7613  7105  0
7612  7105  7614  0
7614  7105  7106  0
7614  7106  7355  0
7355  7101  7615  0
7103  7356  7349  0
7352  7350  7616  0
7352  7616  7617  0
7352  7617  7356  0
7350  7607  7618  0
7350  7618  7616  0
7108  7619  7608  0
7108  7608  7107  0
7118  7353  7609  0
7118  7609  7358  0
7613  7365  7105  0
6831  7105  7365  0
7613  7620  7365  0
7616  7367  7621  0
7616  7621  7617  0
7616  7618  7366  0
7616  7366  7367  0
7366  7618  7622  0
7366  7622  7115  0
7115  7622  7619  0
7115  7619  7108  0
7362  7111  7109  0
7357  7116  7623  0
7117  7623  7116  0
7359  7624  7363  0
7358  7625  7359  0
7361  7364  7626  0
7627  7364  7365  0
7365  7620  7628  0
7365  7628  7627  0
7621  7367  7368  0
7629  7621  7368  0
7124  7623  7117  0
7627  7626  7364  0
7123  7370  7368  0
7629  7368  7370  0
7125  7122  7630  0
6832  7630  7122  0
7369  7126  7371  0
7378  7371  7126  0
7631  7371  7378  0
7378  7379  7631  0
7632  7631  7379  0
7379  7128  7632  0
7128  7129  7632  0
6569  7380  7375  0
7382  7130  7381  0
7131  7383  7380  0
7633  7380  7383  0
7380  7634  7375  0
7380  7633  7634  0
7635  7634  7633  0
7633  7383  7132  0
7387  7138  7636  0
7637  7636  7138  0
7638  7387  7636  0
7134  7637  7138  0
7639  7132  7388  0
7132  7639  7633  0
7640  7633  7639  0
7136  7385  7641  0
7642  7641  7385  0
7643  7642  7385  0
7385  7384  7643  0
7384  7386  7643  0
7389  7643  7386  0
7638  7140  7387  0
7142  7390  7644  0
7142  7645  7388  0
7639  7388  7645  0
7136  7641  7391  0
7642  7643  7646  0
7389  7647  7643  0
7389  7140  7647  0
7641  7642  7648  0
6864  7392  7649  0
6864  7649  7390  0
7144  7391  7650  0
7651  7144  7650  0
7391  7641  7648  0
7391  7648  7650  0
7394  6866  7652  0
6866  7144  7651  0
6866  7651  7652  0
7653  7654  7655  0
7653  7656  7654  0
7657  7654  7656  0
7654  7658  7659  0
7654  7659  7655  0
7654  7657  7658  0
7655  7659  7660  0
7659  7658  7661  0
7659  7661  7660  0
7658  7662  7663  0
7658  7663  7661  0
7658  7664  7662  0
7665  7662  7664  0
7662  7396  7399  0
7662  7399  7663  0
7662  7665  7666  0
7662  7666  7396  0
7396  7666  7667  0
7396  7667  7397  0
7397  7668  7400  0
7397  7667  7668  0
7660  7661  7669  0
7661  7663  7670  0
7661  7670  7669  0
7663  7399  7402  0
7663  7402  7670  0
7400  7668  7671  0
7400  7671  7404  0
7402  7401  7672  0
7401  7403  7673  0
7401  7673  7672  0
7403  7404  7673  0
7672  7673  7674  0
7673  7404  7674  0
7675  7405  7151  0
7675  7151  7150  0
7675  7150  7676  0
7405  7677  7406  0
7406  7677  7678  0
7406  7678  7148  0
7148  7678  7407  0
7676  7150  7152  0
7676  7152  7679  0
7149  7407  7680  0
7149  7681  7408  0
7149  7680  7681  0
7152  7409  7679  0
7408  7682  7411  0
7155  7683  7410  0
7155  7414  7683  0
7682  7684  7411  0
7411  7685  6875  0
7411  7684  7685  0
7413  6875  7685  0
7414  7416  7686  0
7687  7686  7416  0
7413  7688  7162  0
7416  7417  7687  0
7162  7689  7164  0
7417  7690  7687  0
7417  7423  7690  0
7419  7420  7424  0
7420  7421  7691  0
7420  7691  7424  0
7425  7164  7689  0
7425  7692  7426  0
7693  7426  7692  0
7426  7693  7430  0
7694  7430  7693  0
7167  7430  7695  0
7430  7694  7695  0
7696  7695  7694  0
7168  7167  7695  0
7697  7695  7696  0
7695  7698  7168  0
7695  7697  7698  0
7699  7698  7697  0
7700  7698  7699  0
7423  7428  7690  0
7701  7690  7428  0
7418  7424  7429  0
7702  7429  7424  0
7703  7424  7691  0
6885  7166  7433  0
7168  7698  7431  0
7700  7431  7698  0
7704  7705  7428  0
7701  7428  7705  0
7428  7429  7704  0
7706  7429  7702  0
7702  7424  7706  0
7703  7706  7424  0
7170  7169  7707  0
7170  7707  7435  0
7708  7435  7707  0
7705  7704  7709  0
7710  7709  7704  0
7704  7429  7710  0
7711  7710  7429  0
7429  7706  7711  0
7712  7710  7711  0
7713  7711  7706  0
7714  7436  7435  0
7715  6899  7436  0
7716  7712  7711  0
7717  7434  7437  0
6899  7715  7177  0
7718  7177  7715  0
7440  7439  7719  0
7720  7719  7439  0
7719  7721  7440  0
7722  7440  7721  0
7176  7438  7437  0
7717  7437  7438  0
7177  7718  7178  0
7723  7439  7445  0
7179  7445  7439  0
7720  7439  7723  0
7724  7723  7445  0
7440  7722  7441  0
7725  7441  7722  0
7438  7443  7726  0
7178  7727  7444  0
7450  7444  7727  0
7444  7450  7187  0
7445  7189  7724  0
7441  7725  7446  0
7184  7448  7449  0
7449  7728  7442  0
7442  7728  7455  0
7442  7455  7192  0
7443  7729  7726  0
7450  7727  7451  0
7730  7451  7727  0
7189  7453  7731  0
7189  7731  7724  0
7732  7190  7446  0
7190  7732  7454  0
7443  7186  7729  0
7451  7730  7456  0
7733  7456  7730  0
7453  7734  7731  0
7453  7457  7734  0
7194  7735  7196  0
7194  7196  6918  0
7194  7455  7735  0
7186  7459  7729  0
7456  7736  7197  0
7456  7733  7737  0
7456  7737  7736  0
7461  7458  7738  0
7195  7739  7458  0
7195  7462  7739  0
7196  7464  6925  0
7196  7735  7464  0
7460  7197  7736  0
7461  7740  7457  0
7461  7738  7740  0
7458  7739  7738  0
