#!ascii file
 -3.811292   16.262789   64.874977  0
-14.941401   17.836590   70.239006  0
-16.049763   18.276657   69.371277  0
-18.190704   18.167530   68.588287  0
-24.744644   18.103298   69.960655  0
-22.877052   17.754147   69.339615  0
-22.912474   19.498449   69.484726  0
-18.817314   17.602716   63.664738  0
-21.448715   18.593884   68.522247  0
-21.742006   20.227388   68.559975  0
-20.617035   19.505125   66.939575  0
-23.644386   16.214195   69.000710  0
-26.288467   18.117416   70.060326  0
-25.782866   16.486696   69.345856  0
-27.425978   17.613468   69.629562  0
-26.919441   19.057114   69.640556  0
-28.816935   18.988600   68.625862  0
 -1.152223   18.029747   61.200165  0
 -1.381227   16.758751   62.451962  0
 -1.855937   17.887087   59.682068  0
-20.206837   19.612509   65.426682  0
-27.436434   15.822434   68.395920  0
-29.093979   17.392559   68.426369  0
-30.938557   17.614004   66.750305  0
-33.686626   18.416466   64.724983  0
 -2.777290   17.771946   58.730247  0
 -5.799739   17.963503   57.678829  0
-35.375294   19.486885   62.825626  0
-18.581453   19.202251   61.588585  0
-20.609570   19.253609   61.986305  0
-23.830687   18.721567   60.025204  0
-24.422544   19.052073   60.920143  0
-22.726479   19.028206   61.376274  0
-26.511623   19.415386   60.743969  0
-28.327044   20.268427   60.991390  0
-37.151657   18.759720   60.576782  0
-38.448112   17.702286   59.202507  0
-30.219782   18.617788   57.243233  0
-31.265179   19.718126   57.418243  0
-32.792503   19.832150   56.373878  0
-37.962967   18.898388   58.472580  0
-34.046543   19.000526   54.636181  0
-34.708027   19.697186   55.710865  0
-35.722534   18.662750   54.803658  0
-36.315544   19.679293   56.391991  0
-37.665001   18.939537   57.196651  0
 -5.432016   15.133885   55.911140  0
-23.151014   17.588970   55.876919  0
 -5.947542   14.356052   53.776382  0
-23.433180   17.126907   53.872139  0
-39.183640   19.096405   52.157364  0
-41.426514   19.218212   51.800133  0
-43.988407   18.490959   51.345718  0
-23.985668   17.480137   52.757999  0
-37.913395   18.765797   51.681896  0
-24.664820   17.729937   51.133701  0
-24.854832   17.315971   50.094860  0
-35.499500   17.886959   49.341072  0
-37.985764   19.436440   49.811558  0
 -8.907663   14.371826   48.030800  0
-33.048172   16.625637   48.027531  0
-34.587959   17.698486   48.174141  0
-42.321869   17.352427   44.607597  0
-45.341911   18.507967   47.605213  0
-32.299896   16.580458   47.832180  0
-39.922554   16.076082   44.198265  0
 -8.037072   15.839889   45.703293  0
-26.995544   16.845465   49.506351  0
-30.267300   15.754483   48.934124  0
-37.214226   15.545196   43.235119  0
  0.420141   16.851570   45.920769  0
 -2.523932   17.715410   47.876495  0
 -4.281231   17.454519   47.640129  0
 -6.042464   16.772156   46.383568  0
-34.735401   14.677676   41.579281  0
-35.811459   15.224216   42.215443  0
  0.726106   17.143650   44.160469  0
 -4.883939   18.044220   47.053230  0
 -7.078374   16.619255   46.026302  0
 -1.399978   16.831955   41.487698  0
 -1.070543   16.257336   39.668823  0
 -2.098389   16.700481   40.656055  0
-45.181351   18.043451   44.135059  0
-48.469933   18.287502   42.828880  0
-34.119408   17.074444   40.049011  0
-40.266804   16.993675   41.260704  0
-43.655827   17.329111   43.740459  0
-36.558201   16.718140   38.534538  0
-49.247601   17.876230   38.549362  0
-35.532692   17.478685   38.173275  0
-48.145836   18.467642   37.672516  0
-46.869476   17.944126   36.003231  0
-44.523975   17.578119   34.488747  0
-44.756004   17.068323   33.115192  0
  2.202068   16.751104   34.786358  0
-42.681152   17.165720   33.215504  0
  2.444150   16.255390   33.510815  0
-22.880909   17.212444   31.241760  0
-22.554911   17.142729   30.651514  0
  2.778870   17.343998   30.802826  0
-23.380207   18.135271   29.711342  0
-24.222651   18.330311   29.037767  0
-25.654169   18.211403   28.257843  0
  1.832628   17.047211   26.734818  0
  1.004320   16.587133   24.995855  0
  3.075163   16.759800   22.378212  0
  2.805126   16.200645   21.444916  0
  2.227389   17.451059   20.597172  0
  1.265298   17.621107   19.902243  0
-23.012566   18.396631   21.292358  0
  0.692474   16.870199   19.639149  0
-22.635696   17.748501   19.441221  0
  0.831207   18.165104   18.458090  0
  1.309497   16.511971   17.059494  0
  2.138834   15.518911   16.297554  0
-24.535431   15.427699   16.624840  0
-23.680241   13.712234   13.887897  0
-24.657984   14.074445   13.968803  0
  4.672504   12.930472   13.348103  0
 -5.579662   15.983061   12.112182  0
 -5.488097   15.909695   11.194396  0
-23.966820   13.544954   11.976305  0
 -3.625528   17.064585    8.390383  0
-22.368404   13.915432    8.849612  0
-24.259062   13.245974   10.092808  0
-23.163258   13.443422    9.463489  0
-21.556023   13.983218    8.321939  0
-14.129983   20.050127    5.119342  0
-13.704126   20.453726    5.192970  0
-22.819254   13.638409    7.606649  0
-24.289890   13.465656    6.517492  0
-25.680569   14.150443    5.264204  0
-11.030189   18.918179    3.635440  0
-14.728899   19.037682    4.308652  0
-26.466743   15.465103    3.752579  0
-16.786671   18.471859    2.794891  0
-16.070251   19.426834    4.148526  0
-17.591993   18.970636    0.932017  0
-25.783836   15.498444    1.882325  0
-26.279249   16.667444    2.432968  0
-19.242060   17.861910    0.316986  0
-18.071644   18.404337    0.640903  0
-19.064297   19.219217    0.950309  0
-24.946911   17.440716    0.946512  0
-26.137814   18.592285    2.679750  0
-24.374643   16.305807    0.073036  0
-20.831970   17.234669   -0.068667  0
-23.339214   16.842520   -0.023356  0
-33.897270   18.384380    7.531507  0
-35.550892   18.818445    8.072505  0
-34.577728   19.259760    7.914714  0
-43.119377   18.954166    1.525149  0
-42.796452   18.379929    3.064227  0
-25.075220   18.992229   -0.430391  0
-30.705929   19.117445    3.487933  0
-31.689173   20.033875    5.260307  0
-34.524944   20.509130    7.012352  0
-42.234550   19.837639    1.240340  0
-41.300980   20.890579   -0.962166  0
-40.872803   20.663378   -2.970842  0
-39.761261   21.443144   -4.254127  0
-25.386587   19.571718   -5.264791  0
-26.492266   20.156654   -6.053706  0
-27.947165   20.784239   -6.818370  0
-29.560770   21.173819   -7.685482  0
-31.490124   20.988155   -8.386228  0
-32.164692   22.152023   -8.399000  0
-34.684967   21.200970   -8.543525  0
-36.763733   21.242887   -8.118280  0
-38.579735   19.729282   -8.555788  0
-38.484093   21.597488   -6.196247  0
-24.788221   20.939997   -5.971616  0
-25.638834   20.813009   -6.042459  0
-27.187065   20.753481   -7.120085  0
-28.213381   20.652281   -8.005239  0
-30.443378   20.731434  -10.825176  0
-17.113192   22.902237  -10.835712  0
-31.442415   20.362766  -12.151244  0
-19.520664   22.791328  -12.210455  0
-21.282692   22.151680  -13.763248  0
-23.067865   22.182486  -14.281048  0
-24.623028   21.850101  -14.799529  0
-26.038431   21.835590  -14.629532  0
-27.844620   20.596046  -14.935335  0
-32.607220   19.146168  -13.762765  0
-27.527617   22.077534  -13.661668  0
-30.676294   20.166489  -13.465169  0
 -4.470450   18.019291   78.501274  0
 -6.725931   19.128263   78.396576  0
 -8.608423   18.814610   78.029762  0
 -3.184427   18.051304   76.655907  0
 -3.960933   18.832624   78.021423  0
 -9.313959   19.746889   76.799721  0
 -2.652492   17.895456   74.850983  0
-11.666306   19.236483   74.366547  0
 -3.251200   18.161674   68.324852  0
 -3.148116   17.565235   66.522972  0
-14.112572   18.535458   71.494820  0
-15.003397   18.589432   71.417847  0
-15.559804   18.801109   70.408821  0
-19.560160   18.184961   68.195152  0
-19.982231   18.024609   66.784721  0
-25.104078   19.926004   69.742241  0
-23.067419   20.950367   68.999733  0
-21.926249   20.937218   67.793259  0
 -1.821466   16.852701   63.486256  0
-19.511028   18.053980   64.907547  0
-26.237841   20.231775   68.976715  0
-27.891323   20.823826   67.565819  0
-20.754944   20.190607   65.353355  0
-30.583519   19.433470   67.064972  0
-30.613045   21.243063   66.178307  0
 -3.068741   18.927660   58.899937  0
-32.068138   20.025253   65.607811  0
-33.784184   20.913282   63.920563  0
 -4.534189   18.368126   58.367321  0
-21.739347   18.744261   61.014389  0
-22.110737   19.716393   63.114090  0
-22.365679   20.198841   64.564804  0
-24.968203   20.019073   62.767296  0
-25.023916   20.517658   64.579575  0
-26.880314   20.777769   62.399075  0
-28.214058   22.007530   63.444031  0
-35.681419   20.342169   61.882019  0
-30.185535   20.619179   59.895966  0
-29.495291   21.600336   61.613712  0
-31.365454   21.487604   60.617996  0
-33.661461   21.818848   59.568836  0
-35.033379   21.033857   57.689701  0
-35.056263   21.791759   58.997952  0
-34.375351   21.995699   60.308270  0
-35.822166   21.034245   60.209442  0
-23.207987   18.810484   59.531605  0
-36.534348   20.440645   58.055901  0
-23.799324   18.081200   54.689438  0
-23.370274   17.917768   54.094349  0
 -6.423273   14.766510   51.663830  0
 -7.708564   14.251457   50.680630  0
-23.469864   18.079760   53.650955  0
 -7.674123   14.467455   48.914211  0
-44.260662   19.142143   50.250904  0
-23.628740   17.907305   52.606865  0
-40.317017   20.187351   50.402977  0
-42.165836   20.298283   49.860844  0
-45.184128   18.868484   49.192204  0
-39.351780   20.679131   48.753899  0
-40.947681   20.895649   48.790733  0
-42.526226   20.999353   47.687885  0
-44.995663   19.525795   47.930233  0
-25.754194   17.478827   49.647747  0
-36.065399   19.007679   47.998566  0
-37.438667   20.386150   47.799423  0
-43.534111   18.685760   45.377617  0
-44.389668   19.432688   46.804810  0
-43.472828   19.709532   45.863213  0
-33.208107   17.750153   47.701672  0
-40.907791   17.891174   42.990509  0
-42.533680   19.185186   43.741776  0
-31.856764   16.351467   48.418831  0
-38.868126   17.173496   42.336075  0
  0.026799   17.876680   46.884361  0
 -1.275223   18.311623   47.499901  0
 -3.419194   18.353697   47.582031  0
-36.807671   16.564734   41.697788  0
 -5.845405   17.782238   46.461151  0
-35.072136   16.032196   40.785694  0
-36.456367   17.795349   40.677868  0
  0.833806   17.931736   41.891472  0
 -0.170853   17.926630   41.353268  0
 -1.461195   18.938248   40.493038  0
 -1.982608   17.658110   40.933426  0
 -1.904985   18.491940   40.163692  0
-47.874443   18.925684   43.464115  0
-46.733574   18.810774   44.069279  0
-48.802761   18.867670   40.825642  0
 -0.807399   18.307705   38.765507  0
 -1.409241   17.377649   39.484879  0
-42.910732   18.183199   43.593750  0
-41.817825   19.673489   42.512840  0
  0.332059   18.294666   38.042248  0
  1.094265   17.798100   37.417648  0
-33.846004   18.987463   39.649105  0
-39.358498   17.823463   39.815258  0
-40.622463   18.602255   41.039806  0
-35.250885   18.819262   38.232529  0
-37.477097   18.036596   38.121071  0
-38.804401   19.205008   38.642033  0
-47.319111   19.329193   37.575123  0
-48.670872   18.868389   39.287186  0
-25.399572   16.302851   34.267742  0
-27.206766   16.425909   33.935600  0
-45.502010   18.325506   35.786739  0
-24.847626   16.089529   33.020493  0
-29.923166   15.867690   31.960907  0
-43.892799   18.026989   34.504845  0
-41.778320   17.795969   33.271820  0
  3.298858   17.959568   33.613251  0
  2.095375   18.330462   35.827122  0
-31.255577   15.708843   30.380167  0
-39.374577   16.796646   31.732029  0
-35.910809   15.345836   29.539352  0
-37.296799   15.795776   30.108095  0
-23.273266   18.500978   30.173647  0
  2.475221   17.705807   28.111183  0
-24.686548   19.528135   28.047058  0
-25.623516   19.048878   27.530991  0
-43.040367   13.181108   25.162207  0
-44.863308   13.754591   25.632517  0
-44.717403   14.113736   24.701391  0
-44.310009   14.655227   23.925566  0
-41.850109   13.092673   26.624538  0
-44.612576   13.622078   26.503355  0
-45.999874   15.891407   24.986448  0
-24.803322   19.648861   26.885717  0
-42.635433   14.011181   23.343040  0
  1.071640   17.503855   25.841896  0
  3.081946   18.071804   22.761559  0
-23.861155   19.431084   25.186562  0
  3.044889   17.875834   21.174818  0
-22.367929   18.925829   23.786755  0
-22.027502   18.708221   21.673830  0
-24.546013   16.848314   16.959368  0
-25.242825   15.000040   14.925629  0
-26.141434   14.303458   12.916593  0
-25.505224   16.442263   15.678527  0
 -4.972589   17.700409   10.151138  0
-15.866566   20.684198    8.799121  0
-14.825378   21.205923    6.602622  0
-15.755551   20.993345    7.156816  0
-16.518734   19.695091   10.190928  0
-15.824425   19.697115   10.405877  0
-16.882992   20.637741    8.857670  0
-26.097298   13.341532   10.519126  0
-28.996502   15.279937   11.804938  0
-27.801077   13.872565   10.684786  0
 -4.531460   19.847448    8.797219  0
-24.376682   13.715431    7.957260  0
-26.083107   13.382246    8.555063  0
-28.187620   13.659122    8.988056  0
-29.909117   14.694429   10.022117  0
-30.893677   16.024441   10.818805  0
-30.319897   14.906838    8.692808  0
-15.265719   20.571352    5.647724  0
-17.486988   20.904312    6.897866  0
-26.077366   14.078368    6.802437  0
-27.724234   14.417187    6.796519  0
-29.099604   14.348616    7.596423  0
  4.186310   16.215528    6.559629  0
  5.265961   17.217865    7.491086  0
  5.310458   16.413597    7.597308  0
  4.290072   17.027943    5.938773  0
  4.938942   17.131281    6.603729  0
-16.543278   20.517248    5.441055  0
-27.158430   15.716585    5.121385  0
-29.059797   15.570412    6.244373  0
-27.965969   16.548279    5.382547  0
-27.174164   17.820150    4.407741  0
-30.403944   15.672186    7.037839  0
-27.105526   17.013750    3.994277  0
-17.756933   19.996828    4.333551  0
-17.924913   19.312881    2.430610  0
-18.429718   20.033510    3.137510  0
-18.787949   20.090292    1.896725  0
-20.427492   20.500443    2.020994  0
-21.351961   19.280859    1.497434  0
-22.890606   18.235203    0.746000  0
-23.451754   19.227127    1.744744  0
-25.025892   19.183123    2.194543  0
-37.217766   21.860489    6.683670  0
-37.876640   21.087954    7.166027  0
-36.504723   20.520578    7.815277  0
-41.968147   18.537125    5.053190  0
-40.496529   18.989183    6.362419  0
-41.619938   19.440990    4.194504  0
-40.497887   21.147005    4.409547  0
-36.912910   24.134815    4.664216  0
-40.846889   21.471306    1.014238  0
-25.407106   21.608088    0.236311  0
-24.752190   20.857765   -2.768546  0
-29.296440   19.971865    3.314847  0
-30.520102   22.089039    4.381250  0
-33.045746   23.497974    4.965304  0
-24.786173   21.100740   -4.353863  0
-39.956497   22.023676   -1.224905  0
-25.917353   21.685194   -4.947567  0
-26.835346   22.260706   -6.010069  0
-28.087175   22.795511   -7.059390  0
-29.566618   22.967911   -8.081557  0
-32.956524   23.149042   -7.945680  0
-34.820992   22.648685   -7.425775  0
-39.027275   21.934027   -4.800385  0
-38.176655   22.681820   -3.285501  0
-36.659225   22.972897   -5.217671  0
-36.385204   22.450851   -6.610739  0
-25.708996   21.482101   -6.857046  0
-26.164318   20.801817   -6.755189  0
-27.679562   21.926481   -8.027522  0
-28.968632   21.857742   -9.974509  0
-28.611887   22.418478  -10.943092  0
-22.431181   23.248322  -12.098443  0
-25.098879   22.886045  -13.138302  0
-29.016243   21.891514  -12.478484  0
 -5.084793   19.106163   78.399384  0
 -8.141040   19.838377   77.736031  0
 -3.157813   19.118647   76.587990  0
 -2.470476   18.713488   75.119736  0
-10.205667   19.923077   74.974144  0
 -2.815766   18.558670   73.048302  0
-10.937521   20.081549   72.728088  0
 -2.954847   19.356462   70.568542  0
 -3.360411   20.029049   69.211914  0
-11.927886   20.198170   70.143166  0
 -3.453046   19.693615   68.135780  0
 -2.853212   19.178768   67.139877  0
-13.016255   19.542181   70.330948  0
 -1.704163   18.817564   65.386765  0
 -2.001396   17.908272   64.488220  0
-15.996724   19.019514   71.177307  0
-16.687122   19.323704   70.097328  0
-18.116489   19.178961   69.316841  0
 -1.370982   18.023767   63.663074  0
-24.494865   20.853971   68.387749  0
 -0.861529   18.280235   62.458942  0
 -1.228940   19.541224   62.641190  0
 -1.295782   20.312389   61.270130  0
-22.752998   21.260902   67.491623  0
-25.992662   21.061468   67.443069  0
 -1.539177   20.071945   60.426506  0
-19.136572   19.091072   63.934647  0
-22.054853   20.904757   66.126976  0
-23.495413   20.885620   66.170113  0
-25.300800   20.992670   66.233299  0
-27.224258   21.799322   65.738823  0
-28.692360   22.334681   65.623955  0
-29.980583   22.271811   65.563263  0
 -2.579075   20.341742   59.910053  0
 -4.391021   19.640207   59.102863  0
-28.590916   22.620773   64.660194  0
 -6.013482   19.332937   58.823879  0
-30.120043   22.392384   62.704273  0
-29.866011   22.696730   64.183029  0
-31.661707   22.343298   62.251266  0
-32.360050   22.346251   62.906612  0
-34.124485   21.769218   62.294945  0
-19.997101   19.615387   62.736523  0
-21.040279   19.323566   62.487904  0
-18.078297   19.847105   60.903694  0
-18.231197   20.189260   60.929085  0
-22.327372   19.322838   61.888607  0
 -4.946893   17.147552   57.044994  0
-23.745405   18.986174   56.313023  0
-23.546398   18.976801   54.490452  0
 -2.620936   16.658724   53.638123  0
 -4.555440   15.787916   54.022270  0
 -4.081749   16.342768   51.497135  0
 -2.583292   17.195969   51.769897  0
 -2.149262   17.216452   55.699768  0
 -4.503454   16.222279   55.586536  0
 -5.233920   15.353584   52.976852  0
 -3.501565   17.339251   50.591721  0
 -4.501431   15.962727   49.405937  0
 -3.871764   16.778101   49.858231  0
 -5.667859   15.111463   48.966774  0
-23.099483   19.309124   54.049587  0
-23.116377   19.086264   53.395088  0
 -7.124253   15.246366   47.606800  0
-43.986782   20.125525   48.403313  0
-23.232170   18.464001   52.314724  0
-41.275574   21.572952   47.597118  0
-43.184841   20.597500   46.590958  0
-38.223534   21.311272   47.232796  0
-39.718735   22.163284   46.531776  0
-26.113792   17.590364   50.190941  0
-35.449352   19.648827   47.021099  0
-42.675636   20.161102   44.316055  0
-41.974968   21.405811   43.672184  0
-28.155304   16.385098   49.700516  0
-29.992392   16.289871   50.038975  0
-31.387846   16.392630   49.333698  0
-34.515373   19.544456   46.937576  0
-41.555977   19.238577   42.675934  0
-39.493011   19.852722   40.586914  0
-40.846996   20.183298   41.401981  0
-42.137897   20.390621   43.078472  0
  0.779347   18.504601   45.331379  0
 -0.251570   19.201239   47.049133  0
  1.224227   18.154037   42.870266  0
 -1.991374   19.153332   47.759094  0
-34.319431   18.362524   40.019585  0
-37.287167   19.720558   40.063019  0
-33.296635   20.140417   40.013443  0
-45.264740   20.072466   43.886364  0
-48.222439   19.969933   42.011456  0
 -1.412423   19.133350   39.708282  0
-43.374931   19.281727   43.823009  0
-43.038578   20.672499   43.416992  0
-40.487698   20.598074   40.519642  0
-34.936092   19.548321   38.963543  0
-37.506012   19.293131   37.958130  0
-48.293476   19.834198   39.612740  0
-36.094986   19.984915   38.326828  0
-37.519875   20.605047   38.373722  0
-38.890728   20.666256   38.840496  0
-28.448175   16.323477   32.387051  0
-29.771921   16.286654   30.961548  0
-33.200829   15.868958   29.703487  0
  3.453827   19.517000   33.201347  0
  2.708815   19.168259   30.869953  0
  2.284016   19.197947   29.464264  0
-23.654972   19.749483   28.796909  0
-41.601498   14.104171   28.948122  0
-44.645786   14.285138   27.910177  0
-40.540638   13.540544   27.924067  0
-46.360409   15.390021   26.847441  0
-47.692780   16.621700   26.552578  0
-47.698975   17.212109   25.504677  0
-40.568779   12.727680   24.827545  0
-38.924484   13.476872   26.634438  0
-38.482204   12.735254   25.031824  0
  1.827693   18.680136   27.514797  0
  0.716186   18.751389   25.574585  0
-23.479710   20.083948   27.293375  0
-22.381500   19.711926   25.625494  0
-40.572132   13.179874   22.744408  0
-38.494621   12.631430   23.742649  0
-43.816788   16.142736   23.338282  0
-45.537491   16.629850   24.197475  0
-45.007259   17.431507   23.876236  0
  3.393916   19.174812   22.803820  0
-37.190071   13.391105   21.898563  0
-38.947308   13.093154   21.943298  0
-38.129566   13.939705   18.964617  0
-35.415829   13.529148   23.369112  0
-35.634819   14.208290   21.109848  0
-40.630795   13.790333   19.763050  0
-41.898876   14.530017   21.679607  0
-42.994251   16.129072   22.414900  0
  3.608263   18.994015   21.733053  0
-21.791271   19.220163   23.718138  0
-35.878059   14.785659   19.201853  0
-42.159302   14.896164   19.927784  0
-43.133209   16.342388   20.900770  0
-37.187382   14.928732   17.218601  0
-40.527203   14.601541   17.595533  0
-38.950680   14.822175   16.879465  0
-42.416374   15.367876   17.931131  0
-43.642445   16.780344   18.917946  0
  2.621609   19.244938   20.132820  0
-40.283363   15.776749   15.974255  0
-38.072174   15.959200   15.885786  0
-41.905853   16.015102   16.365625  0
  1.405399   19.377604   19.122755  0
-21.639807   18.728888   19.997166  0
-39.742619   17.384920   14.985176  0
-43.423538   17.102938   17.285656  0
-42.154739   17.519526   15.822666  0
-22.196440   18.138613   18.756968  0
  1.254671   18.711084   17.159975  0
-23.557756   17.890091   17.557854  0
  2.096385   15.938888   15.100445  0
  1.470456   17.386501   15.048541  0
-16.454393   19.051914   11.921875  0
-17.642021   19.448078   11.765582  0
-17.041365   19.591747   13.226728  0
-16.170879   19.691763   13.408342  0
-15.597426   19.597960   12.115101  0
-18.049162   20.029673   12.654805  0
-26.977633   16.481251   14.231818  0
 -4.702134   15.524536   10.033746  0
 -5.196373   17.924614   10.797965  0
-17.737841   20.765055   10.092176  0
-18.057770   21.315456    9.096420  0
-29.076141   16.831598   13.146049  0
  4.419107   17.220629    9.431069  0
  4.428708   16.608973   10.494287  0
  5.358444   16.219330    8.665519  0
  3.526053   18.502924   10.415195  0
  3.334364   17.763424   11.230000  0
  2.705418   17.381834   12.141457  0
-14.021896   21.205154    5.919595  0
-18.640310   21.244883    7.375165  0
-31.585102   16.353851    8.884591  0
-31.893269   16.985191    9.546901  0
  5.194793   17.536163    8.288996  0
-31.528099   16.506023    7.393443  0
 -0.515709   14.890583    3.431137  0
 -0.903422   14.445477    3.788191  0
 -1.430431   15.216711    4.930484  0
 -0.850345   16.041132    4.175280  0
-18.153046   20.763884    5.590839  0
-28.531570   17.540821    5.708127  0
-26.971502   19.076500    4.953469  0
-25.591663   20.115616    3.789422  0
-29.838755   16.659811    6.286889  0
-19.007677   20.631340    4.323191  0
-19.306223   21.229252    5.509305  0
-20.308878   21.417511    3.270226  0
-21.745249   21.192902    2.604511  0
-22.344835   21.890211    3.330488  0
-24.191938   20.695673    3.207169  0
-23.721781   19.945759    2.601707  0
-39.646736   20.771650    6.485807  0
-38.226524   19.612074    7.771422  0
-38.568916   21.929663    6.617385  0
-39.587925   21.598307    6.149086  0
-25.646938   21.015226    1.036646  0
-30.709002   23.869076    4.189786  0
-32.027531   26.745085    2.434433  0
-29.392475   24.233772    3.467752  0
-29.529726   22.366428    3.984145  0
-34.566456   25.819851    3.163334  0
-38.878162   22.489431    5.429603  0
-39.482853   22.837566    2.577445  0
-25.109892   23.437511   -1.865720  0
-24.654808   22.566713   -3.623539  0
-36.304623   25.660854    1.462330  0
-38.175686   23.950094    0.557798  0
-36.712242   24.578501   -1.103860  0
-25.143620   22.803091   -4.459624  0
-35.961582   24.514517   -3.520980  0
-25.838776   23.569191   -5.323034  0
-26.581121   24.375250   -6.619502  0
-27.993767   24.602858   -7.364599  0
-29.388004   24.726767   -8.109984  0
-30.034283   25.749903   -7.691566  0
-32.643448   25.475557   -6.648738  0
-35.076717   24.064426   -5.763988  0
-26.498947   22.658192   -8.119126  0
-27.498693   22.745993   -9.369916  0
-25.314785   22.407444   -7.482826  0
-24.988720   23.249271   -9.772076  0
-27.022055   22.834196  -10.461267  0
 -4.347968   20.025200   77.536568  0
 -5.842850   20.305462   78.101212  0
 -7.260188   20.840075   77.773148  0
 -2.691551   19.952572   75.677841  0
 -2.253240   20.291374   73.452576  0
 -9.128543   20.618824   76.565109  0
 -2.483705   19.842152   72.028511  0
 -2.963534   20.390793   70.548286  0
-11.560427   20.874113   70.125618  0
 -1.820912   20.124479   66.140015  0
 -1.475232   19.745808   64.384148  0
 -1.471894   19.266754   63.855343  0
 -1.205378   20.432814   64.825859  0
 -1.234701   20.826965   63.103897  0
-14.558280   19.300495   71.233795  0
-16.392914   19.579065   71.071472  0
-19.538548   19.084639   69.355911  0
-20.311827   18.876249   68.226913  0
-20.601032   19.916065   67.220772  0
-19.700027   19.239902   65.111664  0
-31.787601   22.156221   64.488281  0
 -4.316366   20.821861   60.098766  0
 -5.680810   20.550903   60.141102  0
-19.064058   20.476114   63.198040  0
 -6.918698   20.586506   59.944614  0
 -7.574975   19.674950   58.494217  0
-18.287846   20.405571   61.465801  0
-20.563623   19.813984   63.501747  0
-21.985270   19.822111   63.029408  0
-24.051960   19.455486   57.786716  0
-24.399439   20.582703   55.862774  0
-23.915800   19.645834   54.764713  0
 -0.370548   18.129290   54.252239  0
 -0.365150   18.345604   55.293842  0
 -1.195346   17.678341   53.894375  0
 -3.712544   17.093302   56.573505  0
 -0.589651   18.707436   53.025700  0
 -2.922946   18.631893   51.097729  0
 -3.349307   17.905020   50.417824  0
 -4.254588   18.424227   50.188358  0
 -4.458082   17.726208   49.213940  0
 -4.489541   16.526815   48.471191  0
-22.563835   20.551657   53.144840  0
 -5.470025   16.188229   47.640266  0
-22.214178   21.525726   52.144691  0
 -4.601319   17.495468   48.327431  0
 -5.195697   17.356850   47.228645  0
-26.775507   17.098684   50.786427  0
-28.925674   16.968204   50.481995  0
-26.823017   16.891945   50.117546  0
-41.244263   22.173611   46.396175  0
-42.330997   21.508736   45.776299  0
-37.048145   21.440210   46.449055  0
  1.022418   20.022522   44.769833  0
  0.562910   19.973118   46.245476  0
-41.457523   20.738745   42.121376  0
  1.466177   20.401850   42.556854  0
-35.046097   19.970581   39.797722  0
-39.389282   21.208910   40.032406  0
  1.304316   19.803473   41.188011  0
  0.513622   19.238550   40.679192  0
 -0.490560   20.019951   39.536362  0
-47.275375   20.225042   43.385727  0
-45.776180   22.270054   43.196495  0
-46.600216   21.171869   43.402512  0
-47.785465   21.543344   41.834686  0
  1.341529   19.276104   36.883408  0
  0.249031   20.496572   37.164711  0
 -0.907467   19.378571   38.415489  0
 -0.934921   19.618793   39.422733  0
-41.951267   21.397503   42.247417  0
-43.517998   22.306610   42.899464  0
-41.131298   22.302937   41.506947  0
-48.237572   21.102297   39.036316  0
-34.877117   20.647360   39.497654  0
-40.042416   21.819744   40.149879  0
  2.648831   19.677956   35.406979  0
-36.427792   21.756905   39.218006  0
-37.842865   22.430670   39.560673  0
-39.313152   22.504316   39.845306  0
-46.584610   19.297092   36.567352  0
-26.281645   16.250837   32.729626  0
-45.959255   18.606710   35.323563  0
-43.245743   18.341522   33.474842  0
-25.424650   16.428846   31.796854  0
-26.847006   16.255913   31.174850  0
-28.025156   16.283571   30.697605  0
-41.434948   18.188383   32.553375  0
-23.394705   18.549610   30.494003  0
-24.854420   17.290474   30.838858  0
-39.291397   16.428455   31.096991  0
-23.245100   20.407095   29.313536  0
-37.598423   15.946546   29.820099  0
-41.457775   15.208404   29.965555  0
-39.374737   14.071729   28.499653  0
-38.642323   15.047040   29.057901  0
-37.850582   14.344507   27.699303  0
-43.608467   15.319352   29.712423  0
-45.045044   15.330659   29.110174  0
-46.506336   15.907072   28.605553  0
-48.346783   17.271994   27.718565  0
-48.417625   17.960636   25.973389  0
  0.711642   20.292809   27.479448  0
-36.611919   13.394345   25.632809  0
-43.779419   18.062223   23.454679  0
-45.539722   18.398417   24.183844  0
-47.509300   18.079102   24.892384  0
  3.638365   20.529305   23.663374  0
  0.847064   19.993887   26.029663  0
-32.209629   14.942237   24.740870  0
-33.840401   14.033446   25.423111  0
-33.580673   14.352488   23.794466  0
-34.851059   14.283882   26.558943  0
  3.905316   20.459005   22.335508  0
-32.885765   15.566347   23.234604  0
-33.951668   15.168557   22.101597  0
-31.215317   16.534758   23.662056  0
-32.444530   16.682247   21.842699  0
-44.247150   19.053972   22.415455  0
  3.130615   20.477121   20.978991  0
-33.518414   16.490114   20.933647  0
-34.558006   15.725488   20.365839  0
-32.992813   17.608727   19.781134  0
-44.627171   18.441221   20.137335  0
-34.875954   16.323883   18.887131  0
-35.756229   15.891146   17.517384  0
-34.324203   17.913212   18.107676  0
-44.822803   18.659117   19.223778  0
-21.888559   19.477922   22.508936  0
-35.372784   18.135271   16.604698  0
-36.371422   16.614731   16.276279  0
-44.478775   18.988455   18.351799  0
-43.096848   18.714960   16.641602  0
  1.953851   20.591925   20.008698  0
-36.266460   18.929691   15.641819  0
-37.457523   18.444838   14.996052  0
  0.964278   20.234451   18.904337  0
-38.917904   18.744518   14.657849  0
-40.921970   19.284595   15.176190  0
  0.839754   19.960585   18.100887  0
-24.964417   17.966808   16.604753  0
  1.503873   20.283533   17.731014  0
  1.685528   19.338339   16.187260  0
-15.570833   20.848520   14.579201  0
-16.465338   20.762922   14.743950  0
-18.143040   20.913330   13.636621  0
-18.302141   20.895906   11.051983  0
-18.575817   20.983690   12.233956  0
-15.662711   20.270754   10.902856  0
-15.702455   20.999817   12.893608  0
-18.019960   21.983665   11.305801  0
-17.671885   21.992485    9.520916  0
-27.176380   18.359814   15.350966  0
  2.133764   18.222799   13.081839  0
  2.937532   18.902176   11.857667  0
  2.591106   19.687704   14.319570  0
 -4.884089   20.148911    9.542691  0
-30.252871   17.796968   13.215353  0
-31.659832   17.533133   10.962983  0
 -4.030676   22.655624    7.176541  0
-15.786922   21.584038    7.458598  0
-20.213329   22.117331    6.672311  0
-19.737282   22.724451    7.554523  0
-12.902083   20.572731    4.732115  0
-29.517754   18.657410    6.351242  0
-30.930286   17.512184    6.844488  0
-27.546078   19.937637    5.714293  0
-32.030376   17.342268    7.718395  0
-32.330059   17.289249    8.569111  0
  3.868846   19.645437    9.278152  0
  5.407956   19.313673    7.738070  0
 -1.414557   17.229044    5.501242  0
-20.924191   22.109133    4.922856  0
-26.251650   21.268982    4.713786  0
-25.502630   21.095154    4.210655  0
  5.348638   17.705612    5.602428  0
  5.509101   18.262463    6.604640  0
  6.096373   19.483656    6.651554  0
-22.431429   22.466230    3.908979  0
-22.460930   22.747305    4.954362  0
-23.836020   22.118565    3.740856  0
  5.942209   18.943047    5.342174  0
-29.719358   26.543703    2.542446  0
-33.590046   26.675278    2.480714  0
-34.271648   27.075426    0.871413  0
-35.545094   25.782419   -0.967765  0
-25.119806   24.670025   -4.316210  0
-25.594961   24.741987   -5.939608  0
-26.162598   26.007565   -6.452012  0
-26.712934   25.465382   -7.471122  0
-34.501965   26.987024   -1.927984  0
-27.616962   26.182835   -7.639371  0
-33.290440   26.595776   -5.115225  0
-34.555561   26.261955   -3.878201  0
 -3.201487   20.927479   75.892967  0
 -2.354661   20.796917   74.155319  0
-10.769008   20.713711   73.776497  0
 -3.111253   21.165541   68.106750  0
 -2.522360   21.159340   66.901237  0
 -1.879531   22.370340   65.372299  0
-13.057570   20.137745   69.413216  0
 -1.499143   22.009840   63.745884  0
 -1.297476   22.005619   62.651508  0
-18.414825   19.668854   70.728615  0
 -1.584884   22.025572   61.671310  0
 -2.017330   21.390356   60.695080  0
 -2.874459   22.085838   60.916691  0
 -5.280666   22.415163   61.174717  0
-19.812992   20.051926   64.449409  0
 -6.684082   21.958311   60.961262  0
 -7.843638   20.792292   59.447407  0
-18.170010   21.604807   62.005028  0
-23.482038   20.544920   64.922813  0
-24.596975   20.393908   63.563744  0
-21.989021   20.996052   65.131958  0
-19.624359   20.631477   63.274570  0
-24.516914   19.990406   61.666576  0
-26.065214   21.329206   62.255711  0
-19.098938   21.315575   62.138695  0
-26.866179   22.275120   59.989082  0
 -7.554954   20.257542   57.756481  0
-18.266682   21.897121   61.374310  0
-25.136917   20.585634   59.070240  0
-24.977160   20.964989   57.220573  0
 -0.224269   19.006716   56.114567  0
 -2.091000   18.177641   56.992897  0
 -3.580967   18.796741   57.743881  0
 -0.072208   19.032137   55.101948  0
-22.917387   21.199430   53.689938  0
 -0.080220   19.573673   53.881775  0
 -0.377012   19.382027   53.060036  0
 -0.923920   20.180510   53.082745  0
 -4.533810   19.392349   50.803169  0
 -3.735859   19.947466   51.598671  0
 -5.628622   20.110991   51.619480  0
 -6.068570   19.772938   50.809551  0
 -5.140458   19.263758   49.860645  0
 -6.897987   20.483555   50.334961  0
 -5.235964   19.666759   49.439686  0
 -4.851889   19.068956   48.593586  0
-22.662943   20.096399   52.346584  0
 -4.822941   18.881973   47.976051  0
-23.464121   18.746056   52.061623  0
-25.574806   17.551167   51.269867  0
-32.569256   17.081408   48.615299  0
-32.538174   17.231127   49.681961  0
-41.318619   22.345222   45.063843  0
-36.520252   21.853565   46.151798  0
-38.794121   22.647030   45.499130  0
-40.475178   22.859386   45.038055  0
-41.329296   22.263796   42.864735  0
-41.566154   21.543388   42.199768  0
 -3.839064   19.072123   47.945492  0
-36.204815   20.548801   39.877407  0
-38.388138   21.709135   39.873882  0
-40.654339   21.591309   41.165947  0
  0.591467   20.807995   39.819542  0
 -0.992857   20.374954   38.062046  0
  0.091501   21.325312   39.017036  0
-34.350075   21.389174   39.933155  0
-42.372013   22.747280   42.372829  0
-44.819008   23.777113   42.518890  0
-46.920422   23.516209   41.899376  0
-48.151497   22.669399   40.084980  0
  1.667158   20.470606   36.473537  0
-40.637817   22.879284   40.912785  0
-41.524940   23.780643   41.632912  0
  2.632479   21.058275   35.418415  0
-47.721725   20.438749   36.880898  0
-47.215553   19.405308   35.680664  0
-45.704350   18.360373   34.319401  0
-25.882456   16.867352   30.264837  0
-24.139973   18.375734   29.713669  0
-25.353516   17.592634   29.370277  0
-26.469439   17.013548   29.074112  0
-28.882618   16.425571   29.242111  0
-31.187780   15.780654   29.407307  0
-42.793488   18.284039   32.421089  0
-41.323456   17.851898   31.661392  0
-23.554811   20.938303   29.511627  0
  1.743938   21.693022   31.440317  0
-35.441727   15.913989   29.097040  0
-39.291130   15.846415   30.346687  0
-41.128052   16.575125   30.976242  0
-42.515450   17.379143   31.208887  0
-36.996861   15.415746   29.253487  0
-43.246494   16.690281   30.826668  0
-45.231541   16.353674   30.379631  0
-45.610016   16.969778   31.310104  0
-47.568535   17.675947   30.724102  0
-47.998611   17.154623   29.381477  0
-48.955757   18.985641   29.415325  0
-48.926479   19.242157   26.743221  0
  0.722790   22.128414   29.971895  0
-36.187866   15.156763   28.052885  0
-33.830379   15.917463   28.607433  0
-48.435093   19.066986   25.540985  0
-47.611382   19.789080   25.115763  0
  3.512010   22.265821   25.871063  0
  4.070518   21.884064   24.450129  0
-22.234016   20.411108   25.890602  0
-30.699389   15.565102   26.016659  0
-30.405577   16.190830   25.014811  0
-29.267767   16.633869   25.159079  0
-32.466290   15.016553   26.535376  0
-44.146145   19.361139   24.426184  0
-46.192631   20.377405   25.102699  0
  3.837163   21.885208   22.294609  0
-29.778067   17.195278   23.874407  0
-43.872318   19.951693   23.930334  0
-30.850279   17.547228   22.418018  0
-29.418194   18.824602   23.379436  0
-30.908529   18.808636   21.709925  0
  2.717945   21.966316   20.887518  0
-31.674276   17.808758   21.026985  0
-32.107243   18.985172   20.253611  0
-45.365307   20.465210   21.623964  0
-45.184288   20.126358   20.050350  0
-33.210503   19.254293   18.797012  0
-33.295662   18.252722   18.843372  0
-34.650723   19.275351   17.371958  0
-35.940914   19.772535   16.467901  0
-43.395992   19.948050   17.436111  0
  0.790897   21.229273   19.875366  0
  0.164914   22.011078   19.738770  0
-42.126644   20.046089   16.690952  0
-40.360973   20.661779   15.734320  0
-41.879776   19.045361   15.636749  0
-37.607155   19.904720   14.785213  0
  0.716015   21.246964   18.751329  0
-22.812342   19.026287   18.345106  0
-15.819541   21.719885   15.702471  0
-16.809896   22.128672   15.026815  0
-25.213739   19.118135   17.210459  0
  1.604805   20.998455   17.685228  0
-15.338337   21.792271   14.863868  0
-18.305447   22.246134   13.127144  0
  1.579824   18.828331   14.681696  0
  2.491088   20.112555   15.983862  0
-16.788687   22.022215   10.366323  0
-17.190378   22.677103   10.376241  0
-16.921219   23.729900    9.617512  0
-17.545004   23.417444    8.389875  0
  3.568903   19.924788   12.924887  0
 -4.347637   18.159199    9.517906  0
 -4.662216   19.839876    9.373371  0
-31.493370   18.236565   11.924355  0
-32.386566   18.319828    9.032065  0
  3.384898   19.921137   11.441870  0
 -3.569967   15.491758    8.548882  0
 -2.645761   16.711592    7.092297  0
-14.898870   21.671789    6.465249  0
 -4.096913   19.392359    8.533193  0
 -3.133380   19.234081    7.523488  0
 -2.301886   18.186567    6.429615  0
-21.814810   23.226208    6.128428  0
-26.962547   22.029449    5.098994  0
-24.908394   22.621799    4.467180  0
-28.355286   20.874369    6.120818  0
-30.064653   20.115801    6.848938  0
-31.801981   18.741955    7.740752  0
 -1.901241   18.281286    5.574172  0
-23.506519   23.095596    5.054979  0
 -5.900554   19.229408    2.475494  0
 -6.187471   19.735079    2.132142  0
 -5.411322   20.680864    2.516286  0
 -6.632372   20.681593    2.415520  0
-30.590378   27.676174    1.656525  0
-33.063377   28.001499    1.030902  0
-31.723537   28.333895    0.503833  0
-33.167912   28.205763   -0.787827  0
-27.483049   27.289713   -7.084744  0
-33.156914   27.934139   -3.168149  0
-31.133692   28.891960   -2.035794  0
-31.352718   28.231747   -4.721692  0
-29.358894   27.915405   -6.185940  0
 -5.044611   21.169882   77.603836  0
 -2.737022   21.491865   73.841286  0
 -3.355432   22.442188   75.297607  0
 -4.156269   21.984118   76.968056  0
 -6.172008   22.309275   77.689049  0
 -8.486718   21.663490   77.247993  0
 -2.464291   22.055321   71.501747  0
-10.137648   21.247063   75.630074  0
 -2.897449   22.020170   69.078545  0
-11.464458   21.133896   71.058891  0
 -2.547774   22.623857   67.139503  0
-13.428717   20.737358   69.035370  0
 -2.085883   23.836889   64.138245  0
 -2.125066   23.274242   62.545536  0
-15.489933   20.230486   70.811104  0
-18.064669   19.988716   71.518669  0
-20.482328   19.790668   69.437561  0
-20.278673   20.441748   65.689697  0
-24.514996   21.297041   66.594849  0
-23.244806   21.851347   66.272232  0
-23.607040   21.768402   67.680946  0
-22.767418   21.847698   67.317390  0
-24.959213   21.733839   67.640747  0
-25.733974   21.351509   66.171661  0
 -7.498147   22.400166   60.752129  0
-22.245914   22.075386   66.188400  0
-21.003780   21.448635   64.752991  0
 -8.192251   20.810768   58.681507  0
 -7.701794   22.591534   60.256962  0
-26.378862   21.345861   64.122177  0
-26.897741   21.903479   65.488914  0
-27.426777   22.302776   63.612732  0
-27.351950   22.868862   61.632751  0
-26.455833   22.216948   58.241959  0
-25.284451   21.929464   56.359226  0
 -1.571749   20.077261   57.738735  0
 -0.598289   20.416225   56.547146  0
 -5.357848   18.763643   57.518116  0
-24.149422   22.410545   55.413204  0
 -0.243649   20.419065   54.716164  0
 -2.658614   21.161510   52.807510  0
 -5.740197   20.979309   52.358536  0
 -7.116993   20.674088   51.704342  0
-21.602169   22.705786   52.174229  0
 -7.861699   21.207798   51.161793  0
-31.860399   17.529112   50.557716  0
-29.922441   17.778088   50.888130  0
-32.443661   18.750418   51.452011  0
-30.064367   19.377832   51.578056  0
-33.811054   18.527018   50.950562  0
-22.471338   21.254372   51.727135  0
-28.995937   18.555368   51.139271  0
-34.128914   18.312328   49.972149  0
 -5.118277   20.630610   49.711315  0
-24.343533   17.789263   51.998890  0
-25.515507   17.493179   51.987343  0
-27.854637   17.998329   51.139080  0
-33.830914   17.998386   48.697659  0
-35.053715   18.944763   49.900887  0
-35.631374   21.034405   46.856888  0
-41.152744   23.180744   43.625137  0
-41.144920   22.711037   41.916523  0
  0.619990   21.015985   45.951180  0
 -0.241690   20.531830   47.946144  0
 -1.989872   19.818253   48.650921  0
-40.048981   23.049124   40.563511  0
  0.645798   21.264320   44.403927  0
  0.947235   21.680439   43.233170  0
-36.101643   22.165657   40.307037  0
-40.226616   22.209846   40.474140  0
-34.204632   21.961779   40.180725  0
  1.403555   21.393534   41.181973  0
  0.655041   22.865906   39.223457  0
-33.591530   22.619614   40.044868  0
-34.634647   22.766407   39.887196  0
-43.071228   24.713339   41.864742  0
-45.319679   24.949615   41.758827  0
-46.599079   24.940771   41.069691  0
-47.753681   24.156435   39.627441  0
 -0.955300   21.924744   37.297722  0
-41.737988   24.827517   41.669842  0
-40.661911   24.505699   40.895840  0
  1.660381   21.973293   35.466248  0
-36.298889   23.251328   39.696552  0
-38.606441   24.288124   40.161110  0
-48.513523   21.888208   37.044785  0
-48.395813   23.292971   37.924461  0
-47.504910   18.882566   34.459225  0
-48.382084   19.967422   34.925705  0
  2.693187   21.563082   34.287430  0
-45.442966   18.053837   33.219738  0
-48.891285   20.579571   34.397598  0
-48.752743   21.610432   34.281528  0
  2.794750   20.996866   32.693264  0
-23.587236   19.250608   29.616156  0
-47.015614   17.983858   32.237221  0
-48.891201   19.904129   33.287632  0
-24.613644   19.224827   28.832092  0
-25.818474   18.482166   28.411293  0
-44.372379   17.451609   31.918686  0
-48.637562   19.075230   31.631983  0
-25.420036   19.436157   27.808729  0
-27.092022   17.390263   27.208101  0
-28.895559   16.651459   27.460657  0
-31.586903   15.853711   28.050097  0
-32.156830   15.752937   28.866707  0
-49.096901   20.957619   31.716019  0
-26.507376   18.552454   26.607193  0
-26.057219   19.766798   26.935732  0
-48.999718   22.025459   28.552574  0
-22.873138   21.149471   27.871042  0
-27.183836   18.351578   25.589287  0
-27.002398   19.401939   25.537432  0
-28.156843   17.089138   25.823864  0
-29.731461   16.234327   26.546358  0
  0.584321   21.140184   28.010414  0
  0.671131   21.669369   27.970942  0
  3.773606   22.942877   26.524269  0
-28.180801   18.208916   24.545238  0
-27.561056   19.076878   24.886864  0
-44.771896   21.256104   25.517387  0
-43.876713   21.748287   25.532852  0
-46.740898   22.492487   25.881649  0
-48.279430   22.013002   26.428314  0
  4.112841   23.521286   24.835007  0
-28.964855   20.767056   24.517914  0
-44.399071   22.780493   24.989817  0
-29.601717   20.477274   23.936735  0
-45.232262   21.349236   22.672712  0
  3.694193   23.270283   22.779953  0
-30.142323   20.366562   22.958223  0
  2.971136   23.413210   21.919046  0
-31.712124   20.184958   20.995983  0
-45.735008   22.033600   21.317066  0
-44.703453   21.544994   19.615618  0
-33.130116   20.692028   19.525635  0
-43.965858   21.045258   18.452059  0
  0.576737   22.580891   20.699802  0
-35.088776   20.847210   17.737379  0
-36.653244   21.092047   16.241997  0
-40.867722   21.129004   16.927376  0
-42.457672   21.250168   18.045902  0
-40.766693   21.351974   18.030235  0
-22.029942   19.424755   19.958088  0
-22.780670   19.878429   21.458784  0
-36.917820   20.386679   15.632367  0
-38.108101   20.963045   15.333267  0
-39.070789   20.193243   14.857775  0
-38.543743   21.612349   16.631790  0
  1.329078   22.312429   18.582125  0
  0.400756   22.910219   18.968807  0
-14.954376   22.028490   16.099819  0
-15.281624   22.961946   16.991196  0
-23.622091   19.634140   18.900000  0
-14.613939   23.018602   16.578051  0
-17.657614   23.380056   13.580198  0
-16.540489   22.412180   13.015386  0
-17.765099   23.700275   12.350041  0
-17.200205   23.555132   10.928860  0
  2.098534   20.733387   16.958673  0
  2.221369   21.314445   16.354868  0
-17.444851   24.783733    8.564673  0
-28.805840   19.102800   15.560391  0
-31.411674   19.150005   13.160621  0
-32.613319   19.882257    9.676400  0
  2.801732   20.962610   15.446291  0
  4.288012   20.882227   14.236215  0
-16.853880   22.870596    8.494325  0
-31.835184   20.532965    7.754544  0
  4.583735   21.363590   13.271444  0
  3.641114   21.061277   10.863855  0
-13.721131   22.001205    5.907284  0
-16.094763   22.730738    7.210443  0
-19.706423   23.856903    7.381421  0
-22.489740   23.552147    6.133138  0
-23.479992   24.127726    6.486873  0
-20.753265   24.569965    7.222498  0
-25.914494   23.219311    5.380227  0
-28.137280   22.465160    5.555037  0
-30.230747   21.651205    6.438206  0
  3.412528   21.188599    9.524956  0
 -2.962483   19.797691    6.551295  0
-11.191127   20.682941    3.735992  0
  3.665416   21.439943    8.819617  0
  4.677585   21.214266    7.908099  0
  6.374953   20.924681    6.788387  0
 -1.894829   20.099173    4.956708  0
 -4.584248   20.148310    2.616340  0
 -4.515977   21.707140    2.573756  0
-28.302858   28.502649   -1.192093  0
-28.921608   28.977709   -3.982867  0
 -4.477519   22.835993   76.896255  0
 -8.796037   23.323837   77.377731  0
 -9.888793   22.218027   76.815994  0
 -2.757416   23.148972   72.485199  0
-11.150135   21.409410   74.626228  0
-11.521069   21.148825   72.760063  0
 -2.742226   23.698452   69.866737  0
 -2.781917   23.681444   68.056320  0
-12.716932   21.366415   69.677551  0
 -2.670388   24.303726   66.184784  0
-19.492813   19.831324   70.898651  0
-20.629696   20.956905   70.401306  0
-21.436949   20.776993   69.424103  0
-14.313379   21.129705   69.284370  0
-16.412731   20.333981   71.442543  0
-21.568054   21.166889   68.007828  0
 -3.895034   23.820126   62.406273  0
 -6.366593   23.331648   62.055267  0
 -5.246548   24.586790   62.912216  0
-21.049368   21.252905   66.032295  0
 -7.653785   23.692322   62.031643  0
-19.953417   21.381136   64.460716  0
-18.730429   22.431168   63.326794  0
-22.612970   22.261562   67.448112  0
-23.415028   22.923557   68.056236  0
-24.461058   22.579132   68.558540  0
-25.587753   22.533150   67.965767  0
-26.552647   22.626978   66.640282  0
-21.265961   22.264071   65.704712  0
-18.137630   23.534058   61.102707  0
-20.569748   22.234573   64.671700  0
-27.441448   22.894258   65.285927  0
 -7.790830   21.674002   58.857857  0
-19.979761   22.539858   63.011841  0
-27.922342   23.891020   63.450508  0
-28.049906   24.030355   61.706886  0
-27.520288   23.804401   59.816036  0
-26.141193   23.150818   57.289307  0
 -6.478742   20.268715   57.715279  0
 -6.752347   21.524870   58.633705  0
 -0.680402   21.854528   57.424492  0
 -0.845661   22.164095   55.401390  0
 -2.630803   20.608557   58.683243  0
 -3.865834   20.670116   58.780472  0
-22.291489   23.406448   54.132324  0
 -1.198062   21.450182   53.593777  0
 -0.996186   22.008669   54.424450  0
 -2.799245   22.271406   53.527020  0
 -6.965950   21.844868   52.588520  0
-21.244396   23.445866   52.816196  0
 -8.558483   22.538092   51.641823  0
 -9.018497   23.261534   50.422585  0
-19.867241   24.499237   51.608337  0
-21.125690   23.494278   50.840675  0
-34.276409   19.575188   53.094307  0
-34.091316   20.408419   55.673294  0
-35.338039   20.093288   55.015686  0
-35.912579   19.620834   52.940727  0
-32.525288   19.879004   52.650909  0
-36.511745   20.438763   55.169685  0
-37.484966   20.832747   54.418987  0
-38.582119   21.173389   53.419853  0
-37.848648   20.346428   52.313522  0
