#!ascii file
 52.467831  -57.993458   21.460621  0
 50.798859  -57.039993   21.462494  0
  7.243142  -55.535809   15.686524  0
  0.261713  -54.699234   18.280481  0
 53.371300  -55.698830   21.420431  0
 51.631325  -56.852436   21.150223  0
  0.865521  -53.875393   16.138449  0
  5.219232  -55.535896   15.122177  0
  1.542403  -54.016499   14.948627  0
 50.573158  -55.449051   20.529772  0
 47.331890  -55.978725   22.022215  0
 42.979057  -54.040398   21.494572  0
 11.336048  -56.035049   17.011383  0
 11.890169  -55.309410   14.884717  0
 52.020348  -55.438484   19.214382  0
 51.292080  -54.910122   19.353601  0
 21.463131  -53.370293   16.875881  0
 18.016432  -54.170479   15.257627  0
 16.508331  -54.442589   15.249472  0
 15.277626  -55.016811   14.736683  0
 55.417572  -55.025040   17.328688  0
 52.535461  -53.620956   17.930079  0
 42.586384  -56.945496   15.926334  0
 40.044403  -57.632565   16.378958  0
 56.590450  -55.833042   16.168694  0
 56.319290  -57.394402   14.024221  0
 56.516586  -55.584724   14.310789  0
 54.920982  -58.173260   14.060288  0
 52.050518  -57.896156   14.376943  0
 46.542873  -56.248108   15.211057  0
 56.257999  -54.692318   12.600839  0
 55.275242  -53.711182   11.185005  0
 18.129181  -53.169865   14.545476  0
 16.965229  -53.717091   14.944214  0
 53.708546  -53.050251   10.790661  0
 51.803745  -53.170841   10.288297  0
 15.695855  -53.461807   14.764056  0
 14.782228  -52.775509   13.947422  0
  3.614290  -54.526489   13.373138  0
 49.348850  -53.646732    9.227325  0
 39.322216  -52.928280    8.657301  0
 24.145010  -52.635265    8.489814  0
 22.917152  -52.562904    7.183722  0
 13.761959  -53.148491   13.913669  0
 12.769995  -53.208080   13.381699  0
 10.792542  -52.975609   11.814750  0
  8.786999  -53.242535   12.160280  0
  6.563636  -52.903313   12.750749  0
 49.991478  -54.048214    8.315368  0
 40.843472  -53.487709    6.615723  0
 25.478010  -52.004345    8.532737  0
 19.488501  -53.007717    5.799287  0
  1.995382  -53.207821   11.503129  0
 49.917736  -56.323734    8.540300  0
 41.827335  -53.618240    5.646082  0
 16.691433  -53.943649    5.244574  0
 51.819756  -57.002060    7.845444  0
 42.615936  -53.990475    4.540758  0
 43.536148  -54.422272    3.584934  0
 38.231106  -53.752102    8.930533  0
 16.111805  -54.192871    3.986196  0
  5.285420  -52.937618    7.533309  0
  6.295659  -52.202644    6.568331  0
  3.779902  -53.429859    8.562454  0
 44.830101  -53.738449    2.686773  0
 44.958309  -55.515427    1.561623  0
 15.444541  -54.360256    2.953973  0
 53.206097  -59.238903    6.227650  0
 53.971092  -58.022556    4.171341  0
 54.110386  -56.796879    4.885387  0
 39.496326  -53.945614    7.446778  0
 13.110703  -54.489758    1.641967  0
 15.052699  -53.970329    2.063004  0
  8.418633  -51.936581    4.351158  0
 52.993721  -61.430847    3.472011  0
 52.605209  -59.299217    0.783710  0
 53.383823  -58.623455    2.019504  0
 53.382011  -60.643497    4.370193  0
 46.163425  -53.729118    0.642888  0
 47.364162  -53.721733   -0.766647  0
 46.903465  -55.322536   -0.871847  0
 48.825726  -54.563557   -1.755213  0
 40.676735  -54.363716    6.233508  0
 24.538555  -52.607422    6.556847  0
 48.649258  -56.937813   -1.800506  0
 50.870079  -55.515648   -1.431376  0
 51.266052  -57.864124   -0.983169  0
 52.354389  -56.271984   -0.537221  0
 43.257183  -54.315960    3.606076  0
 23.497087  -52.647099    5.214966  0
 11.769500  -52.914577    1.433208  0
 10.088597  -52.415844    2.017018  0
 52.480537  -57.421986   -0.459905  0
 53.008293  -57.098183    0.397865  0
 44.795750  -54.814407    2.010207  0
 32.831181  -52.541428   -2.371861  0
 35.452057  -52.035446   -2.622421  0
 22.557188  -51.002075    4.282163  0
 29.280901  -52.713200   -2.238911  0
 19.128212  -51.840412    2.372667  0
 44.757633  -54.502823   -0.674235  0
 18.165142  -51.670685    1.117525  0
 42.268028  -54.030251   -1.693115  0
 39.751705  -54.016331   -2.459192  0
 22.501150  -52.249031   -1.801408  0
 20.154902  -51.951080   -1.769916  0
 15.960293  -52.460300   78.636047  0
 17.285423  -52.322266   78.159096  0
 18.312239  -51.773880   76.950394  0
 13.321919  -54.432396   78.052315  0
 12.817573  -55.355038   76.974846  0
 12.197231  -54.859299   77.448120  0
 19.021650  -52.108128   74.652000  0
 13.013488  -56.040821   74.868599  0
  5.082308  -52.656487   73.679520  0
 -0.308429  -54.622978   74.546440  0
 -2.165748  -54.914711   73.646278  0
 -1.455536  -55.173553   72.491798  0
 -3.588165  -55.042252   71.914017  0
 -3.438949  -54.051651   74.070885  0
 -5.573924  -53.095325   72.530182  0
 -5.383275  -52.512966   73.696037  0
 18.497366  -51.556553   73.259903  0
 17.482693  -51.294456   71.889099  0
  6.631310  -52.923920   70.277519  0
  1.002791  -54.346199   72.173943  0
 -0.963267  -55.030304   70.754997  0
 -4.525085  -54.858418   69.884712  0
 13.025569  -56.230350   71.125992  0
 -3.078100  -55.346813   69.401733  0
 -5.657755  -53.267792   69.911415  0
 16.995424  -51.564392   68.800438  0
 -1.717866  -55.121334   68.761520  0
 -5.212406  -54.461800   68.441193  0
 31.996597  -52.983845   70.922180  0
 27.598045  -52.680393   70.414520  0
 -2.681330  -54.753445   66.576912  0
 -4.507836  -54.851856   67.296753  0
 -5.645909  -53.344337   67.026817  0
 33.872623  -52.519028   70.287521  0
 30.063288  -51.884026   69.697838  0
 28.427187  -52.127987   69.531578  0
 26.419296  -52.286144   69.100868  0
 23.478355  -52.212124   68.458862  0
 17.377190  -51.714508   66.322861  0
 -5.186650  -54.075413   65.953377  0
 34.423656  -55.203255   66.072838  0
 35.491135  -52.671375   67.256622  0
 24.800909  -51.634064   68.001945  0
 21.847740  -52.087070   67.089447  0
 19.209377  -51.978775   66.149124  0
  6.162231  -52.537426   64.791985  0
  5.910240  -52.761795   66.035858  0
 -3.921741  -54.341019   64.136841  0
 33.848682  -55.243954   64.352303  0
 34.244339  -54.804039   65.162498  0
 34.939205  -54.014076   65.451103  0
 32.119747  -55.299751   63.839378  0
 34.560436  -54.310661   64.360435  0
 32.738098  -54.406612   62.261551  0
 29.588760  -54.773216   62.767952  0
 28.319517  -54.398102   62.180840  0
  6.113912  -51.432369   63.327591  0
 23.760525  -53.642567   60.681976  0
  5.413309  -51.630535   62.649487  0
  5.842479  -51.259537   62.063164  0
 21.561508  -53.835587   60.711514  0
  5.376236  -51.640820   61.431652  0
 19.036024  -53.888622   59.570793  0
 17.862066  -54.538555   59.026012  0
  5.202559  -52.191265   59.882896  0
  5.900204  -51.401871   60.583637  0
  5.720538  -51.857944   58.618294  0
 17.048813  -54.251823   58.360497  0
  6.456574  -52.564404   56.797401  0
  6.909740  -53.270798   55.108391  0
  7.012215  -53.078232   54.135525  0
 33.124283  -50.204506   56.683334  0
 33.785534  -49.479614   55.603680  0
 30.808195  -50.526562   55.261078  0
 20.809139  -50.458347   55.118763  0
 21.350834  -50.349453   53.661602  0
  9.424110  -52.482632   51.787270  0
 49.609379  -50.643742   57.145004  0
 34.455036  -48.815205   54.511173  0
 32.870514  -49.006809   55.413216  0
 33.283207  -48.257053   54.317467  0
 20.781034  -51.010719   50.907150  0
 50.939659  -50.596638   56.706997  0
 50.236687  -50.390923   56.111885  0
 33.604851  -47.959896   53.085690  0
 30.119896  -49.642170   54.202950  0
 53.040154  -50.782955   54.286980  0
 49.877094  -49.649731   54.251606  0
 45.180172  -51.207516   52.690529  0
 34.858955  -48.478180   51.431557  0
 33.670303  -47.642838   52.179539  0
 28.964455  -50.553753   53.593445  0
 52.929913  -49.700489   53.010479  0
 51.865208  -50.017914   54.982327  0
 46.848526  -50.320339   53.396381  0
 44.104073  -50.883427   51.307053  0
 46.115944  -50.343357   52.076992  0
 53.970577  -51.239468   51.246033  0
 42.150143  -51.186924   50.558296  0
 36.070755  -48.782543   50.167202  0
 27.231457  -52.741051   51.217506  0
 27.743271  -51.547298   51.760246  0
 54.204079  -52.647980   49.340206  0
 41.117241  -51.219090   49.786057  0
 43.704891  -50.161434   50.054596  0
 36.954006  -50.160812   49.469543  0
 26.614149  -52.723991   50.100361  0
 39.503658  -51.756096   48.846489  0
 10.818562  -51.335396   48.454380  0
  6.770129  -51.304409   49.334538  0
  3.962581  -50.983326   51.333759  0
  0.508778  -50.273743   50.369869  0
 -0.981884  -50.150036   49.148991  0
 -2.268741  -50.638809   48.297646  0
 -3.459130  -51.529682   47.300430  0
 53.969341  -53.755848   45.219654  0
 54.120068  -53.113453   47.648293  0
 40.361610  -50.979908   49.248592  0
 26.066200  -52.339657   49.033695  0
 22.933218  -50.771053   46.634907  0
 -1.007847  -50.296024   46.641388  0
 -2.894123  -50.946201   45.476627  0
 25.213837  -51.074730   47.217266  0
 -2.063072  -50.489796   43.778847  0
 54.315025  -53.834595   42.286430  0
 54.760899  -53.091431   42.926754  0
 -0.733079  -50.225796   44.130074  0
 -3.165858  -51.245037   42.457890  0
 -2.608081  -51.046001   41.218655  0
 54.154263  -54.109715   40.311226  0
 45.026730  -55.936455   38.118889  0
 43.607048  -54.894691   38.988010  0
  6.742769  -53.092686   40.081467  0
  0.632488  -50.368080   40.257881  0
 54.262897  -55.203632   37.865437  0
 47.498749  -55.810333   37.135147  0
 42.691303  -53.314716   39.846134  0
 41.804398  -52.907684   39.976795  0
 53.321629  -55.731018   37.214355  0
 51.762688  -55.969959   37.027012  0
 38.655479  -52.591465   39.130424  0
 38.583534  -52.108490   38.966385  0
 37.150230  -52.536964   37.562809  0
 34.044853  -51.954796   33.574741  0
  6.791902  -52.889629   33.017292  0
  5.982051  -52.854259   32.130875  0
  5.258124  -52.934689   30.790285  0
 38.557835  -54.089924   30.079859  0
 38.778130  -53.289330   30.796560  0
 37.700951  -52.751865   31.557989  0
 39.190052  -54.395332   28.124832  0
 47.795311  -55.751667   26.631641  0
 48.558048  -54.697628   27.544607  0
 47.105324  -55.176411   27.564430  0
 48.802750  -56.310417   26.258249  0
 46.975853  -56.020657   26.015463  0
 51.900475  -54.889065   27.031666  0
 49.807774  -55.776066   27.023703  0
 47.894009  -56.457615   24.696674  0
 46.885559  -55.971264   24.399740  0
 39.357807  -55.154324   23.052170  0
 12.332893  -56.178040   21.275026  0
 11.607761  -56.682533   20.347235  0
 56.586388  -54.530205   23.304041  0
 56.427158  -53.949356   23.954037  0
 55.863941  -53.555023   24.100044  0
 53.784637  -54.757568   26.053787  0
 46.619148  -55.419716   22.783516  0
 12.056646  -56.273933   20.629536  0
 10.406106  -55.784454   18.167072  0
  0.774132  -52.080193   20.688614  0
 56.158043  -55.602711   22.157286  0
 11.249845  -56.148422   19.330303  0
  8.879940  -55.527035   16.795603  0
  0.679217  -52.655830   18.358103  0
 55.213634  -54.983299   21.820934  0
 50.993275  -55.654705   20.913042  0
 50.173756  -54.256294   20.313807  0
  1.043624  -52.773094   16.003250  0
 10.762710  -55.308624   17.568996  0
  4.899246  -54.103165   14.569379  0
 50.229687  -53.547115   19.697903  0
 50.885895  -53.193821   18.744925  0
 45.676125  -54.859760   21.964458  0
 43.606987  -53.476875   21.662186  0
 41.224743  -54.621792   21.974348  0
 22.253447  -55.034061   16.397617  0
  3.019934  -54.138611   14.562073  0
 18.936413  -53.383999   15.473421  0
 15.098658  -53.597477   14.786366  0
 12.151007  -54.117359   13.660875  0
 54.279572  -53.515671   16.953611  0
 14.002758  -53.649445   14.363485  0
 12.947872  -53.929352   14.133388  0
 56.081985  -54.378963   15.626032  0
 55.325897  -53.373043   15.766138  0
 55.083893  -52.813877   13.983626  0
 21.376827  -52.334251   15.097166  0
 55.426773  -53.309059   12.512393  0
 54.192944  -52.364582   12.403469  0
 19.702410  -52.414135   14.358408  0
 51.267246  -51.736557   11.419819  0
 49.440403  -51.772003   10.217091  0
 38.142078  -52.385555    9.076504  0
 16.325302  -52.564152   13.978254  0
 49.104698  -52.440067    8.944766  0
 24.915262  -51.393684    7.904602  0
 13.463976  -52.979321   13.194057  0
 14.074484  -52.035618   12.731640  0
 12.021378  -52.480999   11.872871  0
  9.767409  -51.673889   12.092293  0
 11.386521  -51.561371   11.694239  0
  8.171182  -51.394318   12.399843  0
  4.941136  -52.825817   12.743652  0
  2.819881  -52.388664   11.983332  0
 40.256660  -52.219196    6.826379  0
 21.896242  -52.093697    6.110111  0
 13.096651  -52.173073   12.031360  0
  2.091222  -52.612690   10.886750  0
  3.526014  -51.778477   10.308750  0
 52.471462  -54.637165    6.642995  0
 43.365967  -52.975792    4.371834  0
 25.786549  -50.770622    8.070865  0
 16.853603  -52.970078    4.211654  0
  5.716835  -51.125164    7.353820  0
  7.555386  -51.513042    5.776700  0
 53.915264  -55.345734    5.362998  0
 44.174957  -51.817268    3.838239  0
 16.242140  -52.943054    2.909398  0
 54.355709  -56.234001    3.409300  0
 54.036186  -54.091423    4.090625  0
 45.613068  -53.208397    1.991769  0
 45.504410  -51.433830    2.344094  0
 47.429840  -52.414452   -0.032856  0
 24.849125  -51.130398    7.164207  0
 48.859917  -53.140099   -1.226961  0
 50.661697  -53.666611   -1.242424  0
 24.395929  -51.420467    6.387612  0
 14.000965  -53.038460    1.495270  0
 54.003532  -55.617004    1.171883  0
 52.805386  -54.602947   -0.237175  0
 41.403275  -53.351223    5.006862  0
 23.429674  -51.664974    5.162934  0
 45.273811  -52.658623    2.181830  0
 20.879274  -51.048641    3.469292  0
 45.789036  -53.487736    1.323415  0
 38.316345  -52.801838   -2.873215  0
 19.519077  -50.661182    2.474985  0
 45.991360  -51.988380    0.896560  0
 45.374474  -51.756046   -0.442219  0
 40.952927  -52.511852   -2.564855  0
 26.414009  -52.406364   -1.966156  0
 23.595001  -51.997059   -1.565081  0
 21.358898  -51.064728   -1.201883  0
 18.894924  -51.544327   -0.595369  0
 18.385654  -51.266598    0.276218  0
 -0.044017  -53.848736   76.416267  0
  1.176167  -52.998066   77.232506  0
 -0.964682  -51.962509   78.337090  0
 -1.459596  -53.932293   76.041046  0
 -2.278291  -52.367130   76.933136  0
 -2.029894  -51.455742   77.723953  0
 16.424295  -50.453949   78.704636  0
 13.961725  -52.248520   78.966019  0
  1.523174  -53.642372   75.914146  0
 -2.730281  -53.716671   75.216301  0
 -3.329963  -52.641117   75.282051  0
 18.232851  -50.546032   74.555183  0
 17.923368  -50.229847   75.652863  0
 17.736444  -50.589703   73.110023  0
  2.250782  -53.308678   74.435013  0
  2.804804  -53.130184   72.951782  0
 -4.437285  -52.803623   74.448006  0
  6.086222  -52.316456   71.295547  0
  1.256347  -54.008934   69.326820  0
  3.060868  -53.183952   70.215202  0
 16.787304  -50.472206   70.565285  0
 -6.474700  -51.754665   70.737778  0
  6.594594  -52.644997   67.401955  0
 -5.913574  -52.098236   68.616798  0
 34.868870  -51.838825   68.899063  0
 32.442303  -51.225163   69.685570  0
 29.042171  -51.354073   68.123779  0
 27.576838  -51.499729   67.825249  0
 16.421474  -51.077312   66.903648  0
  1.286978  -53.459785   66.937584  0
 33.861378  -51.387264   69.635712  0
 30.771679  -50.646183   68.539909  0
 24.291502  -51.189613   66.802780  0
 -1.182703  -54.102676   65.243622  0
  0.477151  -53.433292   64.602470  0
 -5.545016  -52.698242   65.187744  0
 29.085258  -50.600342   67.135216  0
 27.282841  -50.457424   66.046440  0
 17.651140  -51.126339   65.599472  0
 -2.265549  -54.406178   64.072586  0
 -5.080177  -53.075104   62.486591  0
 35.514973  -52.408794   65.623207  0
 34.861240  -52.928120   64.076584  0
 34.018475  -53.850285   62.965744  0
 21.099916  -51.084747   66.053589  0
 -3.969772  -53.845207   61.597084  0
 33.371742  -53.274612   61.757114  0
 30.563313  -53.804493   60.663216  0
 26.918667  -53.683495   61.570744  0
 28.044868  -53.345860   61.032772  0
 -0.218301  -53.888233   62.431499  0
 -2.368369  -54.422840   61.981743  0
 32.085815  -53.549095   60.464390  0
 26.115353  -52.813931   60.473415  0
 21.142050  -52.670887   59.965740  0
 -2.886730  -54.206551   60.731377  0
 23.378342  -52.225945   59.833893  0
 17.728928  -53.097816   58.599922  0
 19.309719  -52.465950   58.999733  0
 17.031889  -53.181416   57.683498  0
  6.852159  -51.907619   57.198036  0
  6.871426  -52.506020   55.443542  0
 20.151566  -50.199402   55.558094  0
 18.207485  -51.849064   57.012505  0
 31.591925  -49.040203   55.008980  0
 21.715086  -50.388878   52.485821  0
 31.897259  -48.105869   53.800529  0
 30.886246  -47.926132   53.156624  0
 32.489082  -47.469654   52.644703  0
 29.050211  -49.843258   52.750645  0
 10.424100  -51.226402   50.388187  0
 48.277004  -49.575653   52.376938  0
 28.426163  -50.162258   52.332611  0
 50.917206  -49.115192   52.178234  0
 53.355259  -49.256710   51.409714  0
 47.903584  -49.342236   51.173500  0
 34.688000  -47.958382   50.389801  0
 33.750984  -47.367500   51.320107  0
 10.981873  -49.955456   48.887909  0
 54.576332  -50.911057   50.509319  0
 54.861763  -51.460327   49.266132  0
 54.471020  -49.651020   50.448956  0
 26.999071  -51.334339   49.955917  0
 21.646297  -50.045616   48.633625  0
 35.813507  -48.508476   49.633678  0
  1.494422  -50.479702   51.667019  0
  0.161249  -50.228111   48.436127  0
  1.022833  -50.314819   47.298096  0
 42.329788  -49.855534   49.278725  0
 21.919144  -50.260471   46.969517  0
  9.801227  -50.140732   48.191769  0
  0.690825  -50.706413   46.836689  0
  1.223261  -50.647812   45.472095  0
 35.881096  -48.170670   49.247509  0
 26.764120  -50.086014   47.873978  0
 24.251965  -50.303013   45.724701  0
 23.030262  -49.597672   45.031807  0
  0.499439  -49.968208   42.452732  0
 -0.969296  -50.251568   41.729214  0
  2.076015  -49.720543   42.985069  0
  1.707015  -49.625919   41.041382  0
 54.249401  -53.475346   41.302357  0
 54.158970  -53.323452   39.340279  0
  6.439836  -51.891781   40.346596  0
  6.971054  -52.358711   39.918877  0
  5.253036  -50.400711   40.061195  0
  3.482598  -49.835850   40.589546  0
 54.251217  -54.257729   38.175476  0
 45.489914  -54.304649   37.790386  0
 43.504105  -52.880699   39.036430  0
 41.733459  -52.103184   39.769150  0
 53.952164  -55.299461   37.975254  0
 48.381100  -55.471634   36.786678  0
 53.414474  -55.000916   37.755196  0
 52.347672  -55.623550   37.093342  0
  6.988399  -53.836811   39.423161  0
 50.645035  -57.683815   33.934071  0
 52.931820  -57.877934   33.855225  0
 51.732025  -57.519424   35.045887  0
 53.411804  -56.552238   35.895863  0
 50.889050  -56.464584   35.745731  0
 55.204700  -56.272751   33.923122  0
 50.090099  -57.113155   34.865822  0
 55.054100  -57.295372   32.741840  0
 54.195084  -57.709080   31.806133  0
 55.717426  -55.835613   31.268732  0
 54.692661  -56.654221   29.804052  0
 55.298828  -55.920925   29.673559  0
 48.331596  -56.210552   31.304768  0
 47.791843  -56.303394   32.689560  0
 46.351936  -55.226940   31.913334  0
 52.686398  -56.971283   29.912178  0
 54.262081  -55.794567   29.094950  0
 50.215046  -57.097584   31.520601  0
 50.370934  -56.086895   30.061085  0
 47.511406  -54.691628   30.992527  0
 50.985264  -54.714668   29.616945  0
 52.679100  -55.376087   29.128178  0
 35.734974  -51.808998   32.106251  0
 34.928528  -51.206287   32.443645  0
 39.484127  -51.847538   30.882004  0
 39.941753  -53.093506   29.857841  0
  4.709331  -52.600845   29.432899  0
  4.628050  -52.348843   26.244249  0
 40.265709  -54.100311   28.062899  0
 44.788181  -53.452671   29.650057  0
 45.702850  -54.610229   28.326521  0
 46.857174  -53.213173   28.781420  0
 44.533550  -54.935963   28.072243  0
 48.035892  -53.009396   28.141180  0
 45.792103  -55.824287   26.906488  0
 44.528103  -55.860882   26.201397  0
 50.210011  -54.673233   27.450619  0
 49.646530  -53.021168   27.412592  0
 45.569656  -56.071159   25.183826  0
 11.702340  -55.757408   20.746456  0
  1.235392  -51.526619   22.760723  0
 53.773117  -53.139179   24.977907  0
 51.543663  -52.968182   26.266899  0
 45.805824  -55.416889   23.703703  0
 11.021528  -55.056900   19.330135  0
  9.028367  -54.175701   17.565212  0
  0.559611  -50.954830   20.864351  0
 52.094250  -51.865032   24.979862  0
 44.658581  -54.186462   22.541000  0
  8.791263  -54.800068   17.127760  0
  7.973127  -54.093597   15.748909  0
 56.221962  -53.829288   22.685390  0
 54.046619  -53.642872   21.267231  0
 51.715340  -54.138588   20.939295  0
  6.038464  -53.349854   14.579919  0
  0.644572  -51.133488   17.813768  0
  1.365859  -51.784428   15.187954  0
 10.718454  -54.570404   17.769562  0
 10.481834  -54.322094   15.867514  0
  3.361351  -52.727486   14.444462  0
  1.506208  -52.932755   14.744017  0
 50.358559  -51.631195   18.731022  0
 51.106682  -51.446426   17.475649  0
 41.878395  -53.231289   21.574440  0
 22.025171  -53.010593   17.027422  0
 19.210245  -52.271938   16.029934  0
 11.082713  -53.987617   14.174793  0
 16.957708  -53.001472   15.215852  0
 52.407467  -51.767632   16.271748  0
 50.678600  -50.570263   15.785509  0
 50.311127  -50.483349   17.191904  0
 53.944489  -52.151390   15.181811  0
 52.415314  -51.300838   14.804736  0
 53.604649  -51.705784   13.762685  0
 51.545059  -51.177032   13.439106  0
 48.933640  -50.875465   11.506102  0
 19.527269  -50.806419   13.836442  0
 17.674295  -51.289738   13.373430  0
 48.141788  -50.916859    9.795925  0
 38.837902  -50.825085    7.541936  0
 24.209677  -51.731163    7.172307  0
 16.278072  -50.949863   12.594185  0
  9.867975  -49.937679   12.534581  0
  7.082294  -51.040604   12.462435  0
  5.906839  -50.826408   12.232426  0
  4.605700  -50.676216   11.698830  0
 48.599117  -51.350517    8.812871  0
 23.512108  -51.756191    6.096502  0
 20.909472  -51.919720    5.387084  0
 12.644364  -51.279819   11.449165  0
 11.971165  -50.119190   11.690718  0
 50.228794  -51.781281    7.400550  0
 42.027840  -52.052914    5.508497  0
 26.097393  -50.033760    8.284921  0
 19.297539  -51.895397    4.420559  0
 13.789968  -50.859352   11.461318  0
 51.935234  -53.276577    6.846019  0
 39.079918  -51.789146    7.291614  0
 17.796450  -52.057915    3.884672  0
  6.638998  -50.591816    6.369905  0
  4.918608  -51.427074    8.964827  0
 52.880054  -52.899025    5.188097  0
 17.090786  -52.169128    2.985011  0
  9.922584  -50.960102    3.269518  0
  8.232888  -50.036240    5.504692  0
  9.171473  -49.857082    4.299034  0
 54.283360  -54.667843    2.496602  0
 47.583557  -51.461975    0.206890  0
 25.708622  -49.857426    7.284945  0
 15.816768  -52.694084    1.719486  0
 53.773319  -54.329044    1.103339  0
 52.862812  -53.105827    1.601730  0
 51.520607  -53.419754   -0.222826  0
 49.982800  -52.384418   -0.372737  0
 25.023903  -49.999901    6.291150  0
 24.039444  -50.661861    5.155412  0
 11.757495  -50.997257    1.799497  0
 15.800518  -51.430672    0.818491  0
 13.928295  -51.095581    1.102940  0
 43.760815  -52.151714    3.188588  0
 39.447670  -51.387691   -2.863317  0
 42.445671  -51.775940   -2.113412  0
 24.715170  -51.246998   -1.824347  0
 18.753931  -50.016293    1.281650  0
 44.314884  -52.203892   -1.195913  0
 20.053469  -50.151295   -0.674786  0
  6.024523  -50.133911   81.313461  0
  5.413013  -51.651192   81.153282  0
  7.723810  -52.634270   80.603523  0
  3.687479  -50.394268   81.244278  0
  4.078949  -52.455223   80.587631  0
 -1.955739  -50.007893   79.392357  0
 15.159027  -50.752678   79.239105  0
 -2.822285  -50.780537   76.040672  0
 17.629791  -49.213207   74.700958  0
  3.206459  -53.084698   75.145035  0
 17.546638  -49.650414   73.321442  0
 16.884434  -48.712742   73.725883  0
 12.046480  -52.843948   78.566490  0
  3.678685  -52.060040   73.909050  0
 -4.004661  -51.284172   74.686157  0
 16.721405  -49.713882   72.258858  0
  4.281216  -51.973137   72.617867  0
 -6.496461  -50.641029   72.738983  0
 -6.796133  -50.916443   71.916306  0
 15.772581  -49.659035   69.602455  0
 15.552020  -49.054413   70.970673  0
  4.785332  -52.340191   69.474594  0
  3.730175  -52.496895   67.025620  0
 -6.555808  -50.153976   69.327423  0
 16.292751  -50.431759   68.207634  0
 -5.295510  -51.469257   66.607315  0
 -5.401387  -51.801338   64.783417  0
 34.473446  -50.357807   69.140343  0
 33.345982  -50.094940   69.356659  0
 32.263134  -49.354992   69.009338  0
 30.658600  -49.819706   67.568771  0
 15.997793  -50.285374   67.190918  0
  2.334283  -52.337795   64.256683  0
  3.745554  -52.059883   65.586639  0
 -4.498515  -50.366020   63.194904  0
 -4.630939  -50.783855   65.336441  0
 36.366795  -50.919674   66.241348  0
 36.231995  -49.940479   67.350571  0
 29.058685  -49.483238   65.964226  0
  5.464687  -52.313419   65.097954  0
 35.896709  -51.018772   65.112862  0
 23.731661  -50.497139   66.180161  0
 -5.177171  -51.554386   62.256565  0
 35.467068  -51.298241   63.942993  0
 34.542412  -52.682774   62.622383  0
  6.173187  -50.856823   61.014973  0
  6.184421  -51.015030   62.313721  0
 34.226517  -51.707851   61.958416  0
 33.151707  -52.124973   60.485779  0
 29.244820  -52.962231   58.958736  0
 26.775339  -51.951424   59.134079  0
 25.451677  -51.914955   59.683235  0
 -1.895306  -54.250744   59.987415  0
 -0.280970  -53.710411   58.998005  0
  2.297944  -52.660778   60.500843  0
 -4.646941  -52.751320   59.918056  0
 -4.983233  -51.671638   59.712791  0
 31.042423  -52.816593   59.097435  0
 27.729521  -52.243492   57.998821  0
 21.474247  -51.657848   59.296127  0
  6.385670  -50.992981   59.225796  0
 -3.386119  -53.605904   59.091805  0
 18.235094  -51.570889   57.986671  0
 -2.147150  -53.796989   58.239628  0
 -4.533266  -52.448624   58.414825  0
 -1.104113  -53.652550   56.909031  0
 -3.232266  -52.936489   57.176605  0
  7.256116  -52.615398   52.749233  0
 20.908602  -50.524143   50.640224  0
 29.990322  -48.598518   52.822445  0
 31.732138  -47.060646   51.964775  0
 29.412514  -48.594501   51.973804  0
 50.908676  -48.467865   50.602188  0
 32.976406  -46.853165   50.797920  0
 28.440701  -49.107010   51.205505  0
 54.978306  -49.849174   49.614132  0
 55.342056  -51.013813   47.448036  0
 54.878738  -49.315800   47.631622  0
 53.002792  -48.442768   49.931355  0
 46.460789  -48.956890   49.773952  0
  0.053663  -50.230183   51.080181  0
 55.297119  -49.888481   46.719738  0
 54.925724  -52.886398   45.682732  0
 55.337353  -52.399567   45.370693  0
 44.791405  -48.826347   49.022808  0
 27.289839  -50.124050   48.826900  0
 27.733513  -49.562126   49.631561  0
  3.612915  -50.150379   51.520996  0
  2.228899  -49.616913   52.055553  0
  0.147863  -49.975285   49.389412  0
 43.672997  -48.461704   48.374165  0
 34.832378  -47.736904   49.031761  0
 33.450665  -47.230999   49.634949  0
  8.207209  -49.838673   48.689960  0
  5.890800  -49.627869   50.090294  0
  2.049314  -50.364407   45.992302  0
  2.976957  -49.837940   44.451897  0
  2.709754  -49.764366   45.360706  0
  3.465526  -48.674374   42.717407  0
 41.707485  -49.786278   49.274353  0
 39.979374  -49.880894   49.459198  0
 37.360569  -49.814018   49.699947  0
 26.070135  -49.361767   46.078949  0
 27.605259  -48.233437   46.654705  0
  2.812410  -49.045551   41.473953  0
 25.086414  -49.091415   44.810226  0
 24.118940  -49.124821   44.304359  0
  4.412416  -49.073566   40.598335  0
  4.283782  -48.304836   41.504948  0
 53.767811  -53.276314   40.441685  0
 54.136478  -53.373825   38.270123  0
  6.723613  -50.523220   40.087646  0
 54.115837  -54.113811   37.658722  0
 42.995041  -52.126526   38.871387  0
 45.995308  -54.322632   36.942493  0
 53.968601  -55.178646   36.951912  0
 54.715401  -54.998478   35.670712  0
 48.199005  -56.045311   35.319180  0
  6.456324  -54.399559   38.803665  0
 55.339725  -53.584751   34.046181  0
 45.179474  -54.358181   35.842056  0
 36.620949  -52.736107   35.300316  0
  7.961294  -55.011494   37.043430  0
  6.951746  -55.083340   37.444153  0
 55.980976  -54.715492   32.747139  0
 55.677151  -53.131931   31.579926  0
 45.456486  -55.207916   34.035278  0
 45.068054  -55.013027   32.758926  0
 44.005661  -54.765160   33.436440  0
 35.236862  -51.704071   33.552616  0
 55.772568  -54.140488   30.130377  0
 44.500660  -54.272400   32.077145  0
 42.533581  -53.918655   32.517792  0
 41.671970  -54.037182   33.381653  0
 54.978058  -54.439636   29.177576  0
 55.152084  -52.927834   29.928270  0
 44.863670  -53.116489   31.775177  0
 47.089848  -53.610752   31.017929  0
 52.447605  -53.250355   29.440422  0
 49.461720  -53.130802   30.348335  0
  6.741417  -53.751720   34.247002  0
  6.139121  -52.808128   33.036308  0
 36.895554  -50.768688   31.942392  0
 35.975700  -49.915047   31.646063  0
 41.123131  -52.297268   30.417620  0
 40.372936  -50.101448   31.050587  0
 41.459026  -51.014481   30.969173  0
 38.478085  -49.952938   31.568935  0
  4.107040  -52.547073   28.591890  0
 42.938103  -52.837837   30.518476  0
 43.499218  -51.422649   30.974949  0
 41.507225  -53.820644   28.875755  0
  2.523096  -52.584564   27.061300  0
  2.608773  -52.165855   25.033995  0
 45.680080  -51.663357   30.051970  0
 43.366657  -54.447784   28.649885  0
 41.899948  -54.596401   26.696751  0
 47.413094  -51.117496   28.731220  0
 43.372002  -55.347282   26.612850  0
 40.993214  -54.540493   25.548372  0
 48.685982  -51.649330   27.672903  0
 44.422112  -55.519466   24.365196  0
 43.019447  -55.274197   25.008081  0
 40.372608  -54.086624   22.986385  0
 41.221912  -54.229477   24.093462  0
 43.303310  -54.499214   23.479588  0
 41.123974  -53.121143   22.344130  0
  9.813848  -53.679703   18.015886  0
 10.679833  -54.017788   18.256834  0
  0.691698  -50.220341   23.350719  0
 56.782803  -52.303310   23.168379  0
 55.186443  -51.476952   23.861809  0
 55.889374  -52.916233   21.866659  0
 53.200516  -51.321590   24.199585  0
 49.700031  -50.775440   26.322777  0
  0.575923  -49.702339   21.297422  0
  1.006338  -49.086510   19.283457  0
 53.596218  -52.249954   20.783453  0
 42.690865  -52.869659   22.179945  0
  1.707663  -49.762383   16.050344  0
 51.243515  -51.815678   20.111116  0
 50.469139  -51.245445   19.451357  0
  4.373120  -52.019615   14.148231  0
  2.311579  -51.064644   14.434440  0
 49.906147  -50.486393   18.163071  0
 48.787357  -49.549053   16.813410  0
  9.764408  -53.820427   16.107780  0
  9.549829  -53.142990   14.550539  0
 48.693756  -49.875519   14.434989  0
 16.999043  -52.088226   15.490129  0
 15.428094  -52.190014   14.671393  0
 14.703814  -52.593536   14.184122  0
 13.915352  -52.547981   13.917005  0
 12.463117  -52.603703   12.927509  0
 11.402174  -52.829231   12.869895  0
 22.012394  -52.174377   16.157890  0
 48.052689  -50.300247   12.041940  0
 18.301813  -49.955368   13.148901  0
 38.135612  -49.908859    7.952358  0
 17.210434  -49.476757   12.083171  0
 15.062748  -49.774769   11.015052  0
  8.128130  -49.308662   12.307660  0
  3.502696  -51.300724   11.266181  0
 24.776896  -50.511494    6.992552  0
 24.216930  -51.238464    6.210753  0
 11.070733  -48.963425   12.525918  0
  4.654533  -50.187653   10.625123  0
 27.112303  -47.598423    8.071676  0
 22.187634  -51.077663    4.736904  0
 20.877449  -50.671215    3.733833  0
 13.034361  -48.910160   11.146750  0
 14.127675  -49.334965   10.709672  0
 40.772312  -50.104912    5.357870  0
 42.604538  -50.673203    4.562720  0
  8.867146  -48.898071    4.975067  0
  6.363740  -49.671070    7.480468  0
  7.982529  -48.853821    6.245603  0
 43.865883  -50.566795    3.898493  0
 44.226727  -50.066265    3.264363  0
 10.623659  -49.387062    3.196657  0
 52.233425  -51.910831    3.403126  0
 51.023487  -51.122288    5.681479  0
 51.037548  -52.131023    0.714301  0
 45.387905  -49.584087    2.155343  0
 46.531021  -50.695232    1.100797  0
 17.721811  -51.676266    1.673752  0
 48.438923  -51.054737   -0.005189  0
 39.520199  -49.722317    5.788961  0
 17.454580  -51.490776    0.927805  0
 41.430141  -50.339180    4.474728  0
 24.642212  -49.989555    4.657023  0
 12.750802  -50.020565    1.730384  0
 44.585827  -50.835423    2.751520  0
 23.468897  -49.881226    4.062699  0
 22.007069  -49.672405    3.784049  0
 46.190132  -51.007938    0.612268  0
 35.885754  -50.575996   -3.291890  0
 20.132561  -49.378315    2.653026  0
 27.964329  -51.487709   -3.067149  0
 29.587246  -51.755890   -2.983063  0
 26.102188  -50.661007   -2.844418  0
 22.210024  -49.285172   -1.765554  0
 19.234863  -49.463757    0.119899  0
  2.523547  -51.194771   80.388542  0
  3.060744  -52.457890   80.068077  0
  2.552803  -52.559940   79.113945  0
  2.093364  -51.961433   78.967102  0
  2.453351  -53.354050   76.709961  0
  1.005379  -51.503815   78.982567  0
 -0.826484  -50.545723   79.768883  0
 15.498593  -48.650826   79.166313  0
 14.127851  -49.567661   79.628006  0
 16.868465  -49.255119   78.018120  0
 12.994117  -47.635162   80.195396  0
 12.380017  -49.258858   79.765182  0
 -2.357082  -49.283104   77.079254  0
 17.282124  -49.322441   76.619057  0
 -2.461632  -48.390526   75.569756  0
 10.938659  -49.536697   79.469826  0
 10.793893  -50.967636   79.308899  0
 -3.220666  -48.984550   74.540199  0
 24.780823  -50.860844   74.488884  0
 24.447443  -50.067921   75.762634  0
 23.135498  -50.584358   75.331223  0
 21.915272  -49.882111   75.874306  0
 21.590485  -50.511314   74.963089  0
 20.495983  -50.061291   74.971619  0
 16.608295  -48.368835   75.730309  0
 15.759496  -48.116669   73.895531  0
 23.110420  -51.592693   72.275513  0
 25.923975  -51.200809   72.167892  0
 21.308445  -51.163769   73.875504  0
 15.964608  -48.649036   72.687721  0
  5.207948  -51.819996   71.935997  0
  4.613381  -51.636765   74.008385  0
 14.822963  -48.117416   71.819221  0
  5.929190  -52.282005   69.397987  0
 -5.485231  -50.059383   73.480179  0
 -7.207216  -49.169750   71.919220  0
 13.841511  -48.430862   70.544823  0
  5.695287  -52.253338   67.509468  0
 14.076035  -48.872784   69.460693  0
  4.793827  -52.248455   66.416199  0
 -5.701804  -49.904499   67.803452  0
 15.022048  -49.293415   68.506104  0
 -4.619205  -50.042557   66.343552  0
 35.243671  -49.546352   68.507713  0
 33.632118  -48.426189   68.977531  0
  4.327295  -51.748455   64.634483  0
 -3.254788  -49.399166   64.680397  0
 37.336979  -49.676556   65.617119  0
 31.138117  -47.915813   67.824097  0
 32.245018  -47.849045   68.604836  0
  5.120533  -51.723202   64.025505  0
  3.330802  -51.789551   64.072067  0
 36.737057  -49.893597   63.988312  0
 26.928610  -49.652569   65.392105  0
 18.408144  -50.608955   65.932350  0
 -2.815418  -48.507057   63.763161  0
 35.043835  -51.056122   63.054264  0
 25.898293  -49.269886   65.503075  0
  3.536005  -51.983109   62.457756  0
 35.438633  -49.883301   62.531395  0
 34.087463  -50.274750   60.696682  0
 32.636780  -50.716892   59.624901  0
 31.562279  -51.644505   58.764668  0
  1.926723  -53.129349   58.585423  0
  3.311172  -52.490231   59.216228  0
 -4.580783  -49.730038   58.988701  0
 40.093895  -52.704865   64.107361  0
 42.204952  -53.520412   63.473785  0
 41.209347  -52.617947   64.283173  0
 30.534775  -51.997490   57.997986  0
 28.831602  -52.452015   57.853413  0
 24.733307  -51.078449   58.560246  0
 19.839247  -50.340904   58.402431  0
 21.646940  -50.014061   58.213284  0
  1.105216  -53.601864   57.223427  0
 41.548180  -53.592232   62.769382  0
  1.540563  -53.754196   55.331272  0
 -5.027806  -51.401489   57.737766  0
 -5.046282  -50.030697   57.193893  0
 18.670792  -50.530697   56.888298  0
  6.970887  -50.869011   57.839226  0
  6.998428  -51.788700   56.360264  0
 -1.603068  -53.256214   55.487640  0
  0.615242  -53.458168   54.550091  0
 -4.579720  -51.487247   56.236752  0
 -5.249363  -50.413261   56.028648  0
 -0.416741  -52.321671   53.912659  0
  1.753016  -52.568893   53.823452  0
 -2.239676  -52.212955   54.484898  0
 -3.609306  -51.823887   55.025196  0
 -4.440358  -50.638798   54.838474  0
 -0.494146  -50.936783   52.807842  0
 -2.043928  -50.116993   52.936337  0
  8.005675  -51.774891   51.454288  0
  8.900904  -50.765770   50.765846  0
 10.750676  -48.955296   49.950260  0
 10.697048  -48.321110   49.201092  0
 53.990543  -48.629944   49.045647  0
 30.888111  -46.780903   50.685745  0
 30.051714  -46.893715   50.044113  0
 28.564207  -48.164017   49.830830  0
  0.067780  -49.635509   51.684277  0
 -1.078031  -49.842529   49.895519  0
 50.762890  -48.022961   49.015793  0
 51.998825  -47.894318   47.777935  0
 47.273067  -48.450207   48.393093  0
 31.655561  -46.617393   49.428562  0
 28.702112  -48.304054   48.655159  0
  4.091513  -49.240147   51.373081  0
 48.768677  -48.232025   47.823803  0
 44.684464  -48.095661   47.677811  0
 32.975311  -46.624432   48.644306  0
 22.252281  -49.314331   46.674770  0
  9.740723  -48.231438   48.692730  0
 55.639439  -50.478138   44.960560  0
 55.610802  -51.666313   44.731701  0
 28.147625  -48.533886   47.512054  0
  3.280258  -48.859505   44.172501  0
 27.004873  -48.563637   45.901669  0
  3.935112  -47.825832   42.460812  0
 55.517513  -51.723846   42.635281  0
 54.084557  -53.128326   40.454250  0
 26.418200  -48.406937   44.949303  0
 23.586349  -48.653702   44.682484  0
 53.850910  -52.674946   39.311634  0
  5.774077  -48.889835   40.070251  0
 53.537586  -52.729191   38.541271  0
 25.213120  -48.115044   44.485268  0
  6.954182  -49.397427   39.874962  0
 53.878937  -52.626633   37.790325  0
 41.626678  -51.492958   38.744808  0
 39.914955  -51.383297   38.487381  0
 43.300980  -52.628414   37.566422  0
 37.926704  -52.365620   36.988937  0
 39.336765  -51.683712   37.555470  0
 54.455067  -53.640617   36.280861  0
 53.660290  -52.424843   36.163055  0
 41.725868  -52.975056   36.289173  0
 40.844265  -51.713428   37.706146  0
 39.537502  -52.565563   36.587601  0
 42.827648  -53.974773   34.666271  0
 39.734562  -53.344078   35.028561  0
  6.162908  -52.136913   39.574852  0
 53.991898  -51.921745   34.514450  0
 54.478619  -51.578373   32.719933  0
 39.405338  -53.450760   33.087780  0
 37.663300  -52.956722   34.022968  0
 36.188442  -52.492027   34.124756  0
  4.759186  -53.757835   38.830769  0
  5.471125  -54.901508   37.772888  0
  4.706036  -52.424202   39.365952  0
  3.459894  -54.313087   37.732498  0
  3.712942  -51.425381   39.512592  0
  2.640532  -52.954548   38.713158  0
  1.225489  -53.057392   38.166653  0
 53.817909  -51.763664   30.934229  0
 40.485035  -53.614933   32.837055  0
 40.329990  -52.560043   32.456039  0
 38.013184  -52.829330   33.164696  0
 37.567688  -51.730118   32.678288  0
  7.007774  -54.663559   35.705822  0
  5.795366  -54.908592   35.966160  0
  4.347535  -54.917984   36.930855  0
  1.553710  -54.164165   37.107445  0
  0.098248  -53.090984   37.824211  0
 -0.707690  -52.935120   37.003571  0
 -0.863249  -51.700825   38.410416  0
 -1.658550  -51.808243   36.473000  0
 -1.394907  -52.255150   34.741367  0
 53.915501  -52.796867   29.710619  0
 47.940380  -52.115704   31.055918  0
 49.611927  -51.142132   31.005247  0
 52.086868  -51.841469   30.134741  0
 48.701370  -50.139133   31.764931  0
 47.035000  -49.582760   32.230965  0
 43.149906  -52.035301   32.253937  0
  3.505740  -54.698177   35.884945  0
  1.191350  -54.207287   35.903610  0
 -0.243086  -53.576389   35.162373  0
  5.703845  -53.826893   33.894840  0
  4.182312  -52.779312   31.916878  0
  4.088124  -52.859035   30.758869  0
  3.974765  -53.352634   33.315258  0
  2.796073  -53.110138   32.040829  0
  2.162317  -53.208385   29.734224  0
 36.761005  -49.369858   31.338671  0
  1.079109  -52.495525   27.851364  0
 41.940159  -49.721497   30.727268  0
 37.745411  -49.575729   31.641190  0
  1.835166  -52.205025   25.969393  0
  0.798255  -51.129055   25.894159  0
  0.150897  -51.459599   28.159199  0
 43.515251  -50.290188   30.864471  0
 45.516823  -49.730049   29.965704  0
  1.180551  -51.266285   24.321335  0
 47.131622  -49.212643   28.487274  0
 48.129253  -49.821793   27.488565  0
  0.608770  -49.190693   23.282419  0
 48.765839  -49.170914   26.143507  0
 48.013542  -47.892677   26.368435  0
 42.133678  -53.769157   23.301365  0
 58.360584  -50.964413   22.498331  0
 57.518791  -51.832367   22.119616  0
 57.301624  -50.469479   23.391844  0
 53.285248  -49.337563   23.771141  0
 51.912258  -49.669567   24.048340  0
 50.440990  -49.551674   24.872646  0
  9.815092  -53.395260   17.227510  0
  8.809816  -53.383900   16.658688  0
  0.947814  -48.770267   22.095198  0
 58.280296  -51.022053   21.444651  0
 56.358360  -51.570557   21.034521  0
  8.921805  -53.437107   15.963852  0
  7.732867  -53.240044   15.087365  0
  6.229697  -51.985432   14.200027  0
 52.795345  -50.812077   19.951904  0
  3.268099  -50.294807   14.015228  0
  2.101525  -48.323750   17.426445  0
 49.298195  -49.634975   18.358221  0
 21.319624  -51.828583   16.634804  0
 13.479288  -51.820587   13.067526  0
 10.200474  -52.576183   13.291557  0
 20.037722  -50.651760   14.736576  0
 19.573032  -49.617702   13.860586  0
 47.976315  -49.736034   11.486313  0
 17.738092  -48.246437   12.379075  0
 26.673529  -47.818817    7.951449  0
 25.951452  -49.412704    7.531190  0
 16.499529  -48.670219   10.747644  0
  9.861650  -47.432693   12.513997  0
  6.463969  -48.143066   11.282676  0
  5.840808  -48.265720   10.661341  0
 24.585665  -49.908218    5.885405  0
 11.547659  -47.932358   12.280151  0
 49.083664  -50.302624    8.521340  0
 39.029305  -49.304707    6.655630  0
 23.594109  -50.763546    5.121648  0
 23.925547  -49.363174    5.092203  0
 13.912941  -47.477509   10.539511  0
 43.113777  -49.324837    3.665617  0
 26.627470  -48.642582    7.852467  0
 22.133171  -49.569992    4.052297  0
 20.802176  -48.372574    3.277066  0
  8.368389  -47.807041    5.984296  0
  7.666472  -47.506489    7.961842  0
  6.034579  -48.748779    9.572998  0
 26.968119  -48.350754    7.213301  0
 19.343239  -50.599503    2.735537  0
  9.456123  -47.552937    4.693677  0
 51.769627  -51.302574    3.541961  0
 38.608765  -48.315945    6.522087  0
 26.380260  -49.004261    6.692752  0
 17.822531  -50.406288    0.763600  0
 19.332003  -48.924675    1.928699  0
 11.815237  -48.090435    3.002828  0
 49.720547  -51.630207   -0.065633  0
 46.532368  -50.035072    0.869042  0
 47.078876  -50.100109   -0.023099  0
 26.828173  -48.032433    5.571535  0
 12.700817  -48.972443    2.205034  0
 41.728695  -47.766212    3.868957  0
 40.118759  -48.809574    4.808036  0
 25.838335  -48.781075    4.491395  0
 15.961843  -49.508141    0.287623  0
 14.105310  -48.947067    1.183228  0
 33.275162  -51.412083   -2.970137  0
 31.419662  -51.788376   -2.798718  0
 24.466125  -49.367119    3.960927  0
 30.546146  -51.160603   -3.524053  0
 23.159121  -48.189732    3.441875  0
 21.558729  -48.159847    3.442979  0
 29.262287  -50.762783   -3.592088  0
 20.699738  -46.722355    2.568574  0
 19.717165  -47.743576    1.570311  0
 19.476465  -48.261677    0.814645  0
 27.912663  -50.229305   -3.258641  0
 24.992579  -49.480495   -2.885655  0
 26.294760  -49.433453   -3.233833  0
 20.214731  -48.391850   -0.850075  0
 23.485266  -47.235710   -1.975648  0
  2.631657  -48.575069   81.428780  0
  1.549560  -50.028671   80.640930  0
  8.655666  -50.641216   80.555763  0
  7.274392  -47.472298   81.002289  0
 -1.807174  -48.658222   80.835411  0
 -1.425468  -49.641132   80.701378  0
 -0.096156  -49.513470   80.695061  0
 -2.342197  -47.128353   79.027824  0
 10.071613  -50.817287   79.936295  0
  9.466311  -48.742783   79.938515  0
 14.074197  -47.372192   79.923569  0
 15.405875  -47.118515   78.578453  0
 20.237391  -49.109146   75.333099  0
 -1.991865  -47.215160   74.990982  0
 -2.209508  -47.514446   74.119774  0
 -1.590295  -46.937176   73.936020  0
 27.194139  -49.919464   74.795502  0
 23.613279  -49.054272   76.357719  0
 26.815115  -48.545578   75.869102  0
 21.559114  -48.716621   76.045090  0
 15.517747  -47.116180   75.656876  0
 14.405874  -46.788612   74.520714  0
 13.441965  -47.366539   73.038719  0
 27.551529  -50.385963   73.403595  0
 19.113451  -50.502613   73.658295  0
 18.362219  -49.269451   74.320648  0
 20.158205  -51.215908   72.014320  0
 18.699921  -50.697495   71.658287  0
 17.561956  -49.376976   73.190773  0
 17.287148  -49.761463   72.393188  0
 16.056324  -48.477562   72.604576  0
 12.215890  -47.260429   71.997009  0
 -3.939992  -48.018719   74.085747  0
 -6.745916  -48.576942   73.122795  0
 28.944799  -50.131786   71.480400  0
 26.108974  -51.117096   70.939308  0
 23.963297  -51.135052   70.053154  0
 21.698387  -51.422047   70.972244  0
 17.143944  -50.195698   71.078697  0
 12.502855  -47.938957   70.725777  0
 11.644933  -47.148037   71.292381  0
 12.536585  -47.711250   70.398430  0
 21.326181  -51.226990   69.237587  0
 19.520168  -51.203594   70.111450  0
 17.201651  -50.397526   69.470146  0
 -7.327122  -47.668877   70.232979  0
 18.260494  -50.709919   68.756363  0
 -6.366496  -47.978119   67.880836  0
 20.689499  -50.702831   67.908401  0
 -5.054745  -49.011955   66.668678  0
 -3.418495  -48.538311   65.207718  0
 36.510395  -47.510132   67.722855  0
 35.586025  -48.230236   68.287521  0
 37.551922  -48.069172   66.172302  0
 34.213356  -47.178493   68.410522  0
 -2.360988  -47.236622   63.853729  0
 37.657181  -48.736599   64.733315  0
 32.219917  -46.454414   67.884155  0
 30.040785  -47.587433   66.907249  0
 17.238365  -50.383541   67.226364  0
  5.511383  -51.290382   61.828621  0
 37.261356  -48.956234   63.541656  0
 28.328014  -47.961475   66.487747  0
 27.997124  -48.771423   65.606148  0
 29.375427  -47.275963   66.674911  0
 23.899071  -49.786476   66.344238  0
 21.332138  -50.567513   66.757874  0
  4.670493  -51.418839   60.979908  0
 -2.517260  -46.797073   62.244099  0
 -4.192862  -48.904461   61.053482  0
 36.713577  -48.555809   62.980305  0
 35.708694  -48.509041   61.793839  0
  4.787632  -51.673248   59.170193  0
  5.704670  -50.969803   59.717175  0
 35.271080  -48.346397   60.829819  0
 33.811943  -49.116844   59.908897  0
  3.977169  -52.915741   57.439888  0
 43.966644  -53.326237   63.049072  0
 44.979828  -53.220005   62.653442  0
 43.704971  -52.677235   63.443741  0
 42.662357  -51.850945   64.312515  0
 40.648548  -50.884525   65.087883  0
 32.204319  -49.687481   58.405270  0
 29.724039  -52.055748   57.067268  0
 25.452291  -51.041344   57.527077  0
 23.901779  -50.312271   57.841267  0
  5.307256  -52.346836   57.092999  0
 44.188023  -53.276096   61.961937  0
 39.781620  -52.556599   62.499847  0
 38.647911  -51.117554   64.170029  0
 37.987782  -50.606991   63.314899  0
 30.886316  -50.808582   56.826042  0
 31.706789  -48.980629   57.178368  0
 19.429752  -49.713161   57.500351  0
  5.231741  -53.234337   55.639893  0
 -3.641274  -48.098698   58.626595  0
 43.144676  -53.572403   60.881527  0
 41.898121  -53.465595   60.719254  0
 40.845146  -52.730965   59.776638  0
 38.632542  -51.547798   60.839737  0
  4.080762  -53.446316   55.381439  0
 -4.219468  -48.271923   57.596657  0
 -5.175666  -48.932297   56.546295  0
 20.414654  -49.018360   55.996811  0
  5.135118  -53.215347   54.143631  0
  3.399432  -53.287533   54.275303  0
  6.054285  -53.346195   54.813435  0
 -5.065488  -49.592125   55.621040  0
  6.746847  -52.769775   53.975971  0
  6.307693  -52.671432   55.776764  0
  6.750762  -52.668800   55.084461  0
  3.712528  -52.517319   53.323788  0
 -4.912246  -49.336552   54.657818  0
  6.585013  -52.089561   52.317978  0
  5.001640  -51.961872   52.689892  0
  2.662467  -51.595860   52.846413  0
  2.911462  -50.567249   52.436813  0
  0.741982  -50.445751   52.359650  0
 -3.799944  -48.897594   53.449432  0
 21.766964  -49.797760   53.889240  0
  5.974096  -51.515675   52.283783  0
  6.597378  -50.433872   51.999641  0
  7.874832  -50.077190   51.223515  0
 21.744312  -50.222988   50.848522  0
  9.685441  -49.830143   50.545273  0
  9.681241  -47.466282   51.033840  0
 11.053248  -46.887600   49.442753  0
  0.853155  -48.796242   51.959553  0
  2.661964  -47.561817   51.477871  0
 30.032280  -47.053165   49.107925  0
  6.812227  -47.779030   49.262520  0
  4.292104  -47.464382   50.849289  0
 -0.372522  -50.012455   47.487064  0
 53.763012  -48.345753   46.563141  0
 50.339809  -47.557220   46.491791  0
