#!ascii file
  4.391188  -39.369301   43.264874  0
  3.999657  -39.296902   42.843849  0
 35.993862  -39.598751   41.835457  0
  4.361860  -38.913151   41.569851  0
 35.670109  -39.425583   40.681561  0
  4.321613  -39.327358   40.658054  0
 34.905731  -39.803337   38.975964  0
  3.706185  -39.527000   39.594036  0
  3.356520  -40.087582   38.619301  0
  2.534735  -39.304928   38.082745  0
 53.834476  -38.585247   37.729671  0
 52.699688  -38.498146   38.268562  0
 33.387344  -39.716991   37.100590  0
 53.529324  -40.228432   35.473385  0
 48.837711  -39.306385   36.433361  0
 47.649570  -39.986290   35.568584  0
 32.495869  -39.618164   36.462154  0
  7.722726  -39.093544   36.283836  0
  8.289330  -39.133728   35.744148  0
 54.215210  -38.977055   35.150730  0
 54.177910  -39.571472   35.812698  0
 31.548529  -39.464310   33.512627  0
  3.603719  -38.266747   36.169205  0
 53.400951  -38.860851   33.552055  0
 49.227798  -38.900841   34.710545  0
 32.452988  -39.527363   32.908081  0
  8.071228  -39.348022   34.663540  0
 53.171101  -39.426880   31.953859  0
 48.818291  -39.320812   32.773739  0
 35.279587  -39.925720   32.207016  0
 33.489292  -39.589516   32.397881  0
  5.967059  -38.661530   33.586868  0
 41.880871  -39.296688   30.920458  0
 39.893436  -38.852867   31.686192  0
 38.399536  -38.804417   31.859760  0
 36.227753  -38.984512   31.660196  0
  3.972524  -38.863110   32.506393  0
 53.903683  -39.772308   30.966686  0
 53.838226  -39.825603   30.266138  0
 41.059799  -38.671288   30.892488  0
  2.264570  -39.763191   31.369444  0
  0.928054  -38.944935   30.409653  0
 53.985924  -39.839069   29.585009  0
  0.981705  -39.553417   28.583923  0
 57.445244  -40.112389   27.991245  0
 55.390152  -39.592117   28.165903  0
 56.841869  -39.381618   27.724207  0
 58.371902  -39.398441   27.566910  0
 59.279678  -38.354633   27.230879  0
 49.905499  -39.956303   27.781746  0
 47.148701  -40.268215   28.236851  0
 44.781002  -39.821671   27.114460  0
 59.259445  -39.173267   26.969746  0
 53.565845  -39.313438   26.594772  0
 52.131680  -39.984123   27.343344  0
 42.099560  -39.558956   26.585300  0
 58.309093  -39.517162   26.370134  0
 39.432972  -39.150166   25.928400  0
 37.096996  -40.043346   25.916784  0
  1.294624  -38.812950   26.236578  0
 36.395908  -39.737019   24.709789  0
 36.167366  -39.675987   23.091976  0
 35.736279  -39.646046   21.731045  0
  1.649509  -39.061550   21.467123  0
 21.255108  -40.047901   19.566839  0
 21.931868  -39.310246   19.739460  0
 18.742527  -40.451149   19.604469  0
 20.423706  -39.407307   20.117844  0
 18.518658  -39.761391   20.353825  0
  1.989677  -38.805260   19.605915  0
 16.984413  -40.229904   19.761044  0
 15.669335  -39.378456   20.153790  0
 13.941025  -39.268318   19.442818  0
  2.720070  -40.267448   19.307459  0
  2.617620  -39.492958   19.022715  0
 25.061171  -39.219753   16.785112  0
  7.444093  -38.985954   18.403965  0
  5.921327  -39.345982   18.275887  0
  4.270033  -39.273445   18.322752  0
 59.948353  -38.346130   17.183744  0
 59.334492  -36.998249   17.204237  0
 59.995575  -38.349072   16.805264  0
 55.724743  -40.298882   15.609190  0
 55.042450  -38.618927   15.860239  0
 40.911430  -38.544807   16.379547  0
 11.735497  -39.150349   15.246490  0
 59.298363  -38.545639   15.942984  0
 58.088058  -39.787128   15.351204  0
 57.133503  -40.698093   15.124592  0
 54.329903  -39.831062   14.978945  0
 46.748314  -39.042717   14.885005  0
 17.137928  -38.612396   14.430677  0
 11.056087  -39.128757   14.921334  0
 56.673798  -39.253277   14.272590  0
 55.999077  -39.119232   13.049812  0
 51.313194  -38.834911   13.848488  0
 28.287123  -39.211361   13.890085  0
 27.651936  -39.240753   12.570782  0
 27.595644  -39.226391   14.538496  0
 19.397268  -39.133865   14.031490  0
 11.169755  -39.325161   14.278968  0
 56.228539  -38.938606   11.857260  0
 26.380043  -39.102856   11.596150  0
 22.101503  -38.980858   13.099960  0
 14.718741  -38.672523   11.997786  0
 39.006264  -39.187340   11.166142  0
 51.765701  -38.959576   10.478374  0
 50.412529  -39.488838   10.927691  0
 45.298534  -39.767784   10.149546  0
 42.347763  -39.270771   11.123385  0
 43.991295  -38.945763    9.828494  0
 38.109245  -39.024269   10.357101  0
 24.920799  -38.715263   11.156193  0
 17.237915  -39.063435   11.014629  0
 58.580166  -39.879093    9.534348  0
 46.403114  -39.545479    9.665422  0
 31.682806  -39.375473   10.230373  0
 29.132559  -38.912872    9.860913  0
 59.002972  -39.119385    8.823842  0
 58.445286  -39.127502    7.903598  0
 54.590511  -38.951263    8.616456  0
 53.530609  -39.001259    9.418378  0
 32.940296  -39.109921    9.456220  0
 33.948311  -38.590221    8.158072  0
 57.502567  -39.323586    7.735406  0
 56.105587  -38.361912    7.774770  0
 25.696348  -38.173031    7.581420  0
 23.854046  -38.806763    7.774889  0
 33.603931  -38.912983    4.908273  0
 38.996922  -39.610302    1.304392  0
 30.772409  -40.182724    1.259267  0
 31.170626  -39.416630    1.687431  0
 36.755867  -39.760731    0.397902  0
 34.737747  -39.393826    0.315399  0
 31.763582  -39.226883    0.770828  0
 17.055822  -38.876846   76.872826  0
 15.478347  -37.743843   77.516899  0
 13.932509  -37.447250   77.593475  0
 13.166364  -37.925102   77.258919  0
 30.184898  -39.468792   73.585518  0
 29.975430  -40.917099   73.691818  0
 23.908197  -38.286545   74.841667  0
 21.874062  -37.977680   75.252335  0
 20.561453  -38.717571   75.306000  0
 19.174702  -38.661457   75.744209  0
 14.133482  -38.562984   75.866425  0
 15.098730  -38.475903   74.817734  0
 31.959158  -38.097874   72.782059  0
 32.695541  -38.658024   72.309593  0
 30.847122  -37.827541   73.359688  0
 24.460548  -38.261227   74.195549  0
  2.199148  -38.626034   73.054497  0
 29.778389  -37.615528   73.383080  0
 28.751226  -37.782276   72.929527  0
 24.360510  -38.384998   73.330269  0
 33.271709  -38.421070   71.619888  0
 23.825777  -37.816544   72.195442  0
 14.133458  -38.732258   72.262306  0
 12.425982  -39.142784   71.425949  0
  5.369702  -38.113453   71.919769  0
 -1.498912  -39.437813   71.541656  0
  0.921620  -39.018562   72.895897  0
 33.180782  -38.822239   70.714531  0
 11.237197  -38.692787   70.848221  0
 10.678204  -38.732349   70.153290  0
  7.387362  -39.142948   70.866043  0
  6.784529  -38.783428   71.458267  0
 11.085988  -38.713394   69.586647  0
 10.641685  -38.090969   68.381073  0
 -0.891838  -38.881241   70.786469  0
 -1.255478  -39.256931   69.836304  0
 27.813974  -38.311470   69.202797  0
 22.333635  -38.863392   68.200546  0
 22.091114  -37.190578   68.893677  0
 12.275058  -38.654835   68.803627  0
  8.388239  -38.798508   70.001968  0
  8.530716  -38.605011   68.482552  0
  0.781200  -38.237797   70.696808  0
  0.753864  -38.770130   69.245651  0
 -0.712204  -39.417274   68.407143  0
 32.145699  -38.342548   67.887924  0
 21.789690  -38.455616   67.088066  0
 15.414610  -39.195301   67.689301  0
 14.793119  -38.597408   67.132202  0
  1.338093  -38.957024   67.270256  0
 -1.418212  -39.632183   65.971329  0
 21.067928  -38.926422   65.363029  0
  9.000008  -38.484764   66.371178  0
  0.681505  -39.228115   66.293869  0
 26.498314  -38.635094   66.779808  0
 25.703583  -38.292343   65.539154  0
 14.187445  -38.379993   65.623360  0
  2.180947  -38.578983   65.964485  0
 41.534599  -38.503685   66.110313  0
 39.568375  -38.201817   66.725624  0
 29.586725  -38.512249   63.830418  0
 20.026148  -38.365528   63.468327  0
  9.368687  -38.767437   65.040543  0
  0.384525  -39.038750   65.032639  0
 -1.225062  -39.482975   64.498833  0
 42.030144  -38.235321   64.377441  0
 37.318432  -38.656708   64.529861  0
 12.730019  -38.063057   65.080109  0
 10.939771  -38.098412   65.077080  0
  1.130467  -38.341908   64.591713  0
 -0.335627  -38.374149   63.534794  0
 41.755379  -38.160202   62.255032  0
 36.817333  -38.451756   63.722294  0
 -0.589400  -38.876610   62.726917  0
 39.818790  -39.405998   61.785004  0
 37.973507  -39.195599   62.745808  0
 24.287876  -38.170673   61.654560  0
 19.621143  -37.850544   62.107674  0
 -0.358862  -38.588013   61.610817  0
 20.486038  -38.836571   60.900661  0
 27.420313  -38.943382   59.350891  0
 -0.079958  -37.640804   60.144825  0
 20.155695  -38.775761   58.732594  0
 20.091780  -38.585590   59.779007  0
  4.156447  -36.753090   59.379257  0
  2.070984  -37.191776   59.417454  0
 40.196720  -38.774227   58.291134  0
 38.859768  -38.248253   58.486015  0
 27.577045  -38.692467   57.693874  0
 19.733896  -38.538391   57.364574  0
  7.509718  -38.496582   57.999588  0
 45.694466  -37.793331   57.276169  0
 46.279682  -38.165798   56.917553  0
 43.943108  -37.830486   57.338284  0
 42.729622  -37.986485   57.410175  0
 41.429951  -38.294861   57.890247  0
 38.419483  -38.235241   57.030472  0
 23.579590  -37.972183   56.275333  0
  8.892960  -37.868572   56.417034  0
 37.887722  -37.888977   55.357807  0
 28.303341  -38.657875   56.977829  0
 23.128246  -37.931572   55.224136  0
 19.342133  -38.198975   55.945126  0
 31.778049  -38.234344   54.955711  0
  9.178769  -38.934727   53.931572  0
 43.731396  -38.465961   53.739212  0
 36.961578  -38.902195   52.888233  0
 42.500263  -38.784180   52.322392  0
 35.899494  -38.621696   51.786743  0
 27.948868  -38.296761   52.126949  0
  8.974783  -38.030369   53.012306  0
  8.241338  -37.919670   52.686237  0
  4.352686  -37.998577   52.486324  0
  5.407505  -38.009953   52.666443  0
 40.839764  -38.591690   49.660446  0
 34.440643  -37.976910   50.961910  0
 29.384798  -38.600040   49.084805  0
 27.312428  -38.532787   49.936615  0
 28.142664  -38.261070   49.777554  0
  9.472524  -38.552193   49.030289  0
 39.895500  -38.602707   47.054443  0
 39.998493  -37.534847   47.409222  0
 28.136614  -39.315735   47.579414  0
 11.080779  -37.535290   47.921108  0
 13.128400  -38.745026   46.750408  0
 39.259216  -37.719730   46.088745  0
 12.978014  -37.799465   45.515911  0
 38.392315  -38.286427   44.700382  0
 37.485950  -37.803471   43.851044  0
 36.810204  -38.075832   42.957272  0
 36.239811  -38.779835   41.815338  0
 12.566687  -38.023087   43.208061  0
  3.826339  -38.245285   43.142651  0
  3.916504  -38.276306   42.535698  0
 10.111963  -38.216541   42.573238  0
 35.734322  -38.649937   39.061035  0
  3.764926  -38.182598   39.451210  0
  2.567662  -38.561844   38.055244  0
 34.384804  -39.059441   38.025612  0
  2.581271  -37.851215   36.931343  0
 52.653992  -37.466263   38.373913  0
 51.617313  -38.253838   38.074162  0
 51.109581  -37.787659   37.142082  0
 33.650543  -38.639847   37.912842  0
 32.517815  -38.745911   37.768097  0
 31.266384  -39.395470   36.083557  0
 50.194107  -38.099495   35.714272  0
 29.671709  -38.588604   37.715015  0
 29.696314  -39.006466   36.082626  0
  4.902485  -38.773949   36.092129  0
  6.701574  -37.864529   36.776855  0
 54.053123  -38.071091   34.762161  0
 54.617264  -37.661446   36.320049  0
 30.871975  -39.423935   34.633289  0
  8.083479  -37.658218   35.786003  0
  7.420895  -37.889065   34.868542  0
 53.426682  -37.807205   34.593906  0
 52.179523  -38.457226   33.443264  0
 51.689388  -39.070278   31.916733  0
 50.746521  -38.683899   33.190720  0
 49.870998  -39.102665   31.490402  0
 48.403591  -39.371002   31.577040  0
 52.578964  -39.500923   30.618132  0
 47.024555  -39.189114   30.641594  0
 45.698395  -38.769760   29.994926  0
 33.660072  -38.490593   31.477598  0
  2.213880  -38.840206   31.901350  0
 52.417805  -39.336174   29.659103  0
 49.521858  -38.857925   30.293493  0
 43.882420  -38.365791   29.727371  0
 53.511688  -39.217575   28.701132  0
 58.211193  -38.036770   27.440388  0
 55.530846  -38.465347   27.543856  0
 53.873295  -38.415802   27.894892  0
 47.509804  -39.334438   27.121483  0
  0.669415  -37.467487   28.639902  0
 51.037220  -38.771778   26.805864  0
 52.737484  -37.882591   25.781536  0
 49.055157  -38.549984   26.510874  0
 44.775459  -38.823288   25.855932  0
 54.817951  -38.260445   25.937698  0
 59.183556  -37.467239   26.890142  0
 57.901054  -37.328335   26.166636  0
 57.102219  -38.598183   25.958839  0
 37.752861  -39.085880   25.162901  0
  1.484372  -38.074986   24.105946  0
 37.962879  -38.715923   23.888859  0
 36.715027  -38.802494   22.564619  0
 35.493206  -38.622875   20.650936  0
 35.968834  -38.480968   21.665987  0
 17.312706  -38.950684   20.942371  0
 19.163006  -38.631016   20.787027  0
 20.319874  -38.721737   20.374424  0
 22.008503  -38.295200   19.662697  0
 15.017000  -38.991375   20.025772  0
 12.544977  -39.077980   19.108006  0
 11.533607  -38.651379   18.879677  0
  2.581829  -38.268398   18.390482  0
 35.689083  -37.073231   18.986897  0
 24.591988  -37.917511   17.415979  0
 10.177335  -38.099472   18.531637  0
 38.322735  -37.016056   16.831144  0
 39.408108  -37.517658   16.460442  0
  4.855930  -37.863304   17.916912  0
 45.339516  -38.986698   15.501844  0
 26.046038  -38.094131   15.556259  0
 58.113388  -37.760994   15.231982  0
 26.966398  -38.264347   14.930051  0
 56.195969  -38.407707   13.563966  0
 53.038757  -38.559605   14.507034  0
 51.466747  -37.675568   13.889936  0
 49.670929  -38.619732   13.798917  0
 47.884708  -38.392986   14.007831  0
 28.646557  -37.916389   13.951211  0
 28.960024  -38.132114   13.399261  0
 27.860456  -37.390621   11.471735  0
 20.890509  -38.107609   13.215938  0
 12.156844  -38.408585   14.103319  0
 13.357147  -38.059448   12.742883  0
 40.302624  -38.817020   11.236920  0
 56.528633  -37.913475   10.866108  0
 57.511192  -38.392845   10.195156  0
 49.238628  -38.762959   10.221548  0
 38.324451  -37.834946    9.849511  0
 25.672180  -38.234989   10.892823  0
 18.471024  -39.977287   10.517259  0
 18.517288  -39.156052    9.963531  0
 58.548985  -38.739262    9.482327  0
 50.545437  -37.251389    9.558228  0
 47.998566  -38.740364    9.508040  0
 47.168076  -38.891998    8.748216  0
 45.254295  -39.127857    8.939843  0
 42.340607  -37.216972    9.504016  0
 37.840973  -37.799671    8.720801  0
 30.948433  -37.940636    9.600848  0
 29.722797  -37.085773    8.938197  0
 58.871441  -38.012054    8.025143  0
 33.326778  -36.903069    8.504582  0
 22.115980  -37.598835    8.249848  0
 57.827633  -38.005707    7.614111  0
 38.118279  -38.315426    5.108300  0
 34.476807  -37.257492    7.149072  0
 38.605934  -37.824543    2.202452  0
 33.213390  -36.873692    3.845643  0
 31.677284  -38.419502    3.013463  0
 32.318790  -37.727825    3.320520  0
 31.456589  -38.589096    2.332518  0
 39.370255  -38.806049    0.715520  0
 39.468739  -39.221363   -0.272552  0
 38.702908  -39.542915   -0.657863  0
 38.769581  -38.441433   -1.160976  0
 37.100857  -38.521648   -0.610632  0
 35.564903  -38.416061   -0.237120  0
 34.330162  -38.066525   -0.201429  0
 33.333298  -38.720505   -0.006291  0
 32.522385  -38.661007    0.264412  0
 16.373919  -37.309418   77.246750  0
 17.774609  -37.953510   76.398834  0
 12.772154  -37.476185   76.833946  0
 13.039439  -36.852222   75.823929  0
 24.072002  -36.469528   75.352013  0
 21.174917  -37.622551   74.976006  0
 20.481449  -37.755962   74.643379  0
 19.776665  -38.115112   74.913376  0
 18.883554  -37.899437   75.121063  0
 32.989559  -36.699154   72.780144  0
 24.642349  -36.600739   74.898766  0
 15.123286  -37.725964   74.105545  0
 29.117924  -36.802177   73.091103  0
 14.820235  -37.723732   72.953621  0
 28.445232  -37.691132   71.833786  0
 13.315059  -37.954868   71.296387  0
 14.348918  -37.450977   71.828499  0
  7.256800  -37.792839   71.645882  0
  3.427284  -37.407475   72.380661  0
  1.838028  -38.068813   72.517609  0
  1.563465  -37.816402   71.608002  0
  0.298602  -38.570915   71.720055  0
 33.655590  -37.643810   70.397293  0
 33.921848  -36.667530   71.679649  0
 28.061182  -37.672813   70.419975  0
 23.101755  -37.439285   70.701385  0
 11.754707  -38.062366   71.039207  0
  9.965861  -38.331245   70.901299  0
  9.956553  -37.807377   71.169510  0
  8.439118  -38.334503   71.265602  0
  9.052241  -38.567539   70.564430  0
  2.511425  -37.187290   70.761169  0
 33.419441  -37.307854   69.322044  0
  9.354014  -38.348984   69.035652  0
  3.181552  -37.332737   68.720299  0
 26.954979  -37.470161   68.855461  0
  2.626993  -38.104462   67.821846  0
 31.649189  -37.479889   66.571991  0
 21.430317  -37.105335   67.529945  0
 12.932996  -37.944561   67.362144  0
  9.939960  -37.880402   66.448547  0
  4.228473  -37.122440   66.692917  0
 26.219473  -37.665741   67.331276  0
 20.798006  -36.726673   66.541763  0
 13.412429  -37.834267   66.344292  0
 11.399601  -37.608734   66.207901  0
 42.350414  -37.302071   66.866318  0
 42.596649  -37.212944   65.662178  0
 30.200787  -37.775620   64.731056  0
 20.120991  -36.559326   65.234779  0
  3.610853  -37.500290   65.549416  0
  2.623462  -38.032909   65.170563  0
 42.861065  -37.161804   64.343712  0
 38.410255  -36.310333   66.721909  0
 37.080914  -37.406822   64.576180  0
 35.987907  -37.522125   63.149235  0
 28.948132  -37.316734   62.171280  0
 24.823990  -37.389763   64.011223  0
 19.257299  -37.149952   62.851486  0
 19.336081  -36.206264   63.774849  0
  2.944862  -37.217609   64.803673  0
  0.770295  -37.423161   63.969421  0
 -0.274964  -37.072227   63.270164  0
 42.757389  -37.163509   62.885513  0
 36.109028  -38.038925   62.445583  0
 34.770573  -36.973770   61.715202  0
 -0.497210  -37.458187   62.543854  0
 37.983662  -38.382626   61.110374  0
 35.654469  -37.578304   61.223007  0
 19.319235  -37.492367   60.941189  0
 -0.462358  -37.152298   60.967030  0
 41.204224  -38.197235   60.764259  0
 40.369911  -38.676487   60.418530  0
 42.115368  -37.066128   60.691730  0
 39.410751  -38.822754   60.922279  0
 37.209553  -37.686604   60.228863  0
 35.794743  -36.877487   59.217728  0
 28.381138  -37.160435   60.461159  0
 19.255173  -37.843685   59.555523  0
 41.277020  -37.929848   59.160980  0
 39.104622  -38.475304   59.771500  0
 37.690201  -37.514553   59.086330  0
 23.928558  -38.105450   59.718269  0
 27.878302  -37.741669   58.213421  0
 19.415588  -37.991066   57.948486  0
 18.874454  -37.615654   57.054108  0
  5.704975  -37.270210   58.976543  0
  7.024615  -35.809258   58.199539  0
  8.182630  -35.914177   57.347111  0
 43.232727  -36.499317   57.704006  0
 28.639622  -37.897751   57.100868  0
 45.866169  -37.869499   55.699966  0
 30.835781  -37.837860   56.160652  0
 18.659258  -37.049576   56.196144  0
  9.907339  -36.369781   55.077461  0
 31.973471  -37.284821   55.539265  0
 19.649963  -37.360298   55.204277  0
  9.908931  -36.935986   54.289787  0
 37.071404  -37.849281   53.285206  0
 31.449289  -37.604046   54.151863  0
 29.856655  -37.378296   53.000767  0
 21.818644  -37.299049   54.833946  0
 20.742830  -37.459015   54.739357  0
  9.766060  -36.697147   53.406952  0
 43.171345  -37.785301   52.518723  0
 42.209282  -37.752296   51.076645  0
 35.938244  -37.550995   52.030727  0
 28.208080  -37.897614   51.257072  0
  8.418132  -35.231953   52.567856  0
  6.410553  -36.863213   52.750916  0
  3.416090  -37.422768   52.101048  0
  3.576097  -36.987827   51.527985  0
 40.802082  -37.276554   48.691513  0
 32.699093  -37.091568   50.999607  0
 29.972548  -37.838272   50.069370  0
  4.829418  -36.172829   50.899712  0
  8.921618  -37.166367   48.826569  0
  7.788864  -37.071102   49.418167  0
 38.425808  -37.250481   45.058533  0
 37.342300  -37.354477   42.273960  0
 12.774499  -36.651718   44.112480  0
  6.184455  -35.923054   43.307613  0
  4.135689  -36.714977   43.625664  0
  3.358559  -37.217388   43.300640  0
  3.388674  -37.400139   42.730534  0
 36.759663  -38.394955   40.815971  0
  9.486228  -36.317799   42.594307  0
  3.942250  -37.311478   41.828892  0
 36.849934  -38.318138   39.664387  0
  4.243900  -37.496784   40.359779  0
 38.111378  -37.864967   39.901367  0
 36.747704  -37.730396   39.136776  0
 37.776665  -37.586895   39.184464  0
 35.356693  -37.960442   38.817627  0
 33.941196  -37.739349   38.966667  0
 31.491209  -38.258873   38.818558  0
 29.691507  -37.905571   39.068382  0
 30.649607  -37.187267   39.915646  0
 32.517170  -37.263870   39.755886  0
 28.274939  -37.305943   38.834930  0
 28.010471  -38.188541   37.062420  0
  3.547017  -36.623657   38.585621  0
 52.617413  -36.922482   38.101612  0
 52.138435  -36.972786   37.285000  0
 51.642536  -37.280472   36.238327  0
 28.346386  -38.414776   35.195797  0
 26.988365  -37.558342   36.280052  0
 27.246218  -37.543468   34.660297  0
  7.841516  -37.270885   36.696907  0
  4.292451  -36.689018   36.800064  0
  3.159211  -37.057232   36.742104  0
 54.230919  -36.940712   36.299793  0
 52.984985  -37.197357   35.607426  0
 51.113026  -37.910160   34.767822  0
 29.193592  -38.284782   33.141590  0
 28.463579  -37.267628   32.317223  0
  5.694982  -35.313515   34.935940  0
  3.198312  -37.361595   32.870293  0
 31.668453  -38.338028   31.721727  0
 30.048096  -38.062775   32.017658  0
  1.247707  -36.902454   32.294239  0
  0.594785  -37.351460   31.627172  0
 40.295372  -37.603069   30.960657  0
 39.413570  -36.684875   30.920277  0
 36.850685  -36.696465   30.683304  0
 35.118191  -36.379871   30.280661  0
 33.715542  -36.918682   30.463686  0
 29.871836  -36.713596   30.969719  0
  0.263072  -37.255714   30.703356  0
 51.483707  -38.525753   29.005041  0
 49.875214  -38.164066   29.147457  0
 47.985031  -38.338085   29.599541  0
 43.415794  -37.309727   29.122929  0
 42.183762  -36.946709   29.579792  0
 48.554863  -37.553253   28.766867  0
 45.718136  -37.167210   28.721500  0
 55.703724  -37.096886   27.459711  0
 53.103958  -36.881168   27.688599  0
 51.462856  -37.753254   28.383665  0
 51.722092  -37.094639   25.104927  0
 49.896660  -37.408398   25.196661  0
 47.127365  -37.817776   24.741631  0
 41.066845  -38.374989   24.560177  0
 43.584000  -38.180664   24.667665  0
  1.176422  -36.038349   26.758392  0
  1.510919  -36.246922   24.573790  0
 55.770554  -36.756199   25.703276  0
 53.671833  -36.728394   25.201620  0
 41.607986  -37.925236   23.949459  0
 44.549873  -37.339565   23.879200  0
 47.118874  -37.203026   23.833839  0
 39.099075  -38.142235   23.518280  0
 41.270767  -37.464718   23.671827  0
 38.427841  -37.473843   23.195938  0
 37.855633  -38.134930   22.983919  0
 36.762917  -37.789162   22.418901  0
 17.378916  -37.587757   21.526199  0
 18.521101  -37.790394   20.987890  0
 16.207983  -37.660183   21.820559  0
 15.597942  -37.432755   21.904583  0
  1.610528  -37.040714   21.511097  0
 36.009113  -37.015049   22.093630  0
 35.494381  -36.388260   21.524502  0
 20.190931  -37.915592   20.365385  0
 15.210453  -37.846134   20.922560  0
 14.983656  -37.612667   20.476557  0
 35.324013  -37.037525   20.163155  0
 14.430519  -38.048286   19.885504  0
 14.255182  -37.629868   19.489775  0
  1.937594  -37.064709   19.440928  0
 23.463287  -37.603760   18.378834  0
 13.307417  -38.040184   19.013485  0
 12.575718  -37.778442   18.587240  0
  8.591170  -37.494286   18.420269  0
  7.280592  -37.043194   18.308678  0
  2.566508  -37.432434   18.349747  0
 36.854488  -35.997746   17.922848  0
  5.893303  -36.757065   18.050303  0
  4.966782  -36.637497   18.055595  0
 55.412594  -36.535686   16.238756  0
 43.003792  -37.127911   15.048041  0
 40.575954  -36.808224   15.763048  0
 25.710775  -36.573776   15.588783  0
 56.378410  -37.228031   14.138350  0
 52.811451  -36.808666   14.858231  0
 53.830086  -36.113220   15.429842  0
 13.969305  -38.090240   14.761658  0
 12.798371  -38.011295   14.671498  0
 45.783257  -37.034931   14.002713  0
 28.564566  -36.733498   13.887918  0
 14.780028  -37.379395   14.270894  0
 13.350576  -37.492966   13.635490  0
 55.669643  -37.125816   13.064437  0
 55.617611  -37.267506   11.834956  0
 49.527985  -37.164093   13.604338  0
 48.030861  -37.454823   13.628945  0
 29.158482  -37.656208   12.834883  0
 29.514820  -36.576302   13.008883  0
 18.232473  -36.878670   13.279502  0
 13.893766  -36.751423   12.284725  0
 21.492775  -36.540146   12.085470  0
 19.992641  -36.380020   12.560192  0
 14.091455  -37.280029   11.836198  0
 41.346279  -37.387417   10.090123  0
 39.294319  -37.374516   10.066275  0
 26.445223  -37.181107   10.642033  0
 24.065332  -37.413158   10.792773  0
 23.184542  -36.529366   10.843946  0
 17.904217  -37.856049    9.679824  0
 15.517319  -37.044369   10.833021  0
 52.367195  -38.027199    9.559325  0
 51.443504  -37.267605    9.516127  0
 43.249149  -37.449135    8.893348  0
 40.304447  -36.795517    9.791859  0
 25.258080  -37.018452   10.436728  0
 59.014767  -37.077213    8.641659  0
 58.535904  -37.111855    9.242995  0
 46.329491  -39.016693    7.699796  0
 47.154907  -38.561058    7.690181  0
 47.734745  -37.771065    8.227529  0
 44.310539  -38.237690    8.178988  0
 32.218296  -36.981125    9.014963  0
 53.742710  -36.589310    8.518284  0
 56.068626  -35.636261    7.751194  0
 52.527706  -36.962856    9.040402  0
 47.294651  -38.802307    5.574655  0
 47.891273  -37.379482    7.160008  0
 45.307281  -38.766895    7.162910  0
 44.706985  -38.339134    7.211426  0
 34.029182  -36.608227    7.920427  0
 27.959894  -36.478100    7.905159  0
 23.068287  -37.429749    7.506866  0
 19.205450  -38.434338    9.408675  0
 20.506138  -36.732983    8.758655  0
 18.311493  -36.599361    9.090384  0
 57.978855  -36.349380    7.623750  0
 46.393814  -39.092102    5.926121  0
 37.873062  -37.114136    6.406741  0
 24.954147  -36.919868    6.846815  0
 23.908085  -36.574947    6.755091  0
 48.231510  -37.804977    5.051727  0
 46.072685  -38.912651    4.815457  0
 44.718952  -37.982819    6.230228  0
 38.185822  -37.253090    3.908816  0
 34.472809  -36.125473    5.412701  0
 47.412922  -38.804764    3.714922  0
 48.058422  -38.466099    4.194603  0
 45.755016  -38.272953    4.147671  0
 34.118690  -36.843239    4.829720  0
 48.905533  -38.632881    2.550323  0
 48.988380  -37.882668    3.671867  0
 46.923912  -38.660336    3.232134  0
 49.832748  -38.181995    2.610325  0
 50.018120  -37.210323    3.298516  0
 48.199368  -38.642220    2.080493  0
 47.360058  -37.694641    1.751676  0
 51.070580  -38.350975    1.356789  0
 50.233253  -38.727871    0.353208  0
 51.171471  -38.473316    0.342447  0
 51.573090  -37.305828    2.145011  0
 48.995148  -38.355698    0.527524  0
 31.855883  -37.490879    2.353527  0
 32.362389  -37.576180    1.052768  0
 51.360306  -37.589943    0.079904  0
 51.669044  -37.890537    0.986052  0
 39.424706  -38.031891    0.124671  0
 50.982765  -38.187443   -0.927894  0
 39.296894  -37.759117   -0.868384  0
 33.245373  -37.617397    0.141311  0
 36.803951  -37.315407   -0.953975  0
 17.105389  -36.659828   76.533440  0
 18.105585  -37.369255   75.648094  0
 22.807043  -35.840523   75.502586  0
 21.625248  -36.153603   75.066864  0
 20.862961  -36.780819   74.316490  0
 18.194780  -36.899166   73.941200  0
 17.547852  -36.279358   75.324272  0
 17.312857  -35.848473   74.179924  0
 14.064712  -36.510078   74.822235  0
 31.515141  -35.848038   73.353081  0
 24.965059  -36.798870   74.048912  0
 20.076111  -37.195034   73.759239  0
 19.216635  -37.391380   73.914360  0
 17.531586  -35.918606   73.164070  0
 33.692039  -36.088882   72.809334  0
 28.858679  -36.298676   72.501839  0
 24.887947  -36.312931   73.493073  0
 14.504986  -36.478714   73.719139  0
 28.127899  -36.639339   70.893852  0
  5.479558  -36.999939   71.670113  0
  3.222984  -36.972332   71.830246  0
 14.061368  -36.904613   71.027779  0
 11.927569  -36.684490   70.075554  0
 10.748722  -37.052391   70.634323  0
  8.208975  -37.007488   71.323410  0
  5.856252  -36.398983   71.003098  0
 26.855270  -36.654232   68.986893  0
 13.112570  -36.328621   70.130455  0
  3.937322  -36.488369   69.333794  0
  4.076516  -36.419907   70.612877  0
 32.963490  -36.805618   68.029129  0
 25.585382  -36.644493   66.457146  0
  4.285549  -36.841511   67.763519  0
 33.020836  -35.935097   67.060471  0
 30.593283  -36.750626   64.466240  0
 31.828516  -36.236019   65.664459  0
  4.635078  -36.395473   65.275085  0
 24.976257  -36.112400   64.707565  0
 43.256187  -36.595051   63.166969  0
 43.254826  -36.352219   63.778267  0
 36.835247  -36.201855   64.054886  0
 24.579292  -36.459568   63.709614  0
  2.656425  -36.153545   64.460854  0
  0.491817  -36.483940   63.829422  0
 35.844212  -36.657425   62.924263  0
 24.192352  -37.133873   62.541714  0
 18.664680  -36.356251   62.104561  0
 42.566319  -36.411209   61.338566  0
 23.694031  -36.949688   60.945091  0
 34.421288  -36.942863   60.328434  0
 18.449356  -36.892933   60.103756  0
 42.213718  -36.372955   59.815079  0
 33.757008  -36.338066   60.312550  0
 34.049541  -36.546577   59.648979  0
 23.396774  -36.749268   60.139389  0
 18.015507  -36.833221   58.482460  0
 36.827892  -36.819996   58.069115  0
 28.721382  -36.555069   59.305077  0
 29.381308  -36.433468   58.560772  0
 23.530764  -37.234982   58.523914  0
  0.647110  -35.285267   59.614029  0
 42.387928  -36.397564   58.599155  0
 37.453007  -37.060242   57.361267  0
 18.080442  -36.886879   57.083408  0
 46.497746  -36.419407   57.115700  0
 44.965485  -36.386948   57.316990  0
 47.004524  -36.905731   56.730415  0
 37.253983  -36.801052   55.761543  0
 23.139839  -36.613262   57.393692  0
 22.718355  -36.536480   56.521851  0
  9.338812  -35.144978   56.216175  0
  9.579011  -36.197067   55.877327  0
 46.599892  -37.020878   55.715710  0
 30.825153  -36.930489   56.641571  0
 22.428480  -36.977657   55.303505  0
 44.769123  -37.150913   53.718525  0
 36.601559  -36.852264   53.479496  0
 32.263702  -37.346767   54.853657  0
 32.877125  -36.429413   54.619530  0
 32.076954  -36.733070   53.759663  0
  9.559146  -35.261345   52.857769  0
 43.897602  -36.766193   51.747883  0
 30.337358  -36.860630   51.978813  0
  7.185086  -35.357925   52.647152  0
  4.236094  -36.261436   53.289520  0
  3.129451  -36.288483   53.132607  0
  2.895737  -36.402370   52.489803  0
 35.113831  -36.981449   51.852386  0
 32.480835  -36.354752   52.081894  0
 30.317186  -37.199574   50.973866  0
 42.386257  -36.916569   50.107395  0
  6.761959  -35.889244   50.022793  0
 41.384750  -36.300934   48.256348  0
 10.432730  -35.936089   48.006615  0
 11.219724  -36.320023   47.410202  0
 40.303360  -36.400860   47.263733  0
 39.157055  -36.567528   45.823986  0
 12.175091  -36.478516   46.386967  0
 12.465313  -35.755413   45.289555  0
 38.396690  -36.090431   44.430668  0
 37.489403  -36.997795   43.232380  0
 12.185218  -35.783901   43.377224  0
 11.308967  -36.199017   42.754047  0
  3.016133  -36.024990   43.607819  0
  2.785023  -36.660690   43.026562  0
 37.936756  -37.406441   41.207687  0
  8.109425  -35.914684   42.822392  0
  2.904227  -36.061672   42.471886  0
 39.544765  -36.869427   40.295021  0
  4.067544  -36.460846   40.895786  0
 39.258575  -37.252872   39.189495  0
 39.757507  -36.623505   39.448494  0
 32.209667  -36.515251   40.265114  0
 29.725607  -36.645172   40.041000  0
 38.751167  -36.695877   39.030529  0
 36.742760  -36.518749   39.501415  0
 35.344036  -37.095009   39.407234  0
 26.647306  -36.709160   37.890118  0
  3.458163  -36.279903   37.462353  0
 53.683861  -36.471104   37.650692  0
 53.633694  -37.344063   38.257355  0
 25.768847  -35.959106   36.898773  0
  7.172181  -36.555405   37.317123  0
  6.052406  -36.479820   37.260311  0
  4.373184  -35.740574   37.353050  0
 54.454781  -37.237064   37.529861  0
 26.238745  -36.651844   35.664120  0
  7.773787  -35.643372   36.682369  0
  7.418666  -35.940186   35.926502  0
 26.730103  -36.415768   33.585049  0
  3.091788  -34.732670   33.773117  0
  2.450776  -35.730507   33.163883  0
 40.646938  -36.376945   30.529181  0
 28.161644  -35.758770   31.646475  0
 31.373877  -36.043457   29.990562  0
  0.150310  -35.771496   30.410234  0
 44.035969  -36.225693   28.555620  0
 58.828732  -36.724327   27.351252  0
 57.742805  -36.197578   27.679691  0
 55.765987  -35.760593   27.695730  0
 50.330746  -36.384315   27.903353  0
 46.532867  -35.910118   27.978790  0
  0.573012  -34.873989   28.857399  0
 50.854904  -36.471352   24.167458  0
 48.966145  -37.021446   23.973900  0
 47.287457  -36.518326   23.656628  0
 50.229084  -35.824905   23.758089  0
 43.958923  -36.431110   23.884935  0
 39.865204  -36.865570   23.727106  0
 37.666496  -36.135460   23.828352  0
 36.762745  -36.878094   22.818560  0
 16.390364  -37.099411   21.247017  0
 18.124603  -37.054691   20.406248  0
 15.371347  -37.203548   20.686567  0
 19.916727  -37.033962   19.658604  0
 22.231707  -37.117893   18.792009  0
 22.162338  -36.074844   17.735088  0
 15.253572  -36.899464   19.012545  0
 13.504768  -37.055542   18.221214  0
 11.889867  -37.007999   17.858156  0
  2.719122  -36.574192   18.352802  0
 24.719360  -36.364643   16.670525  0
 51.215431  -35.455818   14.579317  0
 27.044670  -35.895531   14.490964  0
 16.014288  -37.259357   13.910112  0
 14.007041  -36.372166   13.484106  0
 15.170913  -36.032387   13.381321  0
 49.907604  -36.185482   13.869710  0
 46.946926  -36.239883   13.652678  0
 29.397465  -36.438976   12.155023  0
 55.541004  -36.412571   10.824112  0
 27.316427  -35.991409   10.285432  0
 14.960758  -35.854496   10.840796  0
 56.807312  -35.930984    9.769043  0
 38.755547  -36.116676    8.513434  0
 40.012203  -35.688225    8.796666  0
 26.644747  -35.453682    9.840593  0
 49.701588  -36.277020    8.835573  0
 48.419983  -36.528446    8.068956  0
 30.855600  -35.779331    8.695313  0
 58.882301  -36.395985    8.085983  0
 54.162926  -34.830280    8.299646  0
 43.655880  -36.257332    6.998150  0
 38.007523  -36.807007    7.765394  0
 34.234341  -35.622227    7.206624  0
 22.164791  -35.823299    7.721848  0
 21.422024  -35.986126    8.325006  0
 19.056824  -34.064083    8.615113  0
 34.532635  -36.185753    6.414990  0
 26.482023  -35.730957    7.266413  0
 22.979443  -35.912857    6.940324  0
 48.352425  -36.746822    5.723938  0
 44.702465  -37.055283    5.138188  0
 38.180923  -35.836136    3.994540  0
 49.048199  -36.899761    4.319651  0
 45.612873  -37.064732    3.726661  0
 51.411137  -36.230762    3.098803  0
 38.297981  -35.883526    2.325261  0
 32.259941  -36.536655    2.858162  0
 32.176773  -36.459671    1.736378  0
 48.953526  -37.489536   -0.686531  0
 38.740345  -36.633904    0.703224  0
 51.907413  -36.928272    1.658229  0
 33.453243  -36.751625   -0.086512  0
 37.855354  -36.359642   -0.997875  0
 36.781265  -36.157497   -1.165272  0
 33.812996  -36.109303   -0.690690  0
 21.016447  -35.496853   74.271591  0
 34.161358  -34.655853   73.890099  0
 33.324818  -34.648983   73.912285  0
 32.479492  -35.125786   73.518593  0
 25.079830  -35.063114   74.490273  0
 20.473343  -35.847927   72.887245  0
 34.493511  -35.350365   72.601791  0
 29.996782  -35.668415   73.135757  0
 25.091984  -34.842445   73.507584  0
 20.786997  -34.963646   73.063713  0
 18.893570  -35.865295   72.031754  0
 17.807001  -35.692974   72.137367  0
 28.541931  -35.856125   71.117668  0
 23.972448  -35.580696   71.853195  0
 19.574314  -35.204300   71.651375  0
 34.420113  -35.684963   70.157333  0
 23.298470  -35.719093   70.628700  0
  8.947396  -36.537529   70.640755  0
  6.038293  -35.755409   69.439857  0
 27.643536  -35.909439   69.869843  0
 22.265211  -35.618137   69.097679  0
 13.875694  -35.327885   70.248169  0
 12.914214  -35.234039   69.024826  0
 10.305306  -36.319099   69.712540  0
  4.990482  -35.933033   69.119659  0
 33.742249  -35.649391   68.508553  0
 26.768650  -35.931694   68.293694  0
 21.489096  -35.948433   67.890518  0
  5.421323  -35.988716   67.347328  0
  6.315705  -35.469978   67.852051  0
 20.848543  -35.437218   66.608841  0
 26.394396  -35.471668   66.723831  0
  5.460216  -35.917294   65.803162  0
 33.003468  -34.923443   65.992165  0
 25.500196  -35.948990   65.949692  0
 31.887701  -35.281872   64.405357  0
 25.654781  -35.353413   64.983788  0
 20.168179  -35.308018   65.045517  0
 25.230764  -35.131470   63.608242  0
  4.770610  -35.551903   64.824188  0
  1.620165  -35.463291   64.391457  0
  0.018203  -35.573971   63.923512  0
 43.079533  -36.010601   62.746593  0
 36.345676  -35.167328   62.761765  0
 29.701685  -35.832985   62.013973  0
 30.887268  -34.933613   62.703213  0
 24.767673  -36.121735   62.917423  0
 24.711996  -35.724739   62.089825  0
 -0.674956  -35.558159   63.226170  0
 -0.966160  -35.291443   61.612530  0
 42.067020  -35.780365   60.629379  0
 34.809135  -35.933746   61.561295  0
 33.800072  -35.637440   60.655464  0
 18.002832  -35.975761   60.725910  0
 -0.952639  -34.346291   60.806797  0
 42.079815  -35.549797   59.197704  0
 32.830208  -35.916790   59.271774  0
 32.653290  -35.346073   60.059464  0
 29.193623  -35.847305   60.238567  0
 23.292068  -35.959427   59.110394  0
 17.681540  -35.856457   59.033958  0
 -0.251103  -34.133125   60.001038  0
 42.914513  -35.589500   58.300697  0
 33.726719  -35.963768   58.233170  0
 32.306515  -35.919144   57.902962  0
 31.692335  -35.515682   59.316200  0
 31.090702  -36.135109   58.011181  0
 29.452007  -35.868473   59.348591  0
 30.477873  -35.447498   59.398643  0
  5.455238  -34.732201   59.056004  0
 44.052849  -34.956753   57.781788  0
 35.230225  -35.782734   57.061016  0
 17.565605  -36.159077   57.758251  0
 46.848503  -34.704636   57.395588  0
 48.260468  -35.968109   57.007088  0
 49.259445  -35.206505   57.298084  0
 49.319050  -35.747395   56.859291  0
 36.140289  -35.975716   56.497398  0
 34.080746  -35.630970   55.997509  0
 33.062149  -35.959446   55.791218  0
 32.229160  -36.276875   56.481815  0
 17.655237  -35.536350   57.119488  0
 48.139614  -35.817364   55.640633  0
 35.984764  -36.017872   54.474747  0
 21.435242  -36.186699   55.675953  0
 18.362089  -35.358593   56.593819  0
 49.873177  -35.322132   56.593864  0
 46.351982  -35.838299   53.314980  0
 34.515884  -35.819019   53.679073  0
 35.178543  -35.648357   55.402695  0
 33.505093  -35.922882   54.081211  0
 20.163000  -36.324799   55.313129  0
 10.431819  -33.906643   54.187771  0
 35.059177  -36.182987   52.851784  0
 10.189849  -35.244305   53.461327  0
 45.610275  -35.761543   51.743557  0
 32.085873  -36.359428   52.784946  0
  1.948030  -35.599632   52.924603  0
 43.994095  -36.039837   50.152344  0
  5.076769  -34.440891   53.248207  0
  3.158468  -35.666409   51.872131  0
 43.081738  -35.716602   48.638943  0
 41.794441  -35.306126   47.306488  0
  9.285921  -34.995907   48.748894  0
 40.228477  -35.420509   46.188976  0
 11.943005  -35.044483   46.363991  0
 12.109898  -34.418056   44.492188  0
 38.631474  -35.339478   43.516754  0
  2.605558  -35.069592   43.039230  0
 39.209347  -35.337288   42.378117  0
  3.025893  -35.084347   41.665878  0
  3.510793  -35.219650   40.557674  0
 40.476406  -36.173584   40.160957  0
 40.067043  -36.072330   40.946350  0
 34.895935  -35.431938   40.343765  0
 37.473217  -35.614716   39.649044  0
 34.333950  -36.270317   40.164162  0
 32.042759  -35.473907   40.514618  0
 28.972092  -34.771103   40.307743  0
 27.898304  -35.419289   39.928822  0
 40.428524  -35.734440   39.622856  0
 39.385704  -35.876518   39.424683  0
 26.212620  -34.794037   39.414528  0
 25.275686  -34.924507   38.208408  0
  3.713961  -35.585125   39.450993  0
  3.682992  -34.597992   38.439735  0
  6.139886  -35.249443   37.681530  0
  7.463133  -35.328449   37.538490  0
 25.693193  -35.356400   34.426598  0
 26.691811  -35.628162   32.944702  0
 27.026026  -34.607159   32.423298  0
  0.793139  -35.279442   32.550522  0
  0.111315  -34.726017   31.718910  0
 40.265934  -35.143166   30.569544  0
 29.793200  -35.297600   30.252405  0
 41.337254  -34.939976   30.446341  0
 41.963936  -35.502090   29.886656  0
 43.396610  -35.086876   28.966021  0
 36.774460  -34.459492   29.717379  0
 34.562027  -35.005756   29.318508  0
 32.732796  -35.451710   29.355598  0
 58.578979  -35.571766   27.584570  0
 56.605183  -34.714966   28.339926  0
 53.365662  -35.143658   27.717762  0
 50.716930  -34.958271   27.558174  0
 44.967171  -35.304634   28.179678  0
 46.103909  -35.044769   27.803572  0
 57.798752  -34.999638   26.761831  0
 47.932213  -34.951874   27.591991  0
  1.592247  -35.190102   25.104446  0
 55.831650  -34.840206   25.678013  0
 54.665451  -35.499172   25.187378  0
 52.557163  -35.818783   24.198629  0
 51.503578  -35.598488   23.814533  0
 42.783840  -35.031048   25.032270  0
 44.053364  -35.313103   24.593283  0
 40.055416  -36.172150   24.287020  0
 39.401005  -35.152626   24.941378  0
 38.029133  -34.755936   24.848091  0
 49.275833  -35.275051   23.875385  0
 47.235939  -35.593987   23.880430  0
 36.030167  -35.846859   23.001301  0
  1.869286  -35.408745   21.723120  0
 35.580166  -34.757896   21.423622  0
 35.932728  -35.428020   19.339237  0
 18.820246  -36.624527   19.062708  0
 17.195366  -36.474926   18.283995  0
 21.103849  -35.539749   17.109970  0
 19.376528  -36.100475   17.796085  0
  2.516114  -35.388054   19.539801  0
 14.827341  -36.422119   17.333654  0
 10.722259  -36.170074   17.203503  0
  9.568824  -36.146332   17.541687  0
  6.708177  -36.476780   18.237333  0
 38.193718  -35.470177   16.926992  0
 24.035778  -35.344303   16.326399  0
 17.219322  -35.784637   16.434038  0
 13.060458  -35.889252   16.294329  0
  3.379444  -35.838371   18.467209  0
 40.191631  -35.221031   15.873953  0
 25.540524  -35.021606   15.210199  0
 52.486866  -35.280113   15.009779  0
 41.835438  -35.553902   15.105366  0
 17.348494  -34.673660   15.111335  0
 19.551846  -35.077015   15.994819  0
 14.355549  -34.851265   15.131433  0
 44.941425  -35.632339   14.104079  0
 29.016649  -35.209499   13.201249  0
 47.676567  -35.213001   13.973869  0
 14.553834  -35.503460   12.814476  0
 54.549652  -35.967072   12.276020  0
 54.432079  -35.848434   11.476934  0
 29.757208  -35.100853   11.729308  0
 30.006506  -35.126225   12.460442  0
 20.314043  -34.833687   11.725033  0
 16.722570  -34.638859   12.178170  0
 54.259544  -35.283024   10.987192  0
 28.482719  -35.428596   11.078056  0
 21.695171  -34.532780   10.888711  0
 22.744200  -33.891464    9.985314  0
 14.567522  -35.229767   11.551964  0
 55.039066  -34.445690   10.142265  0
 24.400972  -35.016171    9.748401  0
 58.405930  -35.454071    8.609010  0
 58.668514  -35.027164    7.838377  0
 51.906132  -35.466446    8.765821  0
 41.782330  -34.835983    7.859183  0
 49.441345  -35.033375    8.139659  0
 42.652836  -35.697254    8.015028  0
 43.108665  -34.538391    6.789335  0
 38.246880  -35.643196    6.972425  0
 38.684711  -34.726913    6.796891  0
 32.040955  -35.230198    8.519893  0
 33.011059  -34.462761    8.092059  0
 33.657558  -34.584145    7.687049  0
 29.534294  -35.722458    8.385427  0
 57.796314  -34.355751    7.495382  0
 48.432373  -35.646847    6.824013  0
 43.696247  -35.068703    6.335509  0
 34.510506  -34.906727    5.822272  0
 44.423546  -35.076019    5.267748  0
 24.690577  -34.825790    6.809567  0
 23.289902  -34.700165    6.752625  0
 49.057884  -35.007832    5.838620  0
 49.821198  -35.172146    4.810876  0
 45.492538  -35.783627    3.707524  0
 33.760437  -34.950008    4.346868  0
 51.195587  -35.157757    3.811396  0
 51.890713  -35.575157    2.643409  0
 46.221909  -35.720020    2.401153  0
 32.277851  -35.272293    3.055164  0
 31.919374  -35.682449    2.404444  0
 47.023182  -35.658905    0.765256  0
 38.016006  -34.798012    1.485264  0
 31.942137  -35.752396    1.661076  0
 38.325722  -36.005909   -0.133358  0
 32.218994  -35.639610    0.785198  0
 37.360031  -34.877113   -0.740325  0
 35.481205  -35.027969   -1.339006  0
 36.655033  -34.705627   -1.237496  0
 49.298729  -36.879196   -1.495006  0
 48.380833  -36.659256   -0.968056  0
 48.344994  -35.785492   -2.016617  0
 49.852478  -35.953327   -2.035676  0
 11.599670  -35.094189   77.186195  0
 11.312450  -34.674091   76.606529  0
 12.239992  -35.967113   76.280281  0
 11.852218  -34.606579   75.639862  0
 24.803911  -34.344864   75.245071  0
 23.778357  -33.868488   75.597000  0
 21.851784  -33.160385   75.315079  0
 21.065565  -33.792000   74.628906  0
 32.977272  -33.523663   74.235237  0
 32.055290  -33.983227   73.668076  0
 34.922703  -34.222195   73.455811  0
 35.078732  -34.324406   72.043304  0
 30.981956  -34.518017   73.094086  0
 29.736444  -35.010704   72.181061  0
 20.104509  -34.692005   71.941788  0
 35.042778  -34.223602   70.083282  0
 29.201063  -35.033268   70.412979  0
 23.817730  -34.701492   70.649117  0
 19.926943  -33.818302   71.296120  0
 18.985535  -34.712395   70.655266  0
 18.067184  -35.004837   70.453094  0
  7.638466  -35.688881   69.259789  0
 27.667824  -35.175743   68.140198  0
 13.155789  -34.715324   69.110550  0
 13.334849  -34.027287   70.016960  0
 11.682137  -35.217270   68.221153  0
 10.264963  -35.174583   67.669571  0
  7.390354  -35.196426   67.752769  0
 34.153564  -34.387306   67.553024  0
 11.943545  -34.094753   67.741348  0
  8.900582  -35.253807   67.797684  0
 22.143684  -34.397976   67.285721  0
 10.936114  -34.286064   67.102455  0
  8.589958  -34.751606   66.821594  0
  6.978025  -34.984406   66.504265  0
 21.078625  -34.347401   65.762741  0
  6.605478  -34.782497   65.503975  0
 33.113335  -34.173664   64.451256  0
 26.863972  -34.495121   64.465439  0
  7.094893  -33.891983   65.082672  0
 42.829224  -35.848503   63.739662  0
  5.438861  -34.027657   64.594170  0
  4.180869  -34.436440   64.477745  0
  3.000785  -34.342339   64.601166  0
  1.718302  -34.167351   64.911171  0
  0.416008  -34.537514   64.661087  0
 -0.551409  -34.425320   64.254028  0
 -0.982659  -34.114594   63.248520  0
 42.120613  -35.567753   62.386013  0
 41.796715  -35.526901   64.397095  0
 40.822739  -35.266735   62.168583  0
 40.239376  -34.972530   63.761082  0
 25.596584  -34.557037   62.338223  0
 19.575474  -34.442947   62.879181  0
 39.814999  -34.716877   62.330521  0
 30.418341  -34.884476   61.205708  0
 24.644146  -35.280746   60.995220  0
 25.751667  -34.472698   61.238617  0
 19.068691  -34.817791   61.346970  0
 40.185364  -34.952568   61.394424  0
 34.410519  -34.592636   61.054398  0
 30.167263  -35.121674   60.139633  0
 24.321074  -35.313114   60.145336  0
 18.783836  -35.093662   60.369984  0
 17.598454  -35.727451   59.972656  0
 19.647600  -34.224392   60.118904  0
 40.863811  -35.167683   60.057308  0
 33.402916  -34.101833   61.020084  0
 31.966927  -34.302654   60.918789  0
 23.784002  -35.168751   59.116974  0
 19.285345  -34.978855   58.964577  0
 42.509865  -35.031944   58.349827  0
 23.112257  -35.163895   58.171841  0
 19.332632  -35.129307   57.897884  0
 20.452057  -34.969296   57.710320  0
 20.390905  -33.980923   58.758686  0
 17.885439  -35.184963   57.681381  0
  3.988892  -33.122818   59.341148  0
  2.523870  -34.361195   59.456566  0
 22.355091  -34.686249   57.335892  0
 19.529253  -35.293129   56.287899  0
  6.594786  -33.613457   58.353905  0
 50.197304  -34.355511   57.130627  0
 50.750305  -33.983883   56.132881  0
 48.976814  -34.326851   57.448906  0
 21.645584  -35.284801   57.189369  0
 21.207754  -34.395660   57.745674  0
 10.171333  -34.253471   55.142200  0
 50.090778  -34.454372   55.115303  0
  1.885212  -34.128036   53.434006  0
  0.862101  -34.083508   53.140713  0
  0.955128  -34.179783   52.785149  0
  8.286588  -32.727039   52.482079  0
  2.381403  -34.296276   52.129395  0
  4.524682  -34.093632   51.168892  0
 47.158970  -35.007313   51.844902  0
 46.724129  -34.865711   49.707195  0
 45.066315  -35.275597   48.720737  0
 10.477737  -33.494923   47.918980  0
 11.967368  -33.705425   45.787621  0
 39.849121  -34.358215   44.172997  0
 11.281908  -34.036980   43.530823  0
  7.276390  -34.015163   43.282391  0
  4.306753  -33.763054   43.957577  0
  3.286360  -33.949646   43.971542  0
  2.819057  -34.425041   43.698112  0
 41.236862  -35.253696   41.111286  0
 10.117123  -34.074615   43.054604  0
  8.818287  -33.652512   43.145641  0
 41.737209  -35.254242   40.068977  0
