#!ascii file
13082  13361  13081  0
13082  12782  13365  0
13364  13623  12785  0
12785  13624  13084  0
13084  13624  13366  0
13365  13083  13625  0
13625  13083  13367  0
13094  13626  13627  0
13094  13369  13626  0
13369  13371  13628  0
13369  13628  13626  0
13371  13372  13628  0
13372  13374  13629  0
13372  13629  13628  0
13368  13366  13630  0
13367  13091  13631  0
13104  13094  13632  0
13104  13632  13373  0
13379  13373  13632  0
13374  13109  13633  0
13374  13633  13629  0
13368  13634  13375  0
13635  13368  13630  0
13368  13635  13634  0
13109  13381  13636  0
13109  13636  13637  0
13375  13634  13382  0
13634  13638  13382  0
13383  13639  13377  0
13091  13377  13640  0
13091  13640  13641  0
13091  13641  13631  0
13380  13642  13385  0
13381  13114  13643  0
13381  13643  13636  0
13382  13638  13644  0
13382  13644  13386  0
13383  13112  13639  0
13639  13645  13377  0
13640  13377  13645  0
13646  13385  13642  0
13114  13386  13643  0
13644  13643  13386  0
13112  13647  13639  0
13112  13387  13647  0
13648  13387  13388  0
13115  13385  13117  0
13649  13117  13385  0
13389  13388  13116  0
13650  13648  13388  0
13117  13649  13651  0
13388  13389  13650  0
13652  13389  13390  0
13117  13651  12816  0
13390  13391  13652  0
12816  13653  13395  0
13654  13391  13392  0
13655  13402  13403  0
13403  13132  13655  0
13393  13655  13132  0
13121  13394  13656  0
13657  13394  13123  0
13123  13404  13657  0
13658  13395  13653  0
13395  13658  12832  0
13138  13410  13659  0
13138  13659  13124  0
13396  13124  13659  0
13396  13660  13397  0
13661  13397  13660  0
13662  13654  13392  0
13392  13398  13662  0
13663  13662  13398  0
13398  13399  13663  0
13664  13663  13399  0
13399  13400  13664  0
13400  13402  13665  0
13404  13405  13657  0
13666  13657  13405  0
13405  13406  13667  0
13405  13667  13666  0
13668  13666  13667  0
12832  13658  13142  0
13669  13142  13658  0
13142  13669  13408  0
13670  13408  13669  0
13408  13670  13137  0
13136  13137  13670  0
13409  13671  13410  0
13661  13411  13397  0
13672  13668  13667  0
13143  13412  13673  0
13667  13406  13674  0
13675  13674  13406  0
13667  13674  13672  0
13676  13672  13674  0
13406  13413  13675  0
13677  13675  13413  0
13413  12842  13677  0
13145  13143  13673  0
13678  13145  13673  0
13674  13675  13679  0
13674  13679  13676  0
13675  13677  13680  0
13681  13680  13677  0
13675  13680  13681  0
13675  13681  13679  0
13677  12842  13681  0
12847  13681  12842  0
13146  13678  13682  0
13146  13145  13678  0
13418  13683  13679  0
13679  13683  13676  0
13679  13681  13418  0
13682  13147  13146  0
13147  13682  13684  0
13681  12847  13418  0
13418  13155  13683  0
13418  12847  12545  0
13147  13684  12855  0
13415  13685  13416  0
13686  13685  13415  0
13416  13687  13149  0
13149  13687  13688  0
13149  13688  13151  0
13151  13689  13152  0
13417  13152  13689  0
13151  13688  13690  0
13151  13690  13689  0
13155  13154  13691  0
12855  13684  13692  0
13415  13419  13693  0
13415  13693  13686  0
13417  13689  13421  0
13422  13694  12544  0
12544  13694  13695  0
12544  13695  13154  0
13420  13157  13696  0
13420  13696  13419  0
12855  13692  12856  0
13157  13424  13697  0
13157  13697  13696  0
13424  13698  13697  0
13424  13699  13698  0
13426  13427  13700  0
13424  13158  13701  0
13424  13701  13699  0
13158  13428  13701  0
13428  13429  13702  0
13430  13703  13429  0
13430  12869  13704  0
13430  13704  13703  0
12869  13162  13705  0
12869  13705  13704  0
13427  13431  13706  0
13427  13706  13700  0
13425  13707  13708  0
13425  13708  13166  0
13166  13708  13435  0
13706  13431  13434  0
13706  13434  13709  0
13435  13710  13436  0
13436  13710  13711  0
13436  13711  13437  0
13172  13712  12881  0
12571  13169  13433  0
13434  13439  13713  0
13434  13713  13709  0
13714  13447  13440  0
13714  13440  13437  0
13714  13437  13711  0
13714  13711  13715  0
13714  13715  13447  0
13162  13441  13705  0
13173  12881  13712  0
13713  13439  13716  0
13439  13442  13717  0
13439  13717  13716  0
13442  13444  13718  0
13442  13718  13717  0
13444  13443  13719  0
13444  13719  13718  0
13443  13445  13719  0
13448  13184  13720  0
13721  13179  13173  0
13185  13722  13451  0
13185  13452  13723  0
13185  13723  13722  0
13720  13184  13451  0
13188  13187  13721  0
13187  13179  13721  0
13452  13453  13724  0
13452  13724  13723  0
13454  13188  13725  0
13454  13725  13726  0
13191  13727  12893  0
13449  12893  13727  0
13191  13199  13728  0
13191  13728  13727  0
13450  13729  13195  0
13453  13455  13730  0
13453  13730  13724  0
13194  13193  13731  0
13194  13731  13456  0
13193  13454  13726  0
13193  13726  13731  0
13199  13198  13728  0
13732  12903  13195  0
13457  13733  13458  0
13457  13459  13733  0
13459  13460  13734  0
12899  13461  13203  0
12905  13463  13461  0
12903  13732  13200  0
13466  13734  13460  0
13203  13461  13470  0
13463  13464  13735  0
13735  13464  13465  0
13200  13736  13462  0
13737  12906  13462  0
13466  13467  13738  0
13468  13738  13467  0
13468  13469  13739  0
13740  13735  13465  0
12906  13737  13201  0
13201  13737  13472  0
13741  13472  13737  0
13469  13473  13739  0
13741  13471  13472  0
13742  13473  13475  0
13743  13476  13205  0
13478  13209  13476  0
13475  13477  13742  0
13744  13742  13477  0
13745  13481  13480  0
13482  13483  13746  0
13481  13745  13484  0
13747  13483  13484  0
13748  13749  13750  0
13750  13749  13751  0
13752  13751  13749  0
13753  13748  13750  0
13748  13753  13754  0
13755  13754  13753  0
13756  13752  13749  0
13749  13748  13757  0
13754  13757  13748  0
13758  13754  13755  0
13749  13757  13488  0
13487  13488  13757  0
13749  13488  13756  0
13759  13756  13488  0
13757  13754  13487  0
13490  13487  13754  0
13754  13758  13490  0
13760  13490  13758  0
13488  13489  13759  0
13490  13760  13761  0
13490  13761  13491  0
13489  13493  13759  0
13491  13761  13494  0
13221  13762  13763  0
13221  13763  13499  0
13221  13498  13762  0
13499  13763  13500  0
13500  13764  13501  0
13505  13493  13223  0
13765  13498  13503  0
13501  13764  13504  0
13765  13503  13509  0
13504  13766  13767  0
13768  13505  13224  0
13769  13507  13511  0
13507  13769  13508  0
13509  13508  13769  0
13226  13504  13228  0
13770  13228  13504  0
13504  13767  13770  0
13224  12940  13768  0
13771  13768  12940  0
13772  13769  13511  0
13769  13772  13509  0
13509  13773  13765  0
13228  13770  13231  0
12940  13232  13771  0
13509  13772  13773  0
13770  13767  13774  0
13232  13512  13771  0
13227  13234  13775  0
13227  13775  13511  0
13770  13774  13231  0
13229  13510  13776  0
13229  13776  13236  0
13234  13513  13775  0
13511  13775  13772  0
13231  13774  13777  0
12943  13515  13778  0
12943  13778  13512  0
13236  13776  13779  0
13513  13236  13780  0
13514  13231  13777  0
13514  13777  13781  0
13236  13779  13780  0
13516  13514  13782  0
13514  13781  13783  0
13514  13783  13782  0
13237  13240  13784  0
13237  13784  13515  0
13240  13519  13784  0
13516  13782  13517  0
13518  13241  13785  0
13518  13785  13528  0
13518  13528  13246  0
13519  13244  13786  0
13519  13786  13787  0
13517  13782  13788  0
13521  13524  13789  0
13521  13789  13241  0
13241  13789  13790  0
13241  13790  13785  0
13785  13791  13528  0
13244  13525  13786  0
13520  13522  13532  0
13517  13788  13522  0
13524  13792  13789  0
13789  13792  13793  0
13789  13793  13790  0
13529  13528  13791  0
13526  13794  13525  0
13786  13525  13794  0
13526  13531  13794  0
13249  13532  13267  0
13524  13533  13795  0
13524  13795  13792  0
13529  13796  13534  0
13797  13534  13796  0
13530  13252  13258  0
13530  13258  13531  0
13531  13258  13798  0
13531  13798  13794  0
13532  13522  13799  0
13533  13254  13795  0
13800  13534  13797  0
13534  13800  13262  0
13534  13262  12975  0
13258  13537  13801  0
13258  13801  13798  0
13536  12974  13802  0
13532  13799  13803  0
13254  13804  13795  0
13800  13540  13262  0
13805  13539  13538  0
13537  13259  13806  0
13259  13536  13807  0
13259  13807  13806  0
13536  13802  13807  0
13808  13807  13802  0
12974  12986  13802  0
13809  13267  13532  0
13261  13546  13254  0
13254  13546  13804  0
13800  13810  13540  0
13800  13811  13810  0
13548  13541  12983  0
13542  13539  13812  0
13813  13806  13807  0
13808  13813  13807  0
13814  13802  12986  0
13810  13815  13540  0
13540  13815  13264  0
13547  13264  13815  0
13542  13816  13269  0
13269  13816  13543  0
12986  13544  13814  0
13267  13809  13273  0
13546  13545  13817  0
13815  13818  13547  0
13819  13548  13547  0
13818  13819  13547  0
13271  13270  13820  0
13273  13809  13549  0
13276  13821  13822  0
13276  13271  13821  0
13820  13821  13271  0
13272  12988  13823  0
13549  13809  13824  0
13274  13825  13545  0
13274  13550  13825  0
13279  13278  13826  0
13822  13826  13278  0
13278  13276  13822  0
12988  13288  13823  0
13827  13552  13551  0
13551  13279  13826  0
13551  13826  13827  0
13549  13828  13553  0
13554  13555  13829  0
13830  13829  13555  0
13555  13552  13830  0
13288  13006  13831  0
13002  13554  13832  0
13829  13832  13554  0
13829  13830  13833  0
13834  13835  13299  0
13299  13835  13558  0
13559  13836  13560  0
13560  13836  13837  0
13560  13837  13562  0
13562  13837  13563  0
13563  13838  13301  0
13023  13301  13838  0
13006  13564  13831  0
13002  13832  13557  0
13832  13829  13839  0
13834  13299  13303  0
13028  13558  13840  0
13028  13840  13565  0
13565  13840  13841  0
13565  13841  13842  0
13561  13566  13843  0
13023  13838  13302  0
13557  13832  13844  0
13832  13839  13844  0
13303  13845  13834  0
13303  13568  13846  0
13303  13846  13845  0
13565  13842  13032  0
13566  13569  13571  0
13566  13571  13847  0
13566  13847  13848  0
13566  13848  13843  0
13847  13571  13849  0
13847  13849  13848  0
13557  13844  13850  0
13557  13850  13306  0
13568  13851  13846  0
13032  13842  13852  0
13032  13852  13034  0
13571  13572  13853  0
13571  13853  13849  0
13572  13311  13573  0
13572  13573  13854  0
13572  13854  13855  0
13572  13855  13853  0
13033  13567  13016  0
13306  13850  13313  0
13309  13575  13570  0
13570  13856  13851  0
13570  13851  13568  0
13570  13575  13856  0
13034  13852  13576  0
13316  13315  13857  0
13316  13857  13858  0
13316  13858  13573  0
13567  13033  13859  0
13577  13581  13578  0
13575  13578  13860  0
13575  13860  13856  0
13315  13579  13857  0
13580  13583  13861  0
13580  13861  13579  0
13862  13584  13585  0
13581  13317  13584  0
13583  13319  13589  0
13585  13863  13864  0
13585  13864  13862  0
13863  13585  13590  0
13582  13865  13588  0
13592  13864  13863  0
13863  13590  13592  0
13046  13588  13323  0
13324  13591  13594  0
13866  13592  13322  0
13323  13588  13867  0
13323  13867  13595  0
13591  13868  13594  0
13591  13593  13868  0
13325  13869  13326  0
13053  13595  13328  0
13870  13593  13596  0
13871  13326  13869  0
13326  13871  13331  0
13872  13331  13871  0
13332  13331  13872  0
13596  13597  13870  0
13873  13870  13597  0
13874  13873  13597  0
13597  13339  13874  0
13875  13874  13339  0
13339  13338  13343  0
13339  13343  13875  0
13598  13876  13337  0
13343  13599  13875  0
13877  13875  13599  0
13600  13337  13876  0
13348  13349  13599  0
13599  13349  13877  0
13878  13877  13349  0
13876  13879  13600  0
13880  13600  13879  0
13603  13341  13881  0
13604  13882  13346  0
13883  13346  13882  0
13346  13883  13605  0
13606  13605  13883  0
13349  13608  13878  0
13884  13878  13608  0
13600  13880  13601  0
13885  13601  13880  0
13601  13885  13602  0
13881  13602  13885  0
13602  13881  13341  0
13881  13886  13603  0
13887  13603  13886  0
13603  13887  13604  0
13883  13888  13606  0
13889  13606  13888  0
13606  13890  13607  0
13606  13889  13890  0
13890  13891  13607  0
13608  13609  13884  0
13892  13884  13609  0
13609  13610  13892  0
13610  13611  13893  0
13881  13885  13894  0
13607  13891  13895  0
13607  13895  13615  0
13618  13619  13896  0
13621  13896  13619  0
13616  13354  13897  0
13898  13897  13354  0
13354  13617  13898  0
13899  13898  13617  0
13617  13618  13899  0
13618  13896  13899  0
13900  13899  13896  0
13896  13621  13900  0
13901  13900  13621  0
13621  13620  13901  0
13622  13901  13620  0
13361  13902  13611  0
13903  13364  13362  0
13082  13904  13361  0
13364  13903  13623  0
13365  13905  13904  0
13904  13082  13365  0
13904  13905  13906  0
12785  13623  13624  0
13365  13625  13907  0
13625  13908  13907  0
13367  13908  13625  0
13627  13626  13909  0
13627  13909  13910  0
13909  13626  13628  0
13909  13628  13911  0
13366  13912  13630  0
13366  13624  13912  0
13627  13913  13094  0
13628  13629  13911  0
13629  13633  13914  0
13629  13914  13911  0
13630  13912  13915  0
13630  13915  13635  0
13632  13094  13913  0
13633  13109  13637  0
13633  13637  13916  0
13633  13916  13914  0
13635  13638  13634  0
13635  13917  13638  0
13638  13917  13918  0
13380  13379  13632  0
13380  13632  13919  0
13380  13919  13642  0
13637  13636  13920  0
13637  13920  13921  0
13638  13918  13644  0
13636  13643  13920  0
13920  13643  13644  0
13920  13644  13922  0
13920  13922  13921  0
13639  13923  13645  0
13645  13923  13640  0
13641  13924  13631  0
13639  13647  13923  0
13923  13925  13640  0
13640  13925  13641  0
13641  13926  13924  0
13649  13385  13646  0
13387  13648  13927  0
13387  13927  13647  0
13647  13928  13923  0
13929  13923  13928  0
13647  13927  13928  0
13923  13929  13925  0
13930  13925  13929  0
13925  13930  13641  0
13926  13641  13930  0
13650  13389  13931  0
13650  13931  13932  0
13650  13932  13648  0
13653  13651  13933  0
13931  13389  13652  0
13651  13653  12816  0
13652  13391  13934  0
13652  13934  13935  0
13652  13935  13931  0
13936  13658  13653  0
13936  13937  13658  0
13938  13937  13936  0
13937  13669  13658  0
13939  13937  13938  0
13937  13939  13670  0
13937  13670  13669  0
13940  13670  13939  0
13934  13391  13654  0
13402  13655  13665  0
13655  13393  13941  0
13393  13656  13941  0
13393  13121  13656  0
13940  13409  13136  0
13940  13136  13670  0
13940  13942  13409  0
13409  13942  13671  0
13659  13943  13396  0
13396  13943  13660  0
13934  13654  13944  0
13654  13662  13945  0
13654  13945  13944  0
13662  13663  13946  0
13662  13946  13945  0
13663  13664  13947  0
13663  13947  13946  0
13664  13400  13948  0
13664  13948  13947  0
13400  13665  13948  0
13657  13666  13668  0
13671  13949  13410  0
13410  13949  13659  0
13411  13661  13412  0
13950  13945  13946  0
13946  13947  13950  0
13951  13678  13673  0
13683  13952  13676  0
13953  13682  13678  0
13692  13684  13682  0
13691  13952  13683  0
13155  13691  13683  0
13686  13954  13685  0
13954  13955  13685  0
13685  13687  13416  0
13954  13686  13955  0
13956  13955  13686  0
13688  13957  13690  0
13689  13958  13421  0
13959  13421  13958  0
13689  13690  13960  0
13689  13960  13958  0
13421  13959  13422  0
13961  13422  13959  0
13422  13961  13694  0
13695  13691  13154  0
13962  13695  13694  0
13686  13693  13956  0
13693  13419  13696  0
13693  13696  13956  0
13961  13959  13963  0
13961  13963  13962  0
13961  13962  13694  0
13692  13964  12856  0
12856  13964  13423  0
13696  13697  13965  0
13966  13965  13697  0
13423  13964  13967  0
13423  13967  13425  0
13697  13698  13966  0
13968  13698  13699  0
13969  13970  12867  0
12867  13426  13969  0
13971  13969  13426  0
13425  13967  13707  0
13699  13701  13972  0
13699  13972  13968  0
13702  13701  13428  0
13702  13429  13973  0
13703  13973  13429  0
13702  13973  13974  0
13703  13704  13975  0
13704  13705  13976  0
13426  13700  13971  0
13977  13971  13700  0
13700  13706  13977  0
13708  13978  13435  0
13974  13972  13701  0
13701  13702  13974  0
13172  13979  13980  0
13172  13980  13712  0
13432  13433  13981  0
13706  13709  13982  0
13706  13982  13977  0
13710  13983  13711  0
13710  13435  13984  0
13710  13984  13983  0
13163  13985  13438  0
13709  13713  13986  0
13709  13986  13982  0
13987  13718  13719  0
13987  13988  13718  0
13719  13445  13989  0
13989  13445  13447  0
13989  13447  13715  0
13715  13711  13990  0
13715  13990  13989  0
13711  13983  13990  0
13991  13705  13441  0
13991  13992  13705  0
13705  13992  13976  0
13173  13712  13980  0
13173  13980  13993  0
13713  13716  13986  0
13716  13717  13994  0
13717  13718  13994  0
13448  13991  13441  0
13448  13720  13991  0
13173  13993  13721  0
13169  13449  13995  0
13438  13985  13450  0
13729  13450  13985  0
13996  13451  13722  0
13722  13723  13997  0
13451  13996  13720  0
13188  13721  13998  0
13188  13998  13725  0
13726  13999  14000  0
13726  14000  13731  0
13726  13725  13999  0
13727  13728  14001  0
13727  14001  13449  0
13729  14002  13195  0
14003  13195  14002  0
13724  13730  14004  0
13724  14004  13723  0
13730  13455  13456  0
13730  13456  14005  0
13730  14005  14004  0
13456  13731  14005  0
13198  14006  13728  0
13198  13458  14007  0
13198  14007  14006  0
13732  13195  14003  0
13733  14008  13458  0
14007  13458  14008  0
13733  13459  14009  0
13733  14009  14008  0
13459  13734  14010  0
13459  14010  14009  0
13736  13200  13732  0
13734  13466  14011  0
13734  14011  14010  0
13461  13463  14012  0
13461  14012  13470  0
13463  13735  13743  0
13463  13743  14012  0
14013  13737  13462  0
13466  13738  14014  0
13466  14014  14011  0
13738  13468  14015  0
13738  14015  14014  0
13468  13739  14016  0
13468  14016  14015  0
13470  14012  13474  0
14012  13743  13474  0
13740  13465  13471  0
13740  13471  14017  0
13740  14017  13735  0
13741  13737  14013  0
13739  13473  14018  0
13739  14018  14016  0
13473  14019  14018  0
13474  13743  13205  0
14017  13471  14020  0
13471  13741  14021  0
13471  14021  14020  0
13473  13742  14019  0
13742  13744  14022  0
13742  14022  14019  0
13743  14023  13476  0
13476  14023  13478  0
14024  13478  14023  0
13744  13477  14025  0
13477  13482  14025  0
13482  13746  14025  0
13478  14024  13480  0
14026  13480  14024  0
13480  14026  13745  0
14027  13746  13483  0
13483  13747  14027  0
13745  14028  13484  0
13747  13484  14029  0
14030  13751  14031  0
13751  14032  13750  0
13753  13750  14032  0
13751  14030  14032  0
14033  13753  14032  0
13753  13758  13755  0
13753  14033  13758  0
13752  14031  13751  0
14034  14031  13752  0
13758  14035  13760  0
14036  13760  14035  0
13756  14034  13752  0
14037  14034  13756  0
13759  14037  13756  0
13760  14038  13761  0
14036  14038  13760  0
14039  14040  14041  0
14037  13759  14042  0
13761  14038  14043  0
13763  13762  14040  0
14040  14039  13763  0
13500  13763  14039  0
13764  14044  14045  0
14045  14044  14046  0
13759  13493  14042  0
14047  14042  13493  0
13762  13498  14048  0
13500  14039  13764  0
14045  14049  13764  0
14045  14050  14049  0
14045  14046  14050  0
14050  14046  14051  0
13493  13505  14047  0
13761  14052  13494  0
13498  13765  14048  0
14053  14048  13765  0
13764  13766  13504  0
14054  13766  14049  0
13766  13764  14049  0
14049  14050  14054  0
14055  14054  14050  0
14050  14051  14056  0
14050  14056  14055  0
14055  14056  14057  0
14055  14057  14058  0
13768  14047  13505  0
13771  14047  13768  0
13494  14052  13506  0
13765  14059  14053  0
13766  14054  13767  0
14060  13767  14054  0
14054  14055  14060  0
14061  14060  14055  0
14055  14058  14061  0
13765  13773  14059  0
14062  14059  13773  0
14060  14061  14063  0
14060  14063  14064  0
14061  14058  14065  0
13767  14060  14066  0
14060  14064  14066  0
13510  13506  14067  0
13772  14068  13773  0
13773  14068  14062  0
13767  14066  13774  0
13771  13512  14069  0
14070  14069  13512  0
14066  13777  13774  0
14070  13512  14071  0
13510  14067  13776  0
13772  13775  14068  0
13512  13778  14071  0
13775  13513  14072  0
13775  14072  14068  0
14073  13781  13777  0
13778  13515  13784  0
13781  14074  13783  0
13781  14073  14074  0
14075  13782  13783  0
13519  13787  13784  0
13788  13782  14075  0
14076  14077  14078  0
14079  14078  14077  0
14078  14079  14080  0
14081  14080  14079  0
13785  13790  13791  0
13791  13796  13529  0
13786  13794  14082  0
13786  14082  13787  0
13522  13788  13799  0
13788  14075  14083  0
13788  14083  14084  0
13788  14084  13799  0
13790  13793  14085  0
13790  14085  13791  0
13791  14085  13796  0
13796  14085  13797  0
13794  13798  14086  0
13792  13795  14087  0
13792  14087  13793  0
13793  14087  14088  0
13793  14088  14085  0
14085  14088  14089  0
14085  14089  13797  0
13797  14089  13800  0
13795  13804  14087  0
14089  14088  13811  0
14089  13811  13800  0
13801  13537  13806  0
13801  14090  13798  0
13804  13546  14091  0
13804  14091  14087  0
14087  14091  14092  0
14087  14092  14088  0
14093  14088  14092  0
14088  14093  13811  0
13810  13811  14093  0
14094  13542  13812  0
13806  14095  13801  0
13806  13813  14095  0
13808  13802  13814  0
13532  13803  13809  0
14096  13809  13803  0
14096  13803  13799  0
14097  13546  13817  0
13546  14098  14091  0
14099  14092  14091  0
14092  14099  14093  0
14100  14093  14099  0
13815  13810  14093  0
13542  14094  13816  0
14101  13813  13808  0
14102  14101  13808  0
13808  13814  14102  0
13544  14102  13814  0
14093  14100  13815  0
13818  13815  14100  0
13816  14103  13543  0
13543  14103  14104  0
13543  14104  13270  0
13824  13809  14096  0
13825  13817  13545  0
14105  13817  13825  0
13818  14100  14106  0
13818  14106  14107  0
13818  14107  13819  0
13270  14104  14108  0
13270  14108  13820  0
13823  13544  13272  0
13821  13820  14109  0
13822  13821  14110  0
14109  14110  13821  0
13828  13549  13824  0
13826  14111  13827  0
13826  13822  14112  0
14110  14112  13822  0
13553  13828  14113  0
13553  14113  13550  0
13552  13827  13830  0
14114  13830  13827  0
14111  14114  13827  0
14115  14116  13558  0
13840  13558  14116  0
14115  14117  14118  0
14115  14118  14116  0
14115  13558  14117  0
13835  14117  13558  0
14116  14118  14119  0
14116  14119  13840  0
14120  13833  13830  0
13830  14114  14120  0
13835  13834  14121  0
13559  14122  13836  0
13559  13561  14122  0
13836  14123  13837  0
13829  13833  13839  0
14124  13834  13845  0
13561  13843  14122  0
14125  14122  13843  0
13837  14123  14126  0
13837  14126  13563  0
13563  14126  14127  0
13563  14127  13838  0
13302  13838  14128  0
13844  13839  14129  0
13843  13848  14130  0
13843  14130  14125  0
13302  14128  14131  0
13302  14131  13305  0
13305  14131  14132  0
13844  14129  14133  0
13844  14133  13850  0
13846  14134  14124  0
13846  14124  13845  0
13846  13851  14134  0
13849  13853  13855  0
13849  14135  13848  0
13305  14132  14136  0
13305  14136  13033  0
13850  14137  13313  0
13851  13856  14138  0
13851  14138  14134  0
13852  14139  13576  0
13849  13855  14135  0
13854  13573  13858  0
13854  13858  14140  0
13854  14140  14141  0
13854  14141  13855  0
13859  13033  14136  0
13860  14142  13856  0
13856  14142  14138  0
14143  13576  14139  0
13858  13857  14144  0
13858  14144  14140  0
13857  13579  14144  0
13579  13861  14145  0
13579  14145  14144  0
13320  13313  14146  0
13313  14137  14146  0
13576  14143  13582  0
13320  14146  13586  0
13584  14147  13581  0
13584  13862  14148  0
13584  14148  14147  0
13581  14147  13578  0
13583  13589  14149  0
13583  14149  13861  0
14150  13586  14146  0
14148  13862  14151  0
13862  13864  14151  0
13582  14152  13865  0
14151  13864  14153  0
13864  14154  14153  0
13589  13321  14155  0
14156  13322  13586  0
13866  13322  14156  0
13866  13864  13592  0
13866  14154  13864  0
14157  13867  13588  0
14158  13595  13867  0
13594  13868  13869  0
13594  13869  13325  0
13593  14159  13868  0
14160  13868  14159  0
13593  13870  14159  0
14161  14159  13870  0
13868  14160  13869  0
14162  13869  14160  0
13869  14162  13871  0
13328  13595  14163  0
13328  14163  13598  0
13870  13873  14161  0
13874  14161  13873  0
14164  13332  13872  0
13332  14164  12752  0
12752  14164  13336  0
13058  13336  14164  0
13333  13058  14165  0
13598  14166  13876  0
13875  13877  14167  0
13877  13878  14167  0
14168  13878  13884  0
13884  13892  14168  0
14169  14168  13892  0
13892  13610  14169  0
13893  14169  13610  0
13879  14170  13880  0
13879  14171  14170  0
13886  13881  13894  0
13604  13887  14172  0
13604  14172  13882  0
13882  14172  13883  0
13883  14172  14173  0
13883  14173  13888  0
13888  14173  14174  0
13888  14174  13889  0
13889  14174  14175  0
13889  14175  13890  0
13890  14175  13891  0
13880  14170  14176  0
13880  14176  13885  0
14177  13885  14178  0
14177  13894  13885  0
13886  13894  14179  0
13891  14175  13895  0
13895  14180  13615  0
13615  14180  14181  0
13615  14181  13622  0
14176  14182  13885  0
13885  14182  14178  0
13611  14183  13893  0
13611  13902  14183  0
14184  13900  13901  0
13901  13622  14185  0
14181  14185  13622  0
14183  14186  14187  0
14186  13902  13361  0
14186  14183  13902  0
13362  13616  13903  0
13616  13897  14188  0
14189  14188  13897  0
13616  14188  13903  0
13897  13898  14189  0
14190  13898  13899  0
13899  13900  14190  0
14184  14190  13900  0
14191  14186  14192  0
13904  14192  14186  0
14191  14187  14186  0
14186  13361  13904  0
14192  14193  14191  0
14192  13904  13906  0
14192  13906  14193  0
13623  14194  13624  0
13906  13905  14195  0
13905  13365  14195  0
13907  14195  13365  0
13624  14194  13912  0
14195  13907  14196  0
13907  13908  14196  0
13627  13910  14197  0
13910  13909  14198  0
13909  13911  14199  0
13909  14199  14198  0
13911  14200  14201  0
13911  14201  14199  0
14200  13911  13914  0
14200  14202  14201  0
13912  14203  13915  0
13912  14194  14203  0
14196  13908  14204  0
13913  13627  14205  0
14206  13913  14205  0
13627  14197  14205  0
13914  13916  14207  0
13914  14207  14200  0
13915  13917  13635  0
13915  14208  13917  0
14209  14208  13915  0
14208  14210  14211  0
14208  14211  13917  0
14208  14209  14210  0
14210  14212  14211  0
14212  14213  14211  0
14204  14214  14196  0
13908  13367  13631  0
13908  13631  14204  0
13919  13632  13913  0
13919  13913  14206  0
13916  13637  13921  0
13916  13921  14215  0
13916  14215  14216  0
13917  14217  13918  0
13917  14211  14217  0
14211  14218  14217  0
14211  14213  14218  0
14213  14219  14218  0
14220  14218  14219  0
14204  13631  14221  0
13919  14206  13642  0
14222  13642  14206  0
13921  13922  14215  0
13922  13644  13918  0
13922  13918  14223  0
13922  14223  14215  0
13918  14217  14224  0
13918  14224  14223  0
14217  14225  14224  0
14217  14218  14225  0
14218  14220  14225  0
14222  13646  13642  0
13646  14222  13649  0
13926  13930  14226  0
13927  13648  14227  0
13927  14227  14228  0
13927  14228  13928  0
13928  14229  13929  0
13929  14229  13930  0
14226  13930  14229  0
13649  14230  13933  0
13649  13933  13651  0
14231  13933  14230  0
13648  13932  14227  0
14227  13932  14232  0
13932  13931  14232  0
13933  13936  13653  0
13938  13933  14231  0
13933  13938  13936  0
13938  14233  13939  0
13938  14234  14233  0
14233  13942  13939  0
14235  14233  14234  0
14233  14235  13942  0
14236  13942  14235  0
13931  13935  14237  0
13931  14237  14232  0
13939  13942  13940  0
14238  13942  14236  0
13935  13934  14239  0
14240  13948  13665  0
14240  13665  14241  0
13665  14242  14241  0
13665  13655  14242  0
13655  13941  14242  0
13942  14238  13671  0
13671  14238  13949  0
13659  13949  14243  0
14243  13943  13659  0
14244  13943  14243  0
13943  14244  13660  0
14245  13660  14244  0
13660  14245  13661  0
14246  13661  14245  0
13934  13944  14239  0
13948  13950  13947  0
13668  14247  13657  0
13657  14247  13394  0
14248  13412  13661  0
13661  14246  14248  0
13944  13945  14249  0
14250  14249  13945  0
13945  13950  14250  0
14251  14250  13950  0
14252  14247  13668  0
13673  13412  13951  0
14253  13951  13412  0
13412  14248  14253  0
13668  13672  14252  0
13676  14252  13672  0
13678  13951  14254  0
14255  14254  13951  0
13951  14253  14255  0
14252  13676  13952  0
13678  14254  13953  0
13952  14256  14252  0
14256  13952  14257  0
13682  13953  13692  0
14258  13692  13953  0
13953  14259  14258  0
13691  14257  13952  0
14258  14259  14260  0
14261  14262  14263  0
14263  14264  14261  0
14263  14265  14264  0
13955  14266  14267  0
13955  14267  13685  0
13956  14266  13955  0
13685  14267  14268  0
13685  14268  13687  0
13687  14268  14269  0
14257  13691  13695  0
14257  13695  13962  0
13692  14258  13964  0
14260  14270  14258  0
14258  14270  13964  0
14271  14262  14261  0
13687  14269  13688  0
13688  14269  13957  0
13957  14272  13690  0
13960  13690  14272  0
14273  14271  14261  0
14261  14264  14273  0
13956  13696  14274  0
13965  14274  13696  0
13960  14272  13958  0
13958  14272  14275  0
13958  14275  13959  0
13959  14275  13963  0
13965  13966  14276  0
14277  14276  13966  0
13966  13698  14277  0
13968  14277  13698  0
13707  13967  14278  0
13707  14278  13708  0
13708  14278  13978  0
13968  13972  14279  0
13968  14279  14280  0
14279  13972  13974  0
14281  14279  13974  0
13973  13703  14282  0
14283  14282  13703  0
13703  13975  14283  0
14284  13172  13432  0
14284  13432  14285  0
13979  13172  14284  0
14285  13432  13981  0
12867  14286  13163  0
13971  14287  13969  0
13978  14288  13984  0
13978  13984  13435  0
13978  14278  14288  0
14289  14288  14278  0
14288  14290  14291  0
14288  14291  13984  0
14288  14289  14290  0
14292  14290  14289  0
14290  14293  14291  0
14294  14290  14292  0
14290  14294  14293  0
14295  14293  14294  0
13979  14296  13980  0
13981  13433  14297  0
13977  13982  14298  0
13984  14291  14299  0
13984  14299  13983  0
14291  14293  14300  0
14291  14300  14299  0
14293  14295  14300  0
13433  13169  14297  0
13163  14286  13985  0
14301  13994  13718  0
14301  13718  13988  0
13987  13719  14302  0
13987  14302  13988  0
13719  13989  14303  0
13719  14303  14302  0
13989  13990  14304  0
13989  14304  14303  0
13983  14299  14305  0
13983  14305  13990  0
14299  14300  14305  0
13992  13991  14306  0
13980  14307  13993  0
13986  13716  14308  0
13716  13994  14309  0
13716  14309  14308  0
13996  13991  13720  0
13996  14310  13991  0
14306  13991  14310  0
13996  14311  14310  0
13998  13721  13993  0
13169  14312  14297  0
13169  13995  14312  0
13985  14313  13729  0
14311  13996  13722  0
13725  13998  14314  0
13725  14314  14315  0
13725  14315  13999  0
13997  13723  14004  0
13997  14004  14316  0
13997  14316  14317  0
14000  14005  13731  0
14000  14318  14316  0
14000  14316  14005  0
14000  13999  14318  0
13449  14001  14319  0
13449  14319  13995  0
14004  14005  14316  0
14001  13728  14006  0
14320  13732  14003  0
14009  14010  14321  0
14009  14321  14008  0
14010  14322  14321  0
14320  14323  13732  0
13732  14323  13736  0
14322  14010  14011  0
13462  14324  14013  0
13462  13736  14324  0
14011  14014  14325  0
14014  14015  14326  0
14014  14326  14325  0
14015  14016  14327  0
14015  14327  14326  0
14016  14328  14327  0
14018  14328  14016  0
13743  13735  14329  0
14017  14329  13735  0
14330  14013  14324  0
14013  14021  13741  0
14013  14330  14021  0
14331  14021  14330  0
14018  14019  14332  0
14022  14332  14019  0
14332  14022  14333  0
14334  14333  14022  0
13743  14329  14023  0
14331  14020  14021  0
14022  13744  14334  0
14334  13744  14335  0
14025  14335  13744  0
14023  14329  14336  0
14023  14336  14024  0
14025  13746  14337  0
14338  14337  13746  0
14027  14338  13746  0
13745  14026  14339  0
13745  14339  14028  0
14340  14027  13747  0
13747  14029  14340  0
14028  14339  14341  0
14342  14029  13484  0
13484  14028  14342  0
14341  14342  14028  0
14032  14030  14343  0
14343  14344  14345  0
14343  14030  14344  0
14343  14346  14032  0
14033  14032  14346  0
14343  14345  14346  0
14035  13758  14033  0
14033  14346  14347  0
14033  14348  14035  0
14033  14347  14348  0
14349  14350  14031  0
14031  14350  14344  0
14031  14344  14030  0
14034  14349  14031  0
14351  14349  14034  0
14352  14036  14035  0
14035  14353  14352  0
14034  14037  14351  0
14354  14351  14037  0
14355  14036  14352  0
14352  14353  14355  0
14353  14356  14355  0
14357  14355  14356  0
14358  14041  14359  0
14037  14042  14354  0
14360  14354  14042  0
14361  14038  14036  0
14355  14361  14036  0
14040  13762  14359  0
14040  14359  14041  0
14041  14358  14039  0
14044  14039  14358  0
14358  14362  14044  0
14358  14363  14362  0
14364  14360  14042  0
14361  14043  14038  0
14365  14361  14355  0
14355  14357  14365  0
13762  14048  14366  0
14367  14366  14048  0
14039  14044  13764  0
14044  14362  14046  0
14051  14046  14362  0
14362  14363  14368  0
14042  14047  14364  0
14369  14364  14047  0
14370  14043  14361  0
14361  14371  14370  0
14361  14365  14371  0
14051  14362  14368  0
14051  14372  14056  0
14057  14056  14372  0
14051  14368  14373  0
14051  14373  14372  0
13761  14043  14052  0
14043  14370  14052  0
14048  14053  14367  0
14057  14372  14374  0
14057  14374  14375  0
14047  13771  14376  0
14053  14059  14377  0
14058  14057  14378  0
14057  14379  14378  0
14057  14375  14379  0
14058  14378  14065  0
14380  14378  14379  0
13771  14069  14381  0
13771  14381  14376  0
14067  13506  14052  0
14063  14061  14382  0
14061  14065  14382  0
14383  14065  14378  0
14069  14070  14381  0
14068  14384  14062  0
14066  14064  13777  0
13777  14064  14385  0
14071  14386  14070  0
13776  14387  13779  0
13777  14385  14073  0
14071  13778  14386  0
13778  14388  14386  0
14389  13779  14387  0
13513  14390  14072  0
14384  14068  14072  0
13778  13784  14388  0
13779  14389  13780  0
13513  13780  14390  0
13783  14074  14391  0
13783  14391  14075  0
14074  14073  14392  0
14074  14392  14391  0
14393  14081  14079  0
13784  13787  14394  0
14390  13780  14395  0
14396  14075  14391  0
14076  14397  14398  0
14076  14398  14077  0
14075  14396  14083  0
14399  13787  14082  0
14083  14400  14084  0
13794  14086  14082  0
14401  13799  14084  0
14084  14400  14401  0
14086  14402  14403  0
14086  14403  14082  0
14086  13798  14402  0
13798  14090  14402  0
13799  14401  14096  0
14404  14096  14401  0
14094  13812  14405  0
14406  14090  13801  0
13801  14095  14406  0
13546  14097  14098  0
14407  14091  14098  0
14091  14407  14099  0
14100  14099  14407  0
14408  14409  13548  0
14103  13816  14094  0
14094  14405  14410  0
14095  13813  14411  0
14412  14411  13813  0
14413  14412  13813  0
13813  14101  14413  0
14414  14413  14101  0
14407  14098  14097  0
14415  14100  14407  0
13548  13819  14408  0
14107  14408  13819  0
14101  14102  14414  0
14416  14414  14102  0
13544  14416  14102  0
13817  14105  14097  0
14417  14097  14105  0
14097  14417  14407  0
14418  14407  14417  0
14407  14418  14415  0
14415  14106  14100  0
14415  14419  14106  0
13820  14108  14109  0
14420  14105  13825  0
14105  14420  14417  0
14421  14110  14109  0
13823  13288  14422  0
14423  14422  13288  0
13550  14113  13825  0
13825  14113  14420  0
13826  14112  14111  0
14424  14112  14110  0
14425  14424  14110  0
13288  13831  14423  0
14111  14112  14426  0
14117  14427  14428  0
14117  14428  14118  0
14117  13835  14427  0
14118  14429  14430  0
14118  14430  14119  0
14118  14428  14431  0
14118  14431  14429  0
14429  14431  14432  0
14429  14432  14430  0
14430  14432  14433  0
14114  14426  14120  0
14114  14111  14426  0
14427  13835  14121  0
14430  14433  14119  0
13836  14434  14123  0
13836  14122  14435  0
13836  14435  14434  0
13831  13564  14436  0
13833  14437  14438  0
13833  14120  14437  0
13834  14124  14439  0
13834  14439  14121  0
13840  14119  14440  0
13840  14440  13841  0
14435  14122  14441  0
14122  14125  14441  0
14123  14434  14126  0
14442  14126  14434  0
14126  14442  14127  0
14127  14128  13838  0
13839  13833  14438  0
13839  14438  14129  0
13841  14440  13842  0
14125  14130  14443  0
14125  14443  14441  0
14444  14128  14127  0
14128  14444  14131  0
14445  14132  14131  0
14129  14446  14133  0
14134  14447  14124  0
13842  14440  14448  0
13842  14448  13852  0
13848  14135  14449  0
13848  14449  14130  0
14132  14445  14136  0
14450  14136  14445  0
13567  13859  13564  0
13564  13859  14451  0
14447  14134  14452  0
13852  14448  14139  0
14135  14453  14449  0
14135  13855  14141  0
14135  14141  14454  0
14135  14454  14453  0
14455  14136  14450  0
14136  14455  13859  0
14138  14142  14456  0
14452  14134  14138  0
14454  14141  14457  0
14141  14140  14458  0
14141  14458  14457  0
14140  14144  14459  0
14140  14459  14458  0
14146  14137  14460  0
13860  14461  14142  0
14143  14139  14462  0
14144  14145  14459  0
14145  14463  14459  0
14147  14464  13578  0
14461  13578  14464  0
13578  14461  13860  0
13582  14143  14152  0
14143  14462  14152  0
14465  14152  14462  0
14145  13861  14149  0
14145  14149  14463  0
14466  14148  14151  0
14464  14147  14148  0
14467  13865  14152  0
14152  14465  14467  0
14468  14467  14465  0
13589  14469  14149  0
14156  13586  14150  0
14470  14153  14154  0
14151  14153  14466  0
14471  13588  13865  0
13865  14467  14471  0
14472  14471  14467  0
14467  14468  14472  0
13866  14156  14154  0
13588  14471  14157  0
14473  14158  13867  0
13867  14157  14473  0
14474  14475  14157  0
14157  14475  14473  0
14471  14474  14157  0
13321  13333  14155  0
14155  13333  14476  0
13595  14158  14163  0
14159  14477  14478  0
14159  14478  14160  0
14159  14161  14477  0
14479  14477  14161  0
14160  14478  14480  0
14160  14480  14162  0
14162  14480  14481  0
14162  14481  13871  0
13871  14481  13872  0
14163  14158  14482  0
14483  14479  14161  0
13872  14481  14164  0
14164  14484  13058  0
13058  14484  14165  0
13598  14163  14166  0
14161  13874  14483  0
13875  14483  13874  0
14166  14485  13876  0
14486  13875  14167  0
13876  14485  13879  0
14487  14486  14167  0
14485  14488  13879  0
13879  14488  14171  0
14167  13878  14487  0
14168  14487  13878  0
14168  14169  14487  0
14169  13893  14489  0
14490  14489  13893  0
13886  14179  13887  0
14491  13887  14179  0
13887  14491  14172  0
14492  14172  14491  0
14172  14492  14173  0
14175  14174  14493  0
14494  13894  14177  0
13894  14494  14179  0
14495  14179  14494  0
14179  14495  14491  0
14491  14495  14496  0
14491  14496  14492  0
14492  14496  14497  0
14492  14497  14173  0
14175  14493  14498  0
14175  14498  13895  0
13895  14498  14499  0
13895  14499  14180  0
14180  14499  14500  0
14180  14500  14181  0
14183  14501  13893  0
14170  14502  14176  0
14178  14503  14177  0
14504  14177  14503  0
14177  14504  14494  0
14505  14185  14181  0
14500  14505  14181  0
14176  14502  14506  0
14176  14506  14182  0
14182  14506  14507  0
14182  14507  14178  0
14178  14507  14503  0
14504  14508  14494  0
14509  13901  14185  0
14510  14191  14511  0
14510  14511  14512  0
14510  14513  14191  0
14513  14187  14191  0
14183  14187  14513  0
13898  14190  14189  0
14514  13901  14509  0
14515  14511  14193  0
14515  14193  14516  0
14511  14191  14193  0
14190  14517  14189  0
14190  14184  14517  0
14184  13901  14514  0
14516  14518  14515  0
13623  13903  14194  0
13903  14188  14519  0
13903  14519  14194  0
14188  14189  14520  0
14516  14521  14522  0
14516  14522  14518  0
14516  14193  13906  0
14516  13906  14521  0
14521  13906  14523  0
14521  14523  14522  0
13906  14524  14523  0
13906  14195  14524  0
14194  14519  14203  0
14519  14525  14203  0
14526  14527  14528  0
14526  14529  14527  0
14530  14527  14529  0
14523  14524  14531  0
14523  14531  14532  0
14523  14532  14522  0
14524  14195  14533  0
14524  14533  14531  0
14197  13910  14534  0
13910  14198  14534  0
14199  14201  14198  0
14202  14200  14207  0
14202  14207  14535  0
14535  14207  14536  0
14203  14525  13915  0
14525  14209  13915  0
14525  14537  14209  0
14209  14538  14210  0
14209  14537  14538  0
14539  14538  14537  0
14538  14540  14212  0
14538  14212  14210  0
14538  14539  14540  0
14541  14540  14539  0
14540  14528  14213  0
14540  14213  14212  0
14540  14541  14528  0
14526  14528  14541  0
14528  14542  14213  0
14528  14527  14543  0
14528  14543  14542  0
14527  14544  14545  0
14527  14545  14543  0
14527  14530  14544  0
14531  14533  14532  0
14195  14196  14533  0
14207  13916  14216  0
14207  14216  14536  0
14213  14542  14219  0
14542  14543  14546  0
14542  14546  14547  0
14542  14547  14219  0
14543  14545  14546  0
14545  14548  14546  0
14544  14548  14545  0
14533  14196  14549  0
14196  14214  14549  0
14222  14206  14205  0
14216  14215  14550  0
14216  14550  14551  0
14550  14215  14223  0
14550  14223  14552  0
14552  14223  14224  0
14220  14219  14547  0
14220  14547  14553  0
14220  14553  14225  0
14214  14204  14221  0
14214  14221  14554  0
14224  14225  14555  0
14224  14555  14552  0
14221  13631  13924  0
13924  13926  14221  0
13649  14222  14556  0
13649  14556  14230  0
13928  14228  14229  0
14557  14226  14229  0
14558  14231  14230  0
14230  14556  14559  0
14230  14559  14560  0
14230  14560  14558  0
14228  14561  14229  0
14229  14561  14562  0
14229  14562  14557  0
13938  14231  14558  0
14558  14560  13938  0
14234  13938  14560  0
14234  14560  14563  0
14234  14563  14235  0
14232  14564  14227  0
14227  14564  14565  0
14227  14565  14228  0
14566  14232  14237  0
14236  14567  14238  0
14237  13935  14566  0
14239  14566  13935  0
14568  13941  13656  0
13949  14238  14569  0
13949  14569  14243  0
14243  14569  14570  0
14243  14570  14244  0
14245  14571  14246  0
14572  14246  14571  0
14245  14244  14573  0
14245  14573  14571  0
14571  14574  14572  0
14575  14572  14574  0
14571  14573  14576  0
14571  14576  14574  0
14574  14577  14575  0
14566  14239  14578  0
14579  14578  14239  0
14239  13944  14579  0
14249  14579  13944  0
13950  13948  14580  0
14240  14580  13948  0
13950  14580  14251  0
14581  14568  13656  0
13656  14582  14581  0
13656  13394  14582  0
14247  14582  13394  0
14246  14572  14248  0
14575  14248  14572  0
14575  14577  14583  0
14579  14249  14584  0
14250  14584  14249  0
14250  14251  14585  0
14586  14581  14582  0
14582  14247  14587  0
14252  14587  14247  0
14588  14253  14248  0
14248  14575  14588  0
14589  14588  14575  0
14575  14583  14590  0
14575  14590  14589  0
14582  14587  14586  0
14591  14586  14587  0
14587  14252  14592  0
14593  14255  14253  0
14253  14588  14593  0
14588  14589  14594  0
14588  14594  14595  0
14588  14595  14593  0
14587  14592  14591  0
14256  14591  14592  0
14252  14256  14592  0
14254  14255  13953  0
14596  13953  14255  0
14255  14593  14596  0
14597  14596  14593  0
14591  14256  14598  0
13953  14596  14259  0
14596  14597  14599  0
14600  14599  14597  0
14597  14593  14595  0
14597  14595  14600  0
14257  14598  14256  0
14259  14596  14601  0
14602  14601  14596  0
14596  14599  14602  0
14263  14602  14599  0
14599  14600  14263  0
14600  14603  14263  0
14265  14263  14603  0
14604  14265  14603  0
14265  14604  14264  0
14605  14264  14604  0
14598  14257  14606  0
13962  14606  14257  0
14259  14601  14260  0
14607  14260  14601  0
14601  14602  14607  0
14602  14608  14607  0
14602  14263  14262  0
14602  14262  14608  0
14270  14260  14609  0
14260  14607  14610  0
14260  14610  14609  0
14607  14608  14610  0
14608  14262  14271  0
14605  14611  14264  0
14269  14612  13957  0
13963  14613  13962  0
14270  14609  13964  0
14609  14610  14614  0
14610  14615  14614  0
14610  14608  14615  0
14608  14271  14616  0
14608  14616  14615  0
14271  14273  14617  0
14271  14617  14616  0
14273  14264  14618  0
14273  14618  14619  0
14273  14619  14617  0
14264  14611  14618  0
14620  14272  13957  0
14272  14620  14275  0
14621  14275  14620  0
14275  14621  13963  0
14613  13963  14621  0
13964  14609  13967  0
14609  14614  14278  0
14609  14278  13967  0
14615  14616  14622  0
14616  14617  14622  0
14623  14619  14624  0
14614  14615  14289  0
14614  14289  14278  0
14615  14622  14289  0
14622  14617  14625  0
14617  14619  14626  0
14617  14626  14625  0
14619  14623  14626  0
13975  13704  14627  0
13975  14627  14628  0
13975  14628  14283  0
13704  13976  14629  0
13704  14629  14627  0
14289  14622  14292  0
14622  14625  14294  0
14622  14294  14292  0
14625  14626  14294  0
14630  14626  14623  0
14279  14281  14280  0
14281  13974  13973  0
14281  13973  14282  0
12867  13970  14286  0
13971  13977  14287  0
14294  14626  14630  0
14294  14630  14631  0
14294  14631  14295  0
14632  14295  14631  0
13977  14298  14287  0
14302  14633  14634  0
14302  14634  14635  0
14302  14635  13988  0
14633  14302  14303  0
14304  13990  14636  0
14304  14636  14637  0
14304  14637  14303  0
14636  13990  14305  0
14636  14305  14638  0
14636  14638  14637  0
14638  14305  14639  0
14295  14632  14639  0
13992  14640  13976  0
13980  14641  14307  0
14286  14642  13985  0
14313  13985  14642  0
14298  13982  14643  0
13982  13986  14643  0
14301  14644  13994  0
14301  13988  14635  0
14301  14635  14645  0
14301  14645  14644  0
14305  14300  14639  0
14639  14300  14295  0
13993  14307  13998  0
14641  14646  14307  0
14307  14646  13998  0
14647  13998  14646  0
14648  14309  13994  0
14310  14649  14306  0
14310  14311  14649  0
14650  14649  14311  0
13998  14647  14314  0
14651  14308  14309  0
14648  14651  14309  0
13722  13997  14311  0
14317  14311  13997  0
14311  14317  14650  0
14652  14650  14317  0
13999  14315  14318  0
14315  14314  14653  0
13729  14313  14002  0
14317  14316  14652  0
14654  14652  14316  0
14316  14318  14654  0
14002  14655  14003  0
14656  14319  14006  0
14001  14006  14319  0
14657  14656  14006  0
14657  14006  14007  0
14657  14007  14658  0
14008  14659  14658  0
14008  14658  14007  0
14008  14321  14659  0
14660  14659  14321  0
14321  14322  14660  0
14661  14660  14322  0
14322  14011  14661  0
14325  14661  14011  0
13736  14323  14662  0
13736  14662  14324  0
14325  14326  14663  0
14328  14326  14327  0
14664  14328  14018  0
14332  14664  14018  0
14664  14332  14665  0
14333  14665  14332  0
14664  14665  14666  0
14665  14333  14667  0
14668  14667  14333  0
14665  14667  14666  0
14324  14662  14669  0
14324  14669  14330  0
14333  14334  14668  0
14335  14668  14334  0
14025  14668  14335  0
14337  14668  14025  0
14336  14329  14017  0
14017  14020  14336  0
14020  14331  14336  0
14670  14336  14331  0
14331  14671  14670  0
14331  14330  14671  0
14027  14337  14338  0
14337  14027  14672  0
14026  14024  14336  0
14336  14670  14026  0
14339  14026  14670  0
14670  14671  14339  0
14027  14340  14673  0
14339  14671  14674  0
14342  14340  14029  0
14339  14674  14341  0
14675  14342  14341  0
14674  14675  14341  0
14346  14345  14676  0
14345  14677  14676  0
14347  14346  14676  0
14678  14344  14350  0
14678  14677  14344  0
14344  14677  14345  0
14348  14347  14679  0
14348  14679  14680  0
14350  14681  14678  0
14350  14349  14682  0
14350  14682  14681  0
14348  14353  14035  0
14348  14680  14683  0
14348  14683  14353  0
14349  14351  14682  0
14351  14354  14684  0
14353  14685  14686  0
14353  14686  14356  0
14353  14683  14685  0
14358  14359  14363  0
14354  14360  14687  0
14354  14687  14684  0
14356  14686  14688  0
14356  14688  14357  0
13762  14689  14359  0
13762  14366  14689  0
14686  14690  14688  0
14363  14691  14368  0
14371  14365  14692  0
14365  14693  14692  0
14365  14694  14693  0
14365  14357  14694  0
14357  14688  14695  0
14357  14695  14694  0
14368  14696  14373  0
14697  14373  14696  0
14373  14698  14374  0
14373  14374  14372  0
