#!ascii file
 47.790859  -17.754374   13.885777  0
 -0.815625  -16.862429   13.920042  0
 45.804848  -16.706194   12.753127  0
  4.384185  -17.198074   12.186783  0
  3.169363  -16.759472   12.285165  0
  1.645563  -16.302530   12.665981  0
  0.347190  -16.546133   13.140330  0
 40.408020  -16.782745    9.613904  0
  2.805474  -16.731474   11.315836  0
 37.607819  -16.136150    4.905996  0
 36.529972  -15.447997    3.831597  0
 35.864170  -15.053709    3.455096  0
 35.253258  -14.592786    3.277579  0
 -0.957821  -16.144268    5.032792  0
 35.121181  -15.935947    3.059991  0
 62.735786  -14.759133    4.929406  0
 59.100296  -16.862617    3.727895  0
 45.588043  -16.545038    4.059042  0
 39.518429  -16.632957    3.258285  0
 34.726460  -16.026773    2.594936  0
  0.953880  -16.985395    3.008290  0
 64.760651  -14.696960    4.369519  0
 64.194710  -13.836470    4.752449  0
 55.117321  -17.230520    2.156187  0
 47.428947  -14.989953    3.623119  0
 42.595818  -16.067631    3.706107  0
 34.614201  -15.941200    1.573962  0
 65.554100  -14.764932    2.960567  0
 57.907024  -16.167429    2.005706  0
 50.779991  -16.022736    2.464404  0
 48.437233  -15.406018    3.007214  0
 38.451027  -16.220451    2.275574  0
 36.276428  -16.819637    2.169226  0
 65.814545  -15.092594    1.034207  0
 55.305084  -16.410118    1.346121  0
 52.760719  -16.359947    1.845233  0
 64.945633  -16.136080   -1.903077  0
  5.801033  -17.982220   -1.483174  0
 63.750877  -16.805975   -5.076658  0
 62.999863  -17.233541   -6.023917  0
 62.244228  -17.008001   -7.550322  0
  2.015752  -18.381887   -4.577028  0
 60.370277  -17.268574   -7.810939  0
 58.209915  -17.539606   -7.365667  0
 56.335701  -17.408115   -7.230292  0
 55.028862  -17.963560   -7.006402  0
 53.621048  -18.287889   -7.047853  0
 52.197395  -19.523802   -7.408148  0
 49.781387  -18.497131   -7.603770  0
 47.693645  -18.428383   -7.596534  0
 45.594002  -17.883137   -7.108159  0
 43.558468  -16.940109   -6.010131  0
 39.874859  -17.703312   -6.326472  0
 14.657047  -18.211208   -6.878575  0
 12.753011  -17.792002   -6.135762  0
 10.386106  -17.988089   -6.155292  0
  3.557032  -18.364416   -5.626806  0
 15.680524  -18.218046   -7.415814  0
 16.819731  -17.924992   -8.090887  0
  7.972620  -18.276669   -6.886009  0
 39.553848  -16.075699   -8.718691  0
 40.160618  -16.214254   -9.828336  0
 17.873617  -18.060532   -8.783045  0
 20.219530  -17.430843  -10.059184  0
 40.866581  -16.423756   -9.598460  0
 23.232220  -17.554359  -11.070714  0
 53.526485  -16.153263   -9.528568  0
 49.967239  -15.689713   -8.846304  0
 46.719410  -15.471831   -8.747179  0
 43.818573  -15.901800   -9.107106  0
 45.448666  -15.100589   -9.250062  0
 42.286697  -16.016045   -9.859586  0
 41.153950  -16.109798  -10.347623  0
 39.938011  -15.943142  -11.160702  0
 24.704670  -16.700697  -12.754706  0
 61.628899  -15.710585  -12.856090  0
 59.353653  -15.186628  -12.054507  0
 56.663319  -15.327792  -11.346948  0
 54.976944  -15.675592  -10.567959  0
 52.432125  -15.210644   -9.843060  0
 50.399307  -14.669644   -9.686052  0
 43.560059  -15.341060  -10.071252  0
 41.712212  -16.047787  -11.487366  0
 39.833328  -16.612089  -13.190969  0
 62.071060  -15.173698  -13.889794  0
 41.052162  -16.827837  -13.379392  0
 38.937290  -15.917012  -13.600034  0
 26.091635  -16.736883  -14.859556  0
 15.406407  -17.255714  -13.724144  0
 13.397396  -17.458296  -13.923913  0
 27.343691  -16.020609  -16.784960  0
 14.190664  -16.849140  -14.719591  0
 10.886898  -16.863153  -14.955527  0
 61.045368  -17.321014  -17.542339  0
 59.660019  -16.892605  -17.869293  0
 60.675274  -14.854487  -16.043335  0
 58.552620  -16.531124  -17.480150  0
 58.833843  -14.968574  -16.605581  0
 16.601994  -16.621744  -14.752596  0
  8.508300  -17.203604  -16.064827  0
 56.196362  -17.693365  -18.997013  0
 56.971077  -15.866441  -17.148155  0
 54.828281  -17.628588  -19.179869  0
 55.181217  -16.604202  -17.985252  0
 27.178846  -17.255817  -17.428062  0
 26.841040  -17.257719  -17.775681  0
 26.089659  -18.138401  -17.351053  0
 19.669359  -15.905285  -15.785782  0
  7.789216  -17.735285  -16.867245  0
 25.004841  -14.499197  -18.440718  0
 53.759041  -17.551544  -22.076334  0
 54.278515  -17.626040  -20.326981  0
  7.729311  -18.250263  -18.817415  0
 52.744778  -18.057747  -23.552910  0
  8.516870  -18.297827  -20.176695  0
 51.240948  -18.823212  -24.238817  0
  9.989178  -18.172209  -20.838886  0
 50.040688  -17.538561  -24.053333  0
 49.119030  -18.962442  -23.971624  0
 19.443041  -17.000269  -23.581158  0
 18.434120  -17.024513  -23.155787  0
 16.756792  -17.266048  -23.513557  0
 15.459456  -16.965729  -24.689461  0
 26.852766  -16.890961  -26.105326  0
 24.377859  -17.545958  -27.530916  0
 22.605530  -16.951040  -26.899868  0
 21.099676  -16.550011  -26.304567  0
 13.506889  -15.436990  -27.023527  0
  5.532463  -16.105366  -22.018200  0
 11.963361  -15.850756  -28.217508  0
  6.209791  -16.645657  -23.617073  0
 48.790474  -17.365538  -25.213831  0
 29.305344  -17.261330  -25.892794  0
 10.862338  -16.687355  -28.775148  0
  9.341361  -15.252176  -28.273901  0
 56.848362  -17.368189  -29.005348  0
 55.427261  -16.300810  -28.829979  0
 52.875389  -16.613842  -28.016394  0
 38.551064  -16.423445  -31.016954  0
 39.114353  -15.892361  -31.440004  0
 61.115593  -17.733580  -30.842417  0
 40.903137  -14.840324  -31.948833  0
 39.767178  -15.194864  -33.120792  0
 41.988052  -14.504735  -33.893265  0
 26.727934  -17.926601  -27.176577  0
 61.159744  -17.352676  -31.698782  0
 41.239178  -15.676234  -35.689770  0
 60.112617  -16.876581  -32.635143  0
 57.651207  -16.937578  -33.240265  0
 55.143112  -18.278215  -35.699692  0
 48.042618  -16.235512  -34.770920  0
 49.319767  -15.895939  -34.392097  0
 49.768051  -16.346035  -35.538239  0
 46.428581  -16.201187  -36.217388  0
 46.249622  -15.674258  -34.287739  0
 24.734873  -18.167782  -28.313234  0
 54.285931  -17.228174  -36.578926  0
 53.457108  -17.213501  -36.996765  0
 52.253601  -16.429525  -37.194927  0
 52.351505  -16.527607  -36.719738  0
 50.898308  -16.123339  -36.272678  0
 48.569874  -16.725821  -36.382435  0
 50.349476  -16.397688  -36.611115  0
 45.961845  -16.636026  -37.288502  0
 37.216900  -18.945660  -34.326599  0
 21.501505  -18.590683  -31.300398  0
 44.129692  -17.767349  -38.993195  0
 43.294544  -17.864872  -39.264427  0
 41.510532  -17.058981  -37.289291  0
 37.971951  -19.043503  -35.636356  0
 20.725380  -18.856550  -32.830811  0
 20.480234  -18.260447  -34.090202  0
 20.952766  -17.315060  -34.542633  0
 43.993290  -17.155226  -39.111504  0
 43.475559  -17.233122  -39.372620  0
 42.569027  -17.116520  -38.457020  0
 29.755186  -17.243608  -38.083527  0
 25.225426  -17.183619  -37.518070  0
 22.205009  -18.053905  -35.901436  0
 31.383001  -17.851088  -39.354977  0
 23.462238  -17.406574  -36.976334  0
 39.394314  -19.657688  -38.322033  0
 40.037548  -19.891291  -39.264053  0
 39.703079  -20.589996  -40.879047  0
 38.284107  -20.107586  -41.995106  0
 36.503464  -19.159594  -42.060993  0
 21.289619  -15.741772   63.376572  0
 20.052755  -16.330137   63.354950  0
 18.987913  -16.407318   62.993256  0
 18.007948  -15.647175   62.506504  0
 16.015991  -15.936821   59.084114  0
  9.122660  -15.921444   59.563831  0
 25.956318  -16.306568   59.683800  0
 16.029375  -16.969032   58.172176  0
 26.986969  -15.117485   57.548088  0
 12.150419  -14.695639   57.634121  0
 28.806755  -15.210424   57.131634  0
 13.235740  -14.870103   56.520550  0
 32.080513  -15.532237   55.008701  0
 30.395967  -14.974325   56.182320  0
 15.261799  -15.818531   54.849522  0
 34.532639  -15.105958   54.346584  0
 15.079551  -15.361042   52.769276  0
  0.489344  -17.581839   50.063667  0
  0.397123  -16.858414   47.072895  0
 45.566368  -15.700839   49.559982  0
 43.112915  -15.767294   50.445259  0
 40.617619  -15.732383   50.103256  0
 39.652576  -15.509797   49.564529  0
 39.110016  -15.590692   48.494411  0
 37.746014  -16.926147   45.773979  0
 38.289295  -14.909056   46.975208  0
 37.462536  -17.024752   44.597584  0
  0.604214  -15.063437   43.673386  0
 37.962925  -15.188115   44.758469  0
 36.868576  -17.402296   43.696632  0
 36.332417  -17.322004   42.247303  0
 24.331182  -18.694767   42.075653  0
  0.709564  -14.521471   41.496403  0
 24.865374  -18.739483   40.764565  0
  0.246621  -15.342999   40.701092  0
 25.253132  -19.402889   40.040039  0
 23.405130  -18.011667   40.760906  0
  0.201416  -14.806642   39.419720  0
 51.938293  -18.685699   43.486965  0
 53.002419  -18.822309   41.573139  0
 50.372818  -19.267277   43.894810  0
 49.278843  -18.466078   44.402683  0
 47.184792  -18.721888   42.668396  0
 36.304790  -14.302258   41.511738  0
 24.528128  -18.497370   39.759090  0
 -0.054446  -15.279943   37.766632  0
 46.193188  -18.771856   41.002132  0
 43.013195  -17.563349   37.757591  0
 33.697529  -17.621040   37.828403  0
 23.341690  -18.168825   39.742420  0
 53.729637  -18.015408   40.473927  0
 53.694252  -16.799307   39.762653  0
 45.340710  -18.364388   39.704731  0
 35.679272  -15.188148   38.920742  0
 35.359447  -15.213551   37.992043  0
 32.850071  -17.441019   36.316574  0
  0.694897  -14.932758   36.923367  0
 53.793385  -16.843479   38.617783  0
 34.415424  -14.832983   36.886875  0
 54.317722  -17.331150   37.849400  0
 42.828999  -19.663769   36.258598  0
 43.432663  -18.959961   37.666546  0
 33.888470  -14.760402   35.861172  0
 32.438545  -17.208490   35.400547  0
  7.390121  -15.790060   32.524162  0
  5.722209  -15.716908   33.134853  0
 54.712833  -17.043697   36.755150  0
 54.998177  -17.329365   34.822281  0
 53.590416  -19.147690   34.390263  0
 42.023247  -19.166170   33.862038  0
 43.071419  -20.262232   32.388229  0
 42.088650  -19.161287   35.025883  0
 32.468792  -16.370211   34.502197  0
 54.137375  -17.933306   33.871098  0
 52.235222  -18.966663   33.256573  0
 41.150322  -18.732903   32.179092  0
 41.963673  -19.864767   31.435688  0
 38.639687  -18.070024   31.726486  0
 49.009293  -18.743818   31.103203  0
 45.091587  -20.088415   29.731110  0
 43.024231  -20.285385   30.615816  0
 37.028267  -17.777622   29.586672  0
 12.209402  -15.612576   30.152416  0
 47.147648  -19.330261   29.825216  0
  0.844189  -16.099817   33.368900  0
  2.176891  -17.266825   33.716206  0
 43.359497  -20.004879   29.251720  0
 12.195012  -15.537705   28.990993  0
  4.178525  -17.456404   33.391903  0
  3.111696  -16.394619   33.851013  0
  6.229422  -17.064232   32.128754  0
  5.541610  -15.650582   33.035736  0
 61.817104  -14.395540   31.095057  0
 60.472725  -14.646066   31.114296  0
 62.946339  -15.085755   29.751158  0
  0.003226  -17.159311   29.035196  0
 63.450317  -16.354424   27.613510  0
 56.859074  -15.598722   28.937204  0
  8.273129  -16.457989   30.547031  0
  0.346106  -17.210579   26.999378  0
  1.215580  -16.023659   28.157103  0
  0.995188  -16.113153   26.743298  0
 61.932098  -16.663063   26.472120  0
 56.547867  -15.080790   27.552425  0
 11.734809  -15.119551   28.531300  0
  1.171101  -16.210613   25.031164  0
 59.848278  -16.673019   25.321976  0
 34.421158  -16.898470   26.186886  0
 59.600414  -16.093401   24.068508  0
 53.398037  -15.657063   25.043594  0
 55.530605  -15.186164   26.351503  0
  2.094717  -15.828877   24.384832  0
 51.306881  -16.135132   24.908016  0
 37.271694  -17.154909   25.536226  0
 35.921619  -16.847424   25.471727  0
 44.245220  -17.790329   25.161247  0
 64.451096  -17.137070   20.195303  0
 62.969299  -16.181587   20.386616  0
 60.383537  -15.251886   22.527798  0
 65.603668  -16.667671   18.266932  0
 64.496002  -16.039755   19.175241  0
 65.687820  -16.176233   16.836378  0
 59.264175  -17.200085   16.038145  0
 62.361626  -17.506413   15.452361  0
 56.401718  -17.896812   16.219564  0
 65.064583  -16.745745   15.243160  0
 56.545151  -17.997696   14.288136  0
  0.979638  -16.933136   19.480291  0
 -0.710196  -16.632711   15.860251  0
 -0.698871  -15.841701   14.458069  0
 57.423225  -17.409025   11.104818  0
 55.715015  -18.108683   11.360922  0
 53.838657  -18.478504   11.533696  0
 52.393250  -18.345350   11.777563  0
 49.212238  -16.924845   12.577985  0
  4.117254  -16.483265   12.764863  0
 55.127750  -17.968298   10.680182  0
 43.468765  -16.742487   11.128761  0
  4.198835  -15.948266   13.250623  0
 -0.685707  -16.236164   10.089853  0
 -1.276329  -15.115585    8.896375  0
 34.451992  -14.688606    2.926635  0
 34.667717  -13.699615    4.001181  0
 -1.313456  -15.587893    6.665722  0
 62.283237  -13.632517    4.150056  0
 61.557106  -14.618007    4.020448  0
 63.753128  -12.863772    4.456749  0
 44.787884  -15.348297    3.023466  0
  3.029666  -16.797049    1.992150  0
  2.151956  -14.813461    3.731473  0
  3.727895  -15.521717    2.088641  0
 65.054695  -13.275585    3.991811  0
 59.861015  -15.191917    2.404013  0
 48.679794  -14.730320    3.347177  0
 47.650299  -14.518595    4.119001  0
 46.697197  -14.913067    3.658160  0
 43.794361  -14.525406    2.614296  0
 42.493286  -14.720868    2.886662  0
 40.748230  -14.975760    3.199858  0
 37.140213  -15.363154    1.098969  0
 33.776863  -14.990120    1.772762  0
 65.751175  -13.177711    2.411122  0
 61.224674  -13.701055    2.807300  0
 51.919491  -15.247856    2.421160  0
 50.129215  -14.684772    3.209392  0
 38.558002  -15.311898    1.906735  0
 65.869415  -13.635193   -0.143020  0
 60.297897  -14.256869    1.364990  0
 58.900364  -15.245859    0.754235  0
 57.151489  -15.700364    0.644741  0
 55.755928  -15.153886    0.680606  0
 65.364952  -14.889255   -2.077870  0
 57.525059  -15.121193   -0.068015  0
 64.530823  -15.802719   -4.453732  0
 63.977692  -16.610683   -6.703160  0
 57.443542  -16.770195   -7.748127  0
 59.147591  -16.716866   -8.067404  0
 52.104481  -15.950212   -7.075459  0
 50.490540  -16.878071   -7.198882  0
 48.754570  -16.109142   -6.911471  0
 47.196674  -15.947095   -6.546333  0
 45.889778  -16.182734   -6.232399  0
 11.997128  -17.139273   -5.982961  0
 14.815736  -17.379253   -6.778119  0
  5.619252  -18.066916   -5.864742  0
 61.246246  -16.146563   -8.605053  0
 39.496819  -16.721554   -7.030910  0
 14.897935  -17.625927   -6.600703  0
 11.960552  -16.567078  -10.898463  0
 14.635903  -16.659828   -8.793307  0
 11.718088  -16.728651   -7.793878  0
 39.261631  -14.878223  -10.449953  0
 18.705189  -17.053192   -9.829700  0
  9.549531  -16.603802   -9.578155  0
 21.303089  -15.884669  -12.163466  0
 47.966885  -14.465907   -9.546445  0
 39.135170  -14.813153  -12.009384  0
 57.924469  -14.485134  -12.102304  0
 54.018490  -15.090468  -11.126508  0
 51.384197  -14.388245  -10.693513  0
 49.033173  -14.000995  -10.364207  0
 45.780338  -14.414635  -10.537941  0
 47.889038  -13.706376  -11.605333  0
 43.731819  -15.224702  -11.205346  0
 38.583820  -15.091516  -13.741056  0
 25.326628  -15.953269  -13.903758  0
 60.545433  -14.220042  -13.580219  0
 58.893143  -13.745483  -13.163765  0
 57.196140  -13.862041  -12.869063  0
 55.187542  -14.574827  -12.617617  0
 53.473804  -14.910397  -12.184826  0
 44.474224  -15.015434  -12.380957  0
 42.741222  -16.251659  -13.497495  0
 44.148090  -15.102275  -13.779260  0
 41.519951  -16.669226  -14.300035  0
 39.790596  -16.422579  -14.558048  0
 59.041004  -13.804235  -15.654293  0
 57.560329  -13.570594  -15.539590  0
 56.926243  -13.970546  -16.323847  0
 40.795727  -16.032228  -15.307796  0
 18.445044  -16.476461  -15.144732  0
 15.262465  -16.923508  -14.957845  0
 11.683127  -16.032120  -15.660727  0
  8.971071  -16.116119  -16.503881  0
 55.378464  -15.229158  -17.239393  0
 54.391460  -16.280254  -18.185209  0
 39.495922  -14.809694  -16.114023  0
 27.792362  -15.243416  -18.215418  0
 16.966471  -16.406830  -16.641342  0
 15.067350  -16.432871  -16.462446  0
  9.229746  -15.050704  -17.151171  0
 53.872097  -16.688522  -20.274744  0
 27.387163  -15.542852  -18.584545  0
 27.100775  -16.626759  -18.240221  0
 20.776056  -14.422482  -17.422579  0
 20.163446  -15.045076  -16.964846  0
 23.166859  -14.275762  -17.743231  0
  7.506403  -17.063181  -17.544418  0
 23.890041  -14.488564  -17.837282  0
  6.728735  -16.877096  -18.475000  0
  6.922855  -16.925014  -19.529638  0
 52.431038  -16.724113  -22.880365  0
 51.127621  -16.927170  -23.728804  0
 16.875998  -16.745811  -23.271940  0
 15.028041  -16.048182  -24.415838  0
 27.931738  -16.085732  -25.089653  0
 29.171844  -14.702312  -24.449223  0
 24.715530  -16.547882  -26.784760  0
 13.110876  -14.765127  -26.655540  0
  6.215766  -16.625191  -20.011906  0
  5.738903  -15.773205  -20.723701  0
  6.123245  -15.364526  -21.784611  0
  7.100295  -16.184647  -22.915823  0
 29.856363  -16.000376  -25.145346  0
 11.584999  -14.564524  -27.566685  0
  7.561066  -15.786525  -23.795641  0
  8.476931  -14.616871  -27.852884  0
 28.974482  -16.326429  -26.173693  0
 45.588070  -15.286758  -31.467211  0
 42.934315  -15.265285  -29.476658  0
 46.478500  -14.707186  -30.181871  0
 45.148449  -15.165728  -32.725578  0
 44.112057  -14.924175  -31.783934  0
 42.792828  -15.172807  -30.630440  0
 42.756817  -14.499372  -31.999880  0
 42.068935  -15.494864  -29.865232  0
 40.549702  -15.617904  -30.491711  0
 27.369820  -16.825529  -26.408962  0
 60.738091  -16.173216  -30.297098  0
 58.826504  -15.824476  -29.460098  0
 48.055553  -15.464213  -32.455269  0
 43.802242  -14.505140  -33.185459  0
 61.328110  -15.727896  -30.963928  0
 60.999687  -15.724817  -32.174702  0
 44.108845  -14.768370  -34.754204  0
 43.103558  -14.983246  -35.798588  0
 25.882416  -18.108227  -27.692282  0
 57.524689  -15.943650  -33.596397  0
 56.359375  -17.321693  -34.891960  0
 44.636608  -15.504368  -36.554676  0
 43.607040  -16.305939  -38.070694  0
 37.612179  -17.847244  -34.023029  0
 22.985769  -18.134604  -29.489414  0
 20.397552  -17.959770  -32.834507  0
 20.189005  -17.581131  -31.261703  0
 21.299109  -17.960672  -30.381819  0
 19.841980  -16.663939  -32.650551  0
 55.471924  -17.547436  -37.329708  0
 53.738605  -16.663441  -37.459637  0
 51.370598  -15.979396  -36.402206  0
 26.521988  -16.130478  -37.763729  0
 22.962669  -16.895046  -36.057671  0
 38.668148  -18.539213  -37.336201  0
 30.499792  -16.658636  -38.598595  0
 28.600056  -15.080904  -38.310291  0
 40.433918  -20.015528  -40.895874  0
 32.453541  -15.799516  -40.544098  0
 33.942291  -16.646072  -41.064606  0
 39.355461  -19.637791  -42.080257  0
 38.155144  -18.386765  -42.355778  0
 35.821682  -17.005653  -41.826153  0
 23.087870  -14.103148   62.747639  0
 24.717979  -15.479887   61.690132  0
 20.261314  -14.871828   63.882603  0
 19.101122  -15.087726   63.656147  0
 25.322577  -15.122922   60.592758  0
 16.599035  -14.700348   61.143124  0
 25.437885  -14.995252   59.286781  0
 25.896460  -14.824930   58.142395  0
 15.490241  -15.938329   58.106800  0
 10.954283  -14.905149   58.474861  0
  7.051823  -16.190733   60.299244  0
  4.397998  -16.134058   61.074585  0
  9.378742  -14.388039   57.958111  0
  1.490683  -16.888535   60.358952  0
 28.079193  -14.523663   56.631016  0
 15.924137  -16.951992   56.265736  0
 15.361341  -15.762119   56.694897  0
  0.426537  -17.191383   57.508228  0
 29.029720  -14.233796   55.848217  0
 12.186571  -14.274547   55.595741  0
 30.999887  -14.603006   54.738724  0
 29.299929  -13.635034   54.129604  0
 15.421245  -15.485119   54.902058  0
 13.859431  -15.073263   53.849701  0
 15.428369  -15.928321   53.665367  0
 37.177521  -14.127585   53.445610  0
 32.425205  -14.448224   54.278248  0
 30.304535  -13.363307   53.658936  0
 38.625523  -14.032967   52.007252  0
 13.380475  -14.512586   52.237949  0
  0.025861  -15.823693   50.794277  0
 39.459831  -15.079320   50.049042  0
 13.757321  -14.089913   51.470055  0
 -0.124989  -15.945336   48.605160  0
 44.317001  -14.633132   50.127388  0
  0.038682  -15.174398   46.692055  0
 46.262230  -15.845922   48.494644  0
 39.061592  -14.179931   48.663494  0
 38.819378  -15.474598   48.224537  0
 45.686260  -15.171967   47.123943  0
 45.440758  -15.320804   45.485645  0
 45.205353  -15.908171   43.728920  0
 38.112942  -14.047737   45.540623  0
 36.895168  -14.721643   43.100433  0
 43.880779  -16.417753   41.220272  0
 36.008839  -16.582996   41.171764  0
 50.585472  -18.369083   44.805611  0
 51.146183  -17.161961   44.919724  0
 34.628399  -16.516155   38.789211  0
 53.641174  -17.201689   41.683956  0
 47.314426  -16.684868   44.638386  0
 43.009617  -17.040213   39.179596  0
  1.058093  -13.955686   38.368042  0
 45.616039  -17.910423   42.214012  0
 36.142601  -13.298683   38.119591  0
 33.936279  -15.949614   37.230656  0
 45.312271  -17.634460   41.114410  0
 44.624840  -16.960344   39.845295  0
 42.104008  -18.130379   36.055614  0
 35.849396  -14.145758   37.353920  0
 52.768631  -15.625935   38.723328  0
 44.296135  -17.747889   38.692352  0
 33.135700  -15.735857   35.563938  0
  2.472121  -14.746936   35.789490  0
 53.552219  -15.792949   37.808388  0
 51.626598  -13.506608   37.106667  0
 33.030502  -14.489778   34.169395  0
  5.169616  -14.256524   34.060345  0
 42.562920  -18.510378   36.509941  0
  7.019842  -14.710179   32.724354  0
 55.298668  -15.741046   36.088654  0
 53.791355  -14.565485   37.114170  0
 40.029053  -17.909935   33.210533  0
 33.758724  -14.220555   34.831532  0
  8.944602  -14.816637   32.374229  0
 54.537781  -16.601818   33.324310  0
 33.186222  -14.455459   34.011864  0
 32.394535  -13.233388   33.238907  0
 10.836977  -14.738122   31.754545  0
 51.882896  -17.453945   31.824167  0
 40.490852  -18.510868   30.575840  0
 50.869625  -17.227291   30.501459  0
 49.043869  -17.914347   29.091690  0
 41.485275  -19.500040   29.790833  0
  2.488008  -15.085342   34.149220  0
 46.811573  -18.299065   28.099730  0
 43.974342  -19.309124   28.099295  0
 39.976311  -17.839314   28.840021  0
  0.505254  -16.099976   31.130816  0
 41.535622  -18.677456   27.932264  0
 35.353462  -16.876524   27.389137  0
 60.706005  -14.215819   30.946289  0
 61.949780  -13.805212   30.453827  0
 59.881691  -14.399982   30.063364  0
 44.152573  -18.236620   27.148855  0
 42.348484  -18.570068   27.264917  0
  7.669698  -15.214767   31.295994  0
  0.814180  -15.724355   29.510300  0
 63.935921  -15.149787   27.512629  0
 58.196419  -14.413328   28.987307  0
  1.907977  -15.197920   27.065979  0
 63.008926  -16.051979   26.253487  0
 63.852715  -15.411507   26.307144  0
  2.235785  -15.278961   25.258242  0
  3.160648  -14.565660   26.341188  0
 61.615482  -15.497623   25.390335  0
 10.035978  -15.847907   29.066963  0
 10.925113  -14.033612   28.983875  0
 61.162434  -14.664420   24.179344  0
 54.844391  -13.840335   25.195309  0
 53.107899  -14.614668   24.828142  0
 51.965965  -15.169853   25.210005  0
 41.697479  -18.588787   26.150043  0
 61.062790  -14.156887   22.675817  0
 50.798172  -15.876655   25.609009  0
 47.103832  -17.518112   25.007654  0
 62.150879  -14.420737   20.415154  0
 62.243839  -13.551208   20.686848  0
  2.020250  -16.020733   23.431072  0
 63.643154  -14.558359   19.001041  0
  2.292705  -17.148245   21.969875  0
 65.177666  -15.073126   14.832981  0
 61.801178  -16.645327   14.831548  0
 58.442936  -16.962267   14.642550  0
  1.503625  -16.882511   21.069098  0
 63.687832  -16.505726   14.582018  0
 61.692429  -15.876255   13.920592  0
 60.724205  -15.725563   13.184993  0
 -0.273101  -16.170713   17.691200  0
 -1.248859  -15.516541   15.959934  0
 58.739807  -16.739868   11.912487  0
 59.461773  -16.296881   12.566516  0
  0.274032  -14.878300   13.775029  0
 58.562595  -16.629063   10.674094  0
 59.440548  -15.156702    9.968651  0
 60.104942  -15.416321   11.167687  0
 50.448112  -17.291212   11.502657  0
 47.713940  -16.444944   12.866831  0
  2.639181  -15.162281   13.185249  0
  1.389443  -14.998292   13.333282  0
 58.430107  -15.910937    9.678073  0
 57.446243  -16.708431    9.421693  0
 56.323322  -17.411634    9.582911  0
 55.193527  -17.397068    9.655396  0
 53.756565  -17.651947    9.833193  0
 51.638939  -17.241768   10.028848  0
 44.972298  -16.614437   11.175198  0
 58.902637  -14.195605    8.824368  0
 56.563255  -16.344954    8.285941  0
 55.212902  -17.127962    8.472843  0
 53.454643  -16.929352    8.647721  0
 41.863701  -16.543688    9.569049  0
  4.176805  -16.212425   12.707560  0
 57.557739  -14.707971    7.773347  0
 55.484184  -16.425148    7.479494  0
 56.878387  -14.962135    6.731057  0
 54.336964  -16.728132    7.295190  0
  1.713602  -15.472292   11.535187  0
  0.250814  -13.885458   11.781955  0
 -0.893343  -13.333278   11.043541  0
 55.261185  -15.762808    6.240400  0
 40.055038  -16.450554    7.790092  0
 38.987823  -16.261297    5.796137  0
 33.299706  -13.401692    5.707096  0
 34.354694  -13.386523    5.011835  0
 37.494938  -14.852447    3.283293  0
 35.725758  -13.905435    3.341362  0
 33.658245  -12.993733    5.250232  0
 -0.061916  -14.955276    4.435150  0
 41.395920  -13.997160    2.998123  0
  4.795184  -15.679307    0.842634  0
 64.720741  -11.769150    3.516348  0
 62.949638  -12.072347    3.456712  0
 51.978268  -14.323746    2.988019  0
 49.247536  -13.908530    4.393263  0
 39.653385  -14.130765    2.112760  0
 35.122257  -14.816526    0.490921  0
  6.285912  -15.878879   -0.868046  0
 65.654045  -12.239202    1.556237  0
 63.787067  -11.034341    3.029989  0
 62.447285  -11.701030    2.605752  0
 53.810490  -14.754123    1.808846  0
 36.523865  -13.874802   -0.030352  0
  7.177383  -16.022221   -2.005564  0
 61.451771  -12.526676    0.720359  0
 62.932964  -11.262551    2.068695  0
 59.769238  -13.976610   -0.205417  0
 58.568176  -14.415274   -0.639093  0
 65.042282  -14.301155   -2.885978  0
 65.020271  -15.454638   -6.523530  0
 44.618416  -15.507956   -5.569830  0
 64.275642  -15.952481   -8.165157  0
 56.851185  -15.777930   -7.428728  0
 59.289913  -15.711031   -8.159566  0
 54.867661  -15.486167   -7.089141  0
 50.473469  -15.588907   -6.949032  0
 42.950001  -16.252857   -5.703369  0
 41.343254  -16.452892   -5.763943  0
 40.213726  -16.360624   -6.257297  0
 63.072445  -15.805171   -8.784304  0
 15.013027  -16.938023   -7.737497  0
  5.556582  -15.112962   -8.017834  0
  7.216575  -16.050205   -9.005492  0
  6.484506  -15.254197   -6.000365  0
 17.183960  -16.809454   -9.437692  0
 16.689014  -16.415560  -10.868833  0
  6.620664  -15.512177  -10.881614  0
  5.301473  -14.846026   -9.091236  0
 18.785725  -16.253206  -11.489000  0
  8.575976  -16.218145  -11.107236  0
  5.230242  -14.044301  -10.029960  0
 23.252687  -15.839694  -12.598780  0
 16.297422  -16.029894  -12.635204  0
 10.540779  -16.031862  -12.596631  0
  8.384136  -15.538591  -12.698708  0
 25.308599  -14.010105  -14.979623  0
 19.318192  -15.317807  -13.276955  0
 14.194569  -15.661568  -13.744102  0
 10.667460  -15.268252  -13.878119  0
 61.469776  -14.509841  -14.861801  0
 59.830307  -13.626107  -14.621002  0
 58.217693  -13.238343  -14.283240  0
 56.223778  -13.496184  -13.945339  0
 52.905266  -14.446667  -12.974822  0
 49.807449  -13.320813  -12.821437  0
 46.340996  -13.948410  -12.621462  0
 17.058626  -15.137264  -14.350700  0
  9.600774  -14.487669  -14.119579  0
 56.307838  -12.735379  -14.539340  0
 53.898922  -13.388907  -14.025196  0
 51.891827  -13.807845  -13.517458  0
 47.926441  -13.284339  -13.193486  0
 45.231060  -14.202471  -13.660897  0
 46.503330  -13.104218  -14.159166  0
 38.466652  -14.049057  -15.152615  0
 56.957401  -12.761317  -15.550610  0
 43.580631  -15.224900  -14.625098  0
 44.055748  -14.172679  -14.789428  0
 42.588886  -15.316415  -15.243643  0
 56.515335  -13.274989  -16.682077  0
 54.780502  -14.969141  -17.988419  0
 41.186840  -14.207748  -16.635216  0
 42.861565  -13.227110  -16.173222  0
 16.893829  -15.806923  -17.240717  0
 12.644295  -14.998190  -17.651693  0
 13.031769  -15.876102  -16.972958  0
 19.490250  -15.464418  -16.626694  0
 14.916837  -14.942453  -17.807114  0
  7.385864  -15.565676  -17.754841  0
 54.260281  -15.691802  -19.492363  0
 21.589310  -13.374222  -18.457142  0
 23.754618  -13.396824  -18.965281  0
 53.527145  -16.066120  -21.362871  0
  6.451237  -15.704229  -19.021864  0
  6.072039  -15.826733  -19.967175  0
 19.590876  -16.664257  -25.298561  0
 19.102947  -16.424238  -23.920120  0
 17.122452  -16.077723  -23.704695  0
  6.506988  -14.123404  -21.258234  0
 25.856939  -15.903937  -25.784624  0
 22.636330  -16.135073  -26.690149  0
 11.894851  -13.863144  -27.223793  0
  7.807571  -15.018084  -23.200184  0
  7.021675  -13.867304  -22.157061  0
  8.178183  -14.920116  -24.435942  0
  9.483133  -13.594828  -27.286039  0
  8.436510  -14.871628  -25.268950  0
  8.566079  -14.023053  -27.345047  0
 49.891159  -16.190172  -25.453896  0
 30.241453  -14.353563  -26.066113  0
 51.587551  -15.806343  -26.936501  0
 44.963570  -14.467503  -29.050814  0
 42.570637  -14.612798  -28.871576  0
 39.820641  -15.414005  -30.037216  0
 53.951412  -14.797650  -28.303864  0
 25.735907  -16.698492  -26.798359  0
 39.439247  -15.132671  -30.555475  0
 37.957119  -16.819384  -32.154202  0
 24.027660  -16.403477  -27.279776  0
 23.349903  -17.485643  -28.110086  0
 21.827343  -16.828230  -28.619112  0
 49.021683  -15.360662  -33.169769  0
 48.828403  -13.951159  -31.597645  0
 50.000278  -14.656750  -34.077309  0
 19.451689  -16.207413  -30.277193  0
 19.691027  -15.504842  -29.197138  0
 18.553339  -15.361878  -31.712774  0
 18.459745  -14.913068  -30.647810  0
 59.572433  -15.427788  -32.966587  0
 57.792610  -15.098803  -34.097370  0
 57.325378  -16.698677  -36.050129  0
 56.353230  -17.714375  -36.486244  0
 56.817131  -17.047104  -37.847744  0
 50.368359  -15.429342  -35.118515  0
 51.123375  -14.992856  -36.437832  0
 18.720963  -14.248917  -32.875359  0
 55.704723  -16.946486  -38.957394  0
 53.184952  -15.596101  -38.567944  0
 51.913303  -15.209176  -37.496239  0
 51.857220  -14.781322  -38.216774  0
 20.357040  -15.813126  -33.581768  0
 54.817711  -15.752868  -39.852726  0
 56.338253  -16.326408  -39.680943  0
 53.703915  -15.059978  -40.043434  0
 53.190407  -14.343414  -39.924797  0
 38.355507  -17.419182  -35.688557  0
 24.137672  -14.888863  -36.153858  0
 24.435749  -15.915664  -36.813774  0
 22.348480  -15.518847  -35.113403  0
 55.949997  -15.157691  -40.720871  0
 54.672112  -14.343740  -40.271049  0
 25.880508  -14.719026  -37.374931  0
 25.618334  -15.573406  -37.257061  0
 55.496368  -14.071761  -40.727737  0
 56.001598  -14.333647  -41.349476  0
 54.070103  -13.870191  -41.009026  0
 30.480938  -15.211401  -39.278061  0
 27.230688  -14.358000  -37.755230  0
 55.712456  -13.761464  -41.053139  0
 55.103455  -13.633929  -41.426834  0
 39.536415  -18.399836  -37.981304  0
 40.817337  -19.452705  -39.474552  0
 41.311043  -19.312456  -39.741947  0
 40.576508  -18.389267  -38.668690  0
 41.202179  -19.093542  -41.020737  0
 41.632839  -18.746031  -39.553646  0
 40.294304  -17.979258  -42.281281  0
 21.175943  -13.078638   63.800739  0
 19.128515  -12.864706   64.104446  0
 18.348560  -13.807593   63.601982  0
 17.376120  -13.314810   62.212036  0
 24.409193  -13.426640   61.193501  0
 24.846180  -14.079411   59.737282  0
 15.911289  -13.115012   60.326595  0
 24.827518  -13.255016   57.227154  0
 15.541734  -14.485467   58.104492  0
  7.695727  -15.010032   59.499195  0
  5.608777  -15.417993   60.923069  0
 25.587498  -13.406785   55.894543  0
 10.897927  -13.956455   56.782524  0
  8.310874  -14.305776   58.544510  0
  0.664436  -15.698410   60.069675  0
 26.706385  -13.229925   54.605923  0
 10.172123  -13.699791   56.800247  0
 11.473060  -13.381788   55.110134  0
  0.251847  -16.373682   54.198730  0
 27.602158  -13.172915   53.195210  0
 25.990540  -12.500845   52.642944  0
 12.149422  -13.912809   52.889137  0
 11.734255  -13.160937   53.490524  0
 35.057278  -13.651052   54.401051  0
 33.503452  -13.055190   54.540100  0
 25.333027  -12.886841   50.311989  0
 25.385355  -12.353132   51.214355  0
 28.944958  -12.737350   52.477024  0
 27.252226  -13.012156   50.526875  0
  0.265655  -14.449627   48.639030  0
  0.314438  -14.646453   50.758759  0
 31.838140  -12.418161   54.240417  0
 30.018461  -11.286234   53.353516  0
 -0.219902  -14.998693   47.955662  0
 25.224312  -12.884204   48.880886  0
 15.089784  -14.527615   52.545898  0
 42.226326  -13.963569   50.310837  0
 45.469646  -14.365117   49.310886  0
 39.661209  -13.315919   50.041309  0
 39.162800  -15.466041   49.423111  0
 39.070171  -14.210953   49.111408  0
 27.708395  -12.112304   50.103577  0
  0.237813  -14.386006   46.342106  0
 45.518314  -14.072732   48.460255  0
 38.116737  -14.061985   46.899601  0
 37.357471  -15.365408   44.531830  0
  1.303440  -13.543214   43.070988  0
 45.374260  -14.253439   45.164314  0
 37.940418  -13.444779   44.790733  0
 36.499889  -15.249170   42.498734  0
  1.525457  -13.509659   40.926781  0
 44.667374  -15.895623   42.278088  0
 52.753666  -15.877562   43.439983  0
 53.730000  -15.760103   41.997147  0
 49.501804  -16.172621   45.937195  0
 35.437584  -15.415710   39.927628  0
  3.631431  -12.816819   40.524323  0
  2.959747  -12.824653   39.426838  0
 53.758423  -14.874145   40.959797  0
 45.503502  -17.083572   43.128017  0
 43.967987  -16.220026   40.291874  0
  4.669389  -12.570077   38.929295  0
  3.744802  -12.666572   38.483723  0
  3.879440  -12.925071   37.025524  0
  2.899719  -12.881482   38.160301  0
 52.971745  -14.975284   39.741005  0
 44.743031  -16.934998   41.481842  0
 36.222725  -13.064619   39.327141  0
 34.733837  -14.086967   38.239197  0
 34.009605  -14.891784   36.642803  0
 51.844307  -13.399693   38.225441  0
  4.518973  -13.045564   36.032700  0
 50.845314  -12.699133   37.321968  0
 50.084816  -12.997173   36.542889  0
 33.583939  -14.584720   35.380409  0
  6.997040  -13.474137   33.731571  0
  6.080274  -12.583613   35.716469  0
 49.507202  -13.330329   35.710022  0
 47.843262  -12.938102   35.974140  0
 47.227249  -13.143223   34.662605  0
 41.507004  -18.458784   34.807842  0
 34.532627  -13.758226   35.171139  0
 33.435432  -13.915839   34.980068  0
 33.204578  -13.946938   34.422600  0
 55.626091  -14.666184   35.910259  0
 55.703632  -15.225950   34.812958  0
 55.019314  -14.199058   36.561028  0
 52.251122  -12.953050   36.853233  0
 54.402023  -12.530983   36.474995  0
 48.476406  -13.223447   34.315132  0
  8.975595  -13.606701   32.810883  0
 55.730324  -14.789547   33.125275  0
 50.856506  -12.830694   35.939068  0
 39.743233  -18.076258   31.759542  0
 34.146755  -13.233754   33.894642  0
 10.956746  -13.382655   31.907223  0
 54.527374  -15.167049   31.810133  0
 33.386318  -12.906441   33.255905  0
 11.574329  -14.060687   30.963785  0
 52.661667  -16.152813   30.739159  0
 38.707603  -17.717930   30.003929  0
  2.238352  -13.554743   34.055267  0
  0.942143  -13.534212   33.427765  0
  3.699692  -13.735474   33.944881  0
 51.822956  -16.115427   29.594051  0
 11.572508  -12.863901   30.319555  0
 11.785145  -13.236610   29.074722  0
  5.535237  -14.075351   33.316952  0
  0.347924  -14.627112   32.466282  0
  0.603486  -14.730226   30.767025  0
 50.316986  -16.374357   28.083517  0
 49.227779  -16.632616   27.291969  0
 37.528950  -16.867563   28.109783  0
  6.568092  -14.374578   32.499744  0
  1.706706  -14.621723   28.542538  0
 47.363125  -17.167917   26.827152  0
 40.571236  -17.987793   27.380367  0
 39.104134  -16.954197   27.191351  0
  2.892189  -14.367522   27.135281  0
 63.393852  -13.302441   28.801346  0
 61.021458  -13.560016   30.068247  0
 59.807457  -13.591077   29.160282  0
 44.840336  -17.487150   26.151247  0
 46.891319  -17.182781   25.834270  0
 42.843071  -18.318249   26.425001  0
  9.065153  -13.458868   30.723824  0
 64.075699  -14.233828   26.459908  0
 58.174435  -13.426336   28.191877  0
 40.424858  -18.130922   26.721544  0
 38.180420  -16.905622   26.021357  0
 36.099857  -16.312576   26.288414  0
 63.186665  -14.693356   25.098646  0
 57.256233  -12.839881   26.774670  0
 62.129330  -13.186899   21.550032  0
 63.068047  -11.798776   19.745689  0
  0.955470  -15.286351   23.047422  0
  0.491544  -15.696358   22.042686  0
 63.298485  -12.927319   19.427301  0
 64.501205  -14.144752   17.300751  0
 63.624096  -12.036062   18.341406  0
  0.241766  -16.120741   20.775909  0
 65.134415  -14.120477   15.417641  0
 -0.416993  -16.005051   18.712914  0
 -0.526941  -15.435349   19.209902  0
 64.565521  -14.814742   13.696264  0
 63.247768  -15.246367   13.600581  0
 -1.155007  -14.788706   17.303328  0
 62.457901  -14.405651   12.233589  0
 62.300838  -13.407121   10.643307  0
 -1.179448  -14.301044   14.891019  0
  2.560202  -14.014556   13.588632  0
  0.924746  -13.517511   13.859996  0
 60.721901  -14.013788    9.941573  0
 61.255367  -12.252169    9.967147  0
  3.236518  -14.294662   13.848052  0
  3.992747  -13.782548   14.244024  0
 60.133522  -13.330464    9.317397  0
 59.839664  -12.283545    9.359819  0
 47.464809  -16.324692   12.203189  0
 47.770943  -16.667246   11.386190  0
 43.637836  -16.940283    9.705256  0
  4.050776  -15.202785   13.373882  0
 58.685387  -12.737431    8.948119  0
 58.081753  -13.326049    8.273798  0
 49.562107  -16.992239   10.442426  0
 57.605343  -13.276693    7.861804  0
 57.569290  -13.770494    7.092198  0
 52.879128  -16.444201    7.631114  0
 51.218178  -16.619110    8.687263  0
  2.064850  -14.397698   12.243911  0
 53.516514  -16.300760    6.417357  0
 52.116261  -15.982914    7.170499  0
 57.146339  -13.594428    6.140809  0
 55.747364  -14.700864    5.156464  0
 54.263916  -15.683353    5.369935  0
 52.792973  -15.686116    5.819977  0
 38.663353  -15.818985    4.488517  0
 32.810173  -13.687373    6.925305  0
 33.686634  -13.563878    7.270232  0
 31.432438  -13.427471    7.887113  0
 32.408600  -13.456191    8.525719  0
 31.302259  -12.919044    7.044850  0
 36.215275  -13.264327    2.969632  0
 37.635906  -13.275532    2.628258  0
 35.441944  -13.464310    3.985612  0
 -1.073085  -13.177453    6.863287  0
  2.462900  -13.205834    4.352648  0
 45.856003  -13.361819    2.742144  0
 50.158928  -13.599180    4.473050  0
 51.152981  -13.571224    4.121939  0
 47.431931  -13.191284    3.642143  0
 44.334194  -12.716625    2.364198  0
 42.622246  -13.106438    2.483536  0
 40.446999  -12.501575    2.189809  0
 38.925941  -13.680950    1.304445  0
 34.408386  -13.982231    2.590071  0
  5.044255  -13.648283    0.542951  0
  5.889517  -14.322178   -0.675850  0
 64.443359  -11.300269    1.783573  0
 52.373688  -13.399726    3.570537  0
 38.027370  -12.956354    0.217136  0
 34.359863  -13.804811    0.882075  0
 65.248543  -11.959901    0.748401  0
 65.530212  -12.724602   -1.140036  0
 62.733528  -11.303990    1.407436  0
 58.163780  -13.576090   -0.860988  0
 56.614994  -14.099474    0.428725  0
 36.083157  -13.175934   -0.136930  0
 64.846291  -13.615542   -4.192697  0
 62.568974  -11.630875    0.765042  0
 59.800217  -12.974099   -0.872106  0
 65.167526  -14.338764   -6.523688  0
 47.765915  -14.442042   -5.669482  0
 46.434040  -14.271884   -5.336695  0
 64.853065  -14.579200   -8.577982  0
 58.535076  -14.802759   -7.253604  0
 52.819168  -14.388090   -6.674906  0
 49.911190  -14.310523   -6.228532  0
 41.829285  -15.528190   -6.192049  0
 63.945812  -14.854327   -9.022439  0
 62.285622  -15.073686   -8.992793  0
  5.394220  -14.240077   -4.247270  0
  4.468383  -13.519465   -5.959974  0
 40.182743  -15.085815   -7.590000  0
 39.419483  -14.824780   -8.884885  0
  4.392370  -13.288805   -7.511252  0
  6.257684  -14.511264  -11.565396  0
  7.612137  -14.474095  -12.906024  0
 38.862083  -13.680738  -14.011092  0
 21.825806  -14.179745  -14.254510  0
 13.393476  -14.900523  -14.863966  0
 54.949024  -12.460756  -14.390287  0
 51.315678  -12.481280  -13.927998  0
 49.515667  -12.267517  -14.122320  0
 27.071148  -14.385983  -16.409206  0
 15.789943  -14.375559  -15.544291  0
 56.484737  -12.114413  -14.913594  0
 52.535809  -11.329426  -14.548279  0
 47.715866  -12.047054  -15.059393  0
 46.040066  -12.000382  -15.651312  0
 44.662533  -12.710519  -15.517144  0
 56.716789  -11.841802  -15.513711  0
 56.639149  -12.005586  -16.512741  0
 55.903168  -13.265717  -17.769629  0
 41.871082  -12.736010  -17.117306  0
 42.687737  -12.434878  -16.933792  0
 39.929771  -13.708852  -16.865856  0
 16.853258  -14.982221  -17.906002  0
 14.133726  -13.167019  -18.645214  0
  7.554035  -13.734168  -18.345913  0
  8.808647  -13.387714  -17.965319  0
 17.129366  -13.859851  -18.600454  0
 54.827660  -15.244934  -19.842251  0
  6.629349  -14.185760  -20.045984  0
 52.078918  -15.831770  -23.313910  0
 18.218100  -16.043636  -24.713869  0
 15.383638  -15.500769  -24.937153  0
 50.888248  -16.143503  -24.350338  0
 27.393501  -14.255077  -24.449507  0
 26.091049  -15.067673  -25.030998  0
 25.651350  -15.325795  -25.489189  0
 24.978466  -15.286083  -26.277994  0
 20.070738  -16.670208  -26.219437  0
 18.752386  -16.397066  -26.304314  0
 13.508204  -14.699436  -26.547447  0
  8.105021  -13.405987  -24.289629  0
  8.459075  -13.465055  -25.402807  0
  9.755770  -12.585450  -26.870483  0
  9.168335  -12.980306  -26.430111  0
  9.200404  -13.685533  -26.240728  0
  9.212893  -13.257521  -25.781588  0
 29.601614  -14.101536  -26.550793  0
 51.684254  -15.484587  -26.235104  0
 45.835152  -13.488459  -28.880653  0
 47.543465  -13.568521  -30.005613  0
 44.609138  -13.684102  -28.719173  0
 28.098457  -14.391267  -26.583139  0
 25.583471  -14.921601  -26.814709  0
 60.222416  -14.879818  -29.876463  0
 58.671577  -13.942110  -29.245619  0
 23.510372  -14.669377  -27.554552  0
 21.043106  -15.047329  -28.337599  0
 19.417801  -14.243124  -29.307190  0
 61.148491  -13.988778  -31.614759  0
 60.293373  -13.633832  -32.496414  0
 39.158474  -15.382126  -32.110218  0
 17.990488  -13.905168  -32.065281  0
 58.883266  -14.339586  -33.115139  0
 58.094414  -15.013036  -35.692314  0
 57.680759  -15.883093  -37.072773  0
 56.958740  -14.827644  -38.522346  0
 51.574871  -13.808093  -37.186272  0
 38.298740  -16.214527  -33.491856  0
 21.299952  -14.818894  -34.179363  0
 22.020737  -13.920940  -34.549282  0
 24.142496  -13.789639  -35.418159  0
 19.888412  -14.028168  -33.744049  0
 56.132099  -14.305507  -40.399223  0
 52.322338  -13.358996  -39.240601  0
 27.996510  -12.742318  -36.163113  0
 25.993124  -13.872053  -36.564930  0
 26.149376  -13.172050  -36.023319  0
 24.822519  -13.026334  -35.809101  0
 56.309093  -14.471522  -40.976643  0
 52.910717  -13.491174  -40.375057  0
 28.703007  -13.586270  -37.834080  0
 54.413891  -13.518002  -41.327225  0
 38.757328  -16.797804  -36.669891  0
 39.354492  -17.318144  -37.676178  0
 40.181881  -16.555563  -37.905701  0
 30.562380  -13.239206  -39.219028  0
 41.434250  -17.745090  -38.755909  0
 42.558807  -18.050772  -39.659737  0
 31.589678  -14.141648  -40.226307  0
 42.244686  -18.751673  -40.359489  0
 42.382645  -18.141443  -41.396500  0
 33.549091  -14.716543  -41.164436  0
 36.387291  -15.458529  -41.988266  0
 39.358604  -15.699026  -42.442657  0
 40.387741  -16.375526  -42.584747  0
 41.652340  -16.899460  -42.480843  0
 22.663868  -12.347148   62.971916  0
 19.663837  -11.131042   64.110588  0
 18.295113  -11.923429   63.624756  0
 24.180189  -11.952423   59.989990  0
 24.438374  -12.761571   58.361179  0
 15.322266  -11.811825   59.013943  0
  4.252806  -14.407574   61.379299  0
  2.012007  -14.720421   61.060852  0
 24.728018  -11.734140   56.658478  0
 15.290590  -13.204950   58.116978  0
  7.484449  -14.124225   59.693665  0
  6.230085  -14.614888   60.672134  0
  0.393855  -14.261695   59.005383  0
 -0.014332  -15.400140   57.090309  0
 15.272544  -14.179384   56.499695  0
  9.190016  -13.825806   57.777775  0
 25.478643  -12.066194   54.145103  0
 15.314741  -14.089374   54.664761  0
  0.015987  -14.869671   52.677803  0
 -0.008918  -13.909527   56.202915  0
  0.274252  -13.065349   53.209991  0
 36.121521  -12.213997   53.845108  0
 25.253868  -11.672163   51.673424  0
  0.870090  -13.622891   51.282074  0
 12.247534  -13.349216   51.838684  0
 39.304901  -13.768241   50.624748  0
 23.525286  -11.824455   49.321079  0
 23.254080  -12.305785   46.882717  0
 22.780792  -12.098565   47.508881  0
 13.854717  -13.369439   51.719543  0
 43.045059  -12.936646   50.144569  0
 44.287037  -12.836895   49.512840  0
 39.318069  -13.786079   49.975655  0
 26.428665  -11.934910   48.207626  0
 24.515135  -11.966944   46.482719  0
  1.423709  -13.280039   45.711613  0
 38.997227  -11.666581   48.981392  0
 38.710693  -12.170993   48.033981  0
 38.170078  -12.232785   46.734482  0
 37.404072  -13.849627   44.460945  0
 45.085079  -13.718314   46.969742  0
  3.385001  -12.697197   43.290764  0
  2.476433  -12.702478   45.303455  0
  4.072522  -12.122900   45.283424  0
  6.233927  -12.201005   43.783211  0
 45.028057  -14.227869   44.460136  0
  6.397259  -12.604927   41.664349  0
 37.093643  -13.196466   42.933811  0
 36.005875  -14.459619   41.004246  0
 50.719875  -15.577835   45.515686  0
 51.794941  -14.087553   44.578827  0
 53.094303  -13.434580   43.070518  0
 36.778030  -12.968423   41.895744  0
  8.174417  -12.101791   41.448624  0
  5.950518  -12.857869   40.393764  0
 36.460964  -13.029283   40.787415  0
 35.544453  -13.561863   39.225681  0
 35.947113  -14.021252   40.259842  0
  7.170809  -12.767772   39.482628  0
  8.525322  -12.569811   39.932907  0
 53.808224  -14.263021   42.116802  0
 46.002060  -15.931996   44.638485  0
 45.540924  -15.365478   44.339897  0
 37.084167  -12.180541   39.921257  0
 34.111851  -13.470141   37.100658  0
  8.889694  -12.137871   37.587803  0
  9.482476  -12.140137   39.083916  0
  7.758384  -12.106318   36.173794  0
 33.846882  -13.814658   36.156200  0
 49.393528  -11.941389   37.151714  0
  8.081770  -12.509117   34.397579  0
 35.936718  -12.983255   36.874664  0
 46.303856  -12.672050   34.872833  0
 35.252415  -12.781221   35.403652  0
  9.446918  -11.647096   34.773430  0
  9.394183  -12.545672   33.434723  0
 31.937115  -13.016762   33.900875  0
 55.715954  -13.141483   35.582424  0
 53.348633  -11.941872   36.413960  0
 46.071095  -12.119332   32.868034  0
 10.804676  -12.186191   32.697582  0
 56.262383  -13.116520   34.413898  0
 52.475723  -11.634581   35.580406  0
 49.750023  -12.583143   33.359932  0
 51.253735  -11.858130   34.209682  0
 47.059898  -11.879624   31.096661  0
 11.586747  -12.459805   31.427923  0
 55.831245  -13.832715   32.210045  0
 56.500629  -12.854025   33.051533  0
 48.730156  -12.604912   32.507431  0
 32.145668  -11.899209   32.800980  0
 53.245895  -13.925184   29.180584  0
 56.012318  -12.525286   31.705252  0
  3.638451  -11.861445   33.428562  0
  6.049120  -12.467809   32.766178  0
  0.230981  -13.402163   31.801342  0
  7.779365  -13.103854   31.824718  0
  0.979481  -13.646887   29.687376  0
 51.081284  -14.948251   27.169561  0
  2.148545  -13.750771   27.887478  0
 61.711311  -13.035302   29.695086  0
 49.510612  -16.168787   25.986233  0
 10.247794  -14.432890   29.791895  0
 61.953617  -12.180461   29.110361  0
 64.342918  -12.563885   27.222799  0
 59.600170  -12.133329   28.116081  0
  3.068060  -13.551316   26.684822  0
  2.971604  -13.756132   25.651451  0
 64.319206  -13.957261   25.157120  0
 64.706009  -12.497324   25.010811  0
  2.168695  -14.881292   24.645721  0
 63.720608  -13.231035   23.769951  0
 56.541859  -11.924953   25.569624  0
 63.130116  -12.532653   22.241793  0
 55.247520  -12.073387   25.095581  0
 63.613426  -10.814757   20.472284  0
  1.457470  -14.125566   24.075516  0
 61.974571  -10.579942   19.098406  0
  0.123748  -14.316589   22.604126  0
 -0.239677  -14.981865   21.722942  0
 62.904697  -10.849198   18.569874  0
 61.786030  -10.620667   18.020411  0
 -0.191258  -15.179038   20.585848  0
 -0.684652  -13.984447   20.715408  0
 64.337013  -12.607103   16.265091  0
 63.663052  -11.698157   17.112766  0
 62.830658  -11.083408   16.934557  0
