#!ascii file
9834  10193  9479  0
10190  9837  10194  0
10192  9147  9478  0
10192  9478  9843  0
10192  9843  9844  0
10192  9844  10195  0
9479  10193  9485  0
9485  10193  10196  0
9472  10197  9837  0
9472  9845  10197  0
10196  10198  9846  0
10196  9846  9485  0
9488  10199  9152  0
9152  10199  9845  0
9846  10198  10200  0
10201  9491  9849  0
10201  10202  9491  0
9491  10202  10203  0
9491  10203  9486  0
9486  10203  9847  0
9847  10203  10204  0
9847  10204  9850  0
9848  9850  10205  0
9848  10205  9851  0
9487  9851  9488  0
9488  10206  10199  0
9846  10200  9852  0
9849  9170  9493  0
9493  9495  10207  0
10208  10207  9495  0
9495  9181  10208  0
9853  10208  9181  0
9852  10209  9856  0
9182  9854  10210  0
10211  9854  9855  0
9855  9498  10211  0
10212  10211  9498  0
9498  9499  10212  0
9858  9501  10213  0
10214  10213  9501  0
9501  9502  10214  0
9503  10214  9502  0
9503  9504  10215  0
10216  10215  9504  0
9504  9859  10216  0
10217  9494  9856  0
10218  9857  9515  0
9859  9512  10216  0
9494  10217  9860  0
9513  9861  9860  0
9858  10219  9508  0
9519  9508  10219  0
9858  10220  10219  0
9512  9520  10221  0
10222  10221  9520  0
9860  10223  9513  0
10224  9513  10223  0
9862  9513  10224  0
9515  9527  10218  0
9869  10218  9527  0
10225  9519  10219  0
9520  9867  10222  0
9520  9863  9867  0
9519  10225  9865  0
10226  9865  10225  0
9866  10227  9867  0
9867  10227  10222  0
9864  9871  9870  0
10228  9870  9871  0
9871  9524  10228  0
10227  9866  10229  0
9873  10229  9866  0
9869  9533  10230  0
10228  9524  10231  0
10232  10231  9524  0
9524  9865  10232  0
10229  9873  9876  0
10229  9876  10233  0
10234  10233  9876  0
10235  9874  9872  0
10236  10230  9533  0
9870  10228  9535  0
10231  9535  10228  0
9533  9877  10236  0
9535  10231  9542  0
10237  10234  9876  0
9876  9878  10237  0
10238  9878  9880  0
9874  10235  9882  0
10239  9882  10235  0
10240  10241  10242  0
10241  10243  10242  0
10241  10240  10244  0
10245  10244  10240  0
10246  10245  10240  0
10240  10247  10246  0
9877  9540  10248  0
9542  10231  10249  0
10250  9542  10249  0
9880  9883  10251  0
9882  10239  9884  0
10241  10244  10243  0
10244  10245  10252  0
10244  10252  10253  0
10244  10253  10254  0
10244  10254  10243  0
10245  10246  10255  0
10245  10255  10252  0
9542  9888  9211  0
9883  9885  10251  0
10252  10255  10256  0
10252  10256  10253  0
9540  9541  10257  0
9887  9886  10258  0
9887  10258  10259  0
9887  10259  9889  0
9886  9888  10258  0
9544  10260  9541  0
9541  10260  10257  0
9889  10261  9890  0
9544  9549  10260  0
10260  9549  10262  0
9890  10261  10263  0
9890  10263  9892  0
9892  10263  9893  0
9896  9895  10264  0
9896  10264  9897  0
9896  9897  9891  0
9549  9898  10265  0
9549  10265  10262  0
9898  9223  9899  0
9898  9899  10266  0
9898  10266  10265  0
9893  10267  9895  0
9895  10267  10264  0
10264  10267  10268  0
10264  10268  10269  0
10264  10269  9897  0
9897  10269  9552  0
10269  10268  9570  0
10269  9570  9555  0
10269  9555  9552  0
10270  9902  9904  0
10270  10271  10272  0
10270  10272  9902  0
10270  9904  10273  0
10270  10273  10271  0
9902  10272  9903  0
9903  10274  9905  0
9905  10274  10275  0
9905  10275  9906  0
9906  10276  9907  0
9906  9907  9559  0
9906  10275  10276  0
9900  9908  10277  0
10278  9242  9568  0
10278  9568  9909  0
10278  10279  9242  0
9909  9569  10280  0
9569  9915  10281  0
9570  10268  9910  0
9904  9911  10282  0
9904  10282  10273  0
10276  10283  9907  0
9907  10283  10284  0
9907  10284  9912  0
9912  10285  9913  0
9912  10284  10285  0
10286  9908  10287  0
10286  10287  10288  0
10286  10277  9908  0
9242  10279  9914  0
9915  9910  10281  0
9911  10289  10282  0
9911  9916  10289  0
9916  9571  9920  0
9916  9920  10290  0
9913  10285  9917  0
9921  10291  9925  0
9921  10292  10291  0
9924  10292  9921  0
10291  10293  9925  0
10291  10292  10294  0
10291  10295  10296  0
10291  10296  10293  0
10291  10294  10295  0
10295  10288  10297  0
10295  10297  10296  0
10295  10294  10288  0
10288  10287  10297  0
10287  9908  9918  0
10290  9920  9930  0
9577  9930  9920  0
10298  10299  10300  0
10300  10299  10301  0
10302  10301  10299  0
9924  9935  10303  0
9925  10293  9927  0
10304  9927  10293  0
10293  10296  10304  0
10296  10297  10305  0
10296  10305  10304  0
10306  10297  10287  0
10287  9918  10307  0
9928  10307  9918  0
10287  10307  10306  0
10308  10309  9929  0
9929  10309  9930  0
10310  9931  9932  0
10311  10299  9583  0
9584  9583  10299  0
10302  10299  10311  0
9946  10311  9583  0
10299  10298  9584  0
9942  9584  10298  0
10312  9942  10298  0
9942  10313  9943  0
9942  10312  10313  0
10314  9943  10313  0
9943  10314  9590  0
10315  9590  10314  0
9590  10315  9933  0
9933  10315  9935  0
10316  9935  10315  0
9937  9927  10317  0
10318  10317  9927  0
9927  10304  10318  0
10305  10318  10304  0
9919  10319  9939  0
10320  9939  10319  0
9940  9257  9945  0
10321  8924  9940  0
8924  10321  9580  0
10308  9580  10321  0
9580  10308  9929  0
9941  9931  10310  0
10322  9592  9944  0
9944  9937  10322  0
10317  10322  9937  0
10323  9938  9263  0
9939  10320  9593  0
10324  9593  10320  0
9264  10325  9945  0
9264  9949  10325  0
9603  10326  9601  0
10326  9603  9941  0
10326  9941  10310  0
10327  9946  9595  0
9947  9592  10328  0
10329  10328  9592  0
9263  9605  10323  0
9593  10324  9606  0
10330  9949  9948  0
9951  9601  10331  0
10326  10331  9601  0
9595  9604  10327  0
10332  10327  9604  0
9604  9952  10332  0
10333  10332  9952  0
9952  9947  10334  0
9952  10334  10333  0
9947  10328  10334  0
9606  10335  9607  0
10336  9607  10335  0
9607  10336  9948  0
10330  9948  10336  0
9953  9950  10337  0
10338  10337  9950  0
9953  10337  9955  0
10327  10332  10339  0
10333  10339  10332  0
9619  9959  10340  0
9619  10340  9268  0
9955  10341  9958  0
9955  10337  10341  0
10342  10341  10337  0
9615  9963  9961  0
10341  9971  10343  0
10341  10343  9958  0
10341  10342  9971  0
9958  10343  9964  0
9975  9974  10344  0
9975  10344  10345  0
9975  10345  9960  0
10344  9974  9976  0
9976  10346  10344  0
9976  9977  10346  0
9962  9961  10347  0
9961  10348  10347  0
9961  9963  10349  0
9961  10349  10348  0
9963  9969  10349  0
9970  9971  10342  0
9971  9629  9981  0
9971  9981  10343  0
10343  9981  10350  0
10343  10350  9964  0
9964  10350  10351  0
9964  10351  9965  0
9965  10351  9973  0
9965  9973  9622  0
9977  9983  10352  0
9977  10352  10346  0
9978  9984  9626  0
9981  9980  10350  0
10350  10353  10351  0
10351  10353  9982  0
10351  9982  9973  0
9983  9985  10354  0
9983  10354  10352  0
9985  10355  10354  0
9980  9979  10356  0
9980  10356  10350  0
10350  10356  9990  0
10350  9990  10353  0
10353  9990  9989  0
10353  9989  9982  0
9982  9989  9636  0
9985  9638  10357  0
9985  10357  10355  0
9639  9984  10358  0
9639  10358  9992  0
9979  9986  10359  0
9979  10359  10356  0
10356  10359  9991  0
10356  9991  9990  0
9638  9642  10357  0
9992  10358  10360  0
9993  9994  10361  0
9993  10361  10362  0
9993  10362  10363  0
9993  10363  9645  0
9992  10364  9644  0
9642  9291  10365  0
9995  9647  10366  0
9647  10367  10366  0
9644  10364  9996  0
9650  10365  9291  0
9647  9998  10368  0
9647  10368  10367  0
9996  10369  9648  0
9996  10364  10369  0
9650  9649  10370  0
10369  10371  9648  0
9648  10371  10001  0
9649  9653  10370  0
9651  9999  10372  0
9999  10373  10372  0
10372  10374  9651  0
9652  9651  10374  0
10000  9654  10375  0
9309  10375  9654  0
10375  9309  10376  0
9656  10376  9309  0
10004  10002  10377  0
10003  10377  10002  0
10372  10373  10378  0
10372  10378  10374  0
10006  9652  10374  0
10379  9656  10005  0
9658  10380  10381  0
9658  10381  9655  0
10374  10378  10006  0
9662  10382  10380  0
9662  10007  10382  0
10011  10382  10007  0
9662  10380  9658  0
9660  10009  10008  0
10006  10383  9666  0
10384  10013  10008  0
10008  10009  10384  0
10009  10012  10384  0
9666  10383  10015  0
10385  10016  10013  0
10013  10384  10385  0
10384  10012  10385  0
10014  10385  10012  0
9667  9668  10386  0
10020  10386  9668  0
10020  9320  10021  0
10016  10385  10017  0
10387  10017  10385  0
10385  10014  10387  0
10018  10387  10014  0
10388  10389  10024  0
10389  10026  10024  0
10389  10390  10026  0
10391  10026  10390  0
10032  10026  10391  0
10391  10392  10032  0
10023  10388  10024  0
10026  10032  10027  0
10393  10032  10392  0
10388  10023  10030  0
10388  10030  10394  0
10395  10394  10030  0
10032  10393  10031  0
10033  10395  10030  0
10031  10396  10035  0
10031  10393  10396  0
9672  10397  9674  0
10398  9674  10397  0
9674  10398  10039  0
10399  10039  10398  0
10400  10035  10396  0
9670  10401  10038  0
9670  9671  10402  0
9670  10402  10401  0
10039  10399  9675  0
10403  9675  10399  0
9671  10042  10402  0
9675  10403  9324  0
10404  9324  10403  0
9681  10049  10042  0
10042  10049  10405  0
9324  10404  9325  0
10406  9325  10404  0
10041  10407  10045  0
10408  9694  10046  0
10047  9694  10408  0
10047  10409  10048  0
10410  10048  10409  0
9325  10406  9689  0
10044  10411  10412  0
10044  10412  10043  0
10413  10045  10407  0
10048  10410  10051  0
10414  10051  10410  0
10044  10053  10411  0
10051  10414  10415  0
10053  10416  10411  0
10045  10413  10058  0
10054  10067  10417  0
10067  10418  10417  0
10051  10415  10062  0
10051  10062  9703  0
10415  10419  10062  0
10053  10060  10420  0
10053  10420  10416  0
10058  10413  10421  0
9695  9700  10422  0
9695  10422  10055  0
9701  10056  9707  0
10065  10420  10060  0
10061  10058  10423  0
10058  10421  10423  0
10067  10070  10418  0
10422  9700  10068  0
10422  10068  10424  0
10063  10064  10425  0
10063  10425  10426  0
10063  10426  10065  0
10066  10427  10069  0
10066  10061  10427  0
10061  10423  10427  0
10423  10421  10428  0
10070  10429  10418  0
10071  10075  9714  0
10424  10068  10430  0
9709  9707  10431  0
10425  10064  10432  0
10425  10432  10433  0
10425  10433  10434  0
10425  10434  10426  0
10064  10069  10435  0
10064  10435  10432  0
10069  10427  10435  0
10427  10436  10435  0
10427  10423  10436  0
10423  10428  10436  0
10430  10068  10072  0
10430  10072  10076  0
9709  10431  9711  0
10435  10437  10432  0
10435  10436  10437  0
10436  10438  10437  0
10436  10428  10439  0
10436  10439  10438  0
10070  10073  10429  0
10440  10429  10073  0
10075  10076  9729  0
10075  9729  10074  0
9711  10431  10441  0
9711  10441  10077  0
10434  10433  10081  0
10434  10081  10442  0
10443  10442  10081  0
10433  10432  10081  0
10082  10081  10432  0
10432  10437  10082  0
9724  10082  10437  0
10437  10438  9724  0
10083  9724  10438  0
10438  10439  10083  0
10073  10086  10440  0
10079  10444  10080  0
10080  10444  10443  0
10080  10443  10081  0
10083  10439  10445  0
10446  10086  10078  0
10086  10446  10440  0
10083  10089  9732  0
10083  10445  10447  0
10083  10447  10089  0
10084  10088  10085  0
10089  10447  10448  0
10089  10448  9354  0
10087  10091  10088  0
10449  10088  10091  0
10088  10449  10085  0
10085  10449  10450  0
10085  10450  10078  0
10078  10450  10446  0
9354  10448  10451  0
9354  10451  9736  0
10090  9738  10091  0
10452  10091  9738  0
10453  10091  10452  0
10091  10453  10449  0
9362  9740  10092  0
10454  10092  9740  0
9740  9741  10455  0
9740  10455  10454  0
9736  10455  9741  0
9738  10093  10452  0
10456  10452  10093  0
10452  10456  10453  0
9745  10092  10100  0
10092  10454  10457  0
10094  10095  10098  0
10458  10098  10095  0
10095  10096  10458  0
10459  10458  10096  0
10096  10099  10459  0
10460  9746  10100  0
10093  10102  10456  0
10461  10456  10102  0
10098  10458  10103  0
10462  10103  10458  0
10458  10459  10462  0
9750  9746  10463  0
10460  10463  9746  0
9750  10463  10106  0
10464  10102  10101  0
10102  10464  10461  0
10103  10462  10107  0
10465  10107  10462  0
10466  10462  10459  0
10459  10099  10466  0
9369  10106  10108  0
10467  10108  10106  0
10106  10463  10467  0
10468  10101  9756  0
10101  10468  10464  0
10469  10461  10464  0
10107  10465  10109  0
9756  10110  10468  0
10470  10468  10110  0
10469  10464  10468  0
10471  10468  10470  0
10108  10472  10113  0
10473  10113  10472  0
10110  10114  10470  0
10474  10113  10473  0
10114  10116  10475  0
10114  10475  10470  0
10116  10115  10476  0
10116  10476  10477  0
10116  10477  10475  0
10115  9766  10478  0
9766  9765  10478  0
10111  10479  10117  0
9763  10480  10112  0
10478  9765  10481  0
10478  10482  10115  0
9765  10121  10481  0
10117  10479  10131  0
9763  10122  10483  0
9763  10483  10480  0
10113  10474  10123  0
10121  10484  10481  0
10117  10131  10125  0
9770  10124  10128  0
10120  10126  10485  0
10120  10485  10121  0
10131  10486  10130  0
10487  10130  10486  0
10123  10488  10118  0
10123  10489  10488  0
10127  10490  10124  0
10124  10491  10128  0
10492  10128  10491  0
10128  10492  10133  0
10126  10129  10485  0
10129  10130  10487  0
10129  10487  10485  0
10122  9780  10493  0
10488  10494  10134  0
10488  10134  10118  0
9787  10135  10495  0
9787  10495  10136  0
10136  10496  10132  0
9779  10137  9404  0
9779  10133  10497  0
9780  9790  10493  0
10140  10146  10148  0
10140  10148  10141  0
10135  9794  10498  0
10495  10499  10136  0
10136  10499  10496  0
9779  10497  10500  0
9779  10500  10137  0
10137  10144  9414  0
10501  10502  10156  0
10501  10156  10155  0
10501  10155  10503  0
10504  10503  10155  0
10502  10157  10156  0
10502  10505  10157  0
10506  10493  9790  0
10138  10507  10139  0
10145  10508  10146  0
10159  10146  10508  0
10147  10146  10159  0
10146  10147  10148  0
9794  10160  10498  0
10509  10498  10160  0
10510  10149  10142  0
10142  10150  10510  0
10164  9789  9800  0
10137  10511  10144  0
9797  10143  10512  0
10143  10144  10512  0
9797  10513  10152  0
10514  10153  10152  0
10154  10153  10514  0
10154  10515  9805  0
9805  10515  10504  0
9805  10504  10155  0
10157  10505  10166  0
9790  10158  10506  0
10134  10507  10138  0
10134  10494  10516  0
10134  10516  10507  0
10507  10145  10139  0
10508  10168  10159  0
10517  10509  10160  0
10518  10163  10149  0
10149  10510  10518  0
10519  10518  10510  0
9789  10164  10151  0
9797  10512  10513  0
10513  10520  10152  0
10152  10520  10514  0
10166  10505  10521  0
10158  10167  10506  0
10507  10522  10145  0
10145  10522  10523  0
10524  10523  10522  0
10145  10523  10508  0
10508  10523  10168  0
10168  10525  9811  0
10160  10161  10517  0
10161  9807  10526  0
10169  10526  9807  0
10527  10161  10526  0
10166  10528  10170  0
9811  10525  10529  0
9811  10529  10174  0
10530  10526  10169  0
10169  10162  10530  0
10531  10530  10162  0
10162  10163  10531  0
10532  10531  10163  0
9110  9812  10165  0
10533  9812  10172  0
10528  10178  10170  0
10534  10175  10174  0
10175  10534  9821  0
10535  9821  10534  0
10526  10530  10536  0
10537  10536  10530  0
10526  10536  10527  0
10538  10527  10536  0
10530  10531  10537  0
10539  10531  10532  0
10540  10182  10173  0
10173  9820  10540  0
10541  10540  9820  0
9820  9450  10541  0
9450  10177  10541  0
10171  9810  10542  0
9821  10535  9822  0
9822  10535  10179  0
10183  10179  10535  0
10536  10537  10538  0
10537  10531  10543  0
10176  10182  10544  0
10176  10544  10181  0
10187  10184  10545  0
10187  10545  10546  0
10547  10548  10549  0
10548  10550  10549  0
10531  10539  10543  0
10551  10181  10544  0
9810  9459  10542  0
9459  10186  10552  0
9459  10552  10542  0
10553  10188  9828  0
10553  9828  10546  0
9828  10187  10546  0
10548  10547  10554  0
10548  10554  10555  0
10548  10555  10550  0
10180  10185  10556  0
10180  10556  10172  0
10181  10551  9827  0
10557  9827  10551  0
10553  10558  10188  0
10553  10559  10558  0
10554  10560  10555  0
9827  10557  9830  0
10186  9831  10561  0
10558  9832  10188  0
10185  10189  10562  0
9830  10557  10191  0
9831  9835  10561  0
10563  9841  10191  0
10192  10195  9835  0
10561  9835  10195  0
10558  10193  9832  0
10558  10564  10193  0
10565  10193  10564  0
10189  10190  10566  0
10189  10566  10562  0
10567  9841  10563  0
9841  10567  9844  0
10568  9844  10567  0
9844  10568  10195  0
10190  10194  10566  0
10193  10565  10196  0
9837  10197  10194  0
10196  10565  10198  0
9845  10569  10197  0
10198  10570  10200  0
10201  10571  10202  0
10201  9849  10207  0
10201  10207  10571  0
10202  10571  10572  0
10202  10572  10203  0
10203  10572  10204  0
10204  10573  10574  0
9850  10204  10205  0
9851  10206  9488  0
10199  10569  9845  0
10200  10570  10575  0
10200  10575  10576  0
9849  9493  10207  0
10204  10574  10205  0
10205  10574  10577  0
10205  10577  9851  0
9851  10577  10578  0
9851  10578  10579  0
9851  10579  10206  0
10206  10579  10199  0
10209  9852  10200  0
10200  10576  10580  0
10200  10580  10209  0
10208  9853  10581  0
9853  9182  10582  0
10209  10580  10583  0
10209  10583  9856  0
10211  10210  9854  0
9858  10213  10220  0
10214  9503  10584  0
10585  10584  9503  0
9503  10215  10585  0
10215  10216  10585  0
10586  10585  10216  0
9856  10583  10587  0
9856  10587  10217  0
10588  10212  9499  0
9499  9857  10588  0
10588  9857  10218  0
10221  10586  10216  0
10216  9512  10221  0
10217  10589  9860  0
10590  10221  10222  0
9860  10589  10223  0
9869  10591  10218  0
10219  10220  10225  0
10224  10592  9862  0
9868  9862  10592  0
10225  10593  10226  0
10222  10227  10590  0
10229  10590  10227  0
9868  10592  10594  0
10595  9869  10596  0
9869  10230  10596  0
10232  9865  10226  0
9868  10594  9872  0
10597  9872  10594  0
10598  10596  10230  0
10233  10234  10599  0
9872  10597  10235  0
10600  10598  10230  0
10230  10236  10600  0
10231  10232  10601  0
10602  10599  10234  0
10234  10237  10602  0
10603  10602  10237  0
10604  10605  10606  0
10607  10606  10605  0
10605  10608  10609  0
10610  10609  10608  0
10605  10604  10608  0
10608  10611  10610  0
10608  10604  10611  0
10242  10610  10611  0
10611  10612  10242  0
10240  10242  10612  0
10236  9877  10613  0
10236  10613  10600  0
10231  10601  10614  0
10231  10614  10249  0
10237  9878  10615  0
10238  10615  9878  0
10237  10615  10603  0
10605  10609  10607  0
10616  10607  10609  0
10609  10610  10617  0
10609  10617  10618  0
10609  10618  10616  0
10619  10617  10610  0
10610  10242  10243  0
10610  10243  10619  0
10240  10612  10247  0
10247  10620  10246  0
10620  10621  10246  0
10238  9880  10251  0
10622  9884  10239  0
10617  10619  10623  0
10617  10623  10618  0
10619  10243  10624  0
10619  10624  10623  0
10243  10625  10624  0
10243  10254  10626  0
10243  10626  10625  0
10246  10621  10627  0
10246  10627  10255  0
10258  10628  10629  0
10258  10629  10259  0
10628  10258  9888  0
10628  9888  10250  0
9888  9542  10250  0
10251  9885  10630  0
9885  9884  10622  0
9885  10622  10630  0
10254  10253  10631  0
10253  10256  10631  0
10256  10255  10632  0
10257  10633  9540  0
10248  9540  10633  0
10254  10631  10634  0
10631  10256  10635  0
10631  10635  10634  0
10256  10632  10635  0
10257  10260  10636  0
10259  10637  9889  0
10638  9889  10637  0
9889  10638  10261  0
10260  10262  10636  0
10261  10639  10640  0
10261  10640  10263  0
10261  10638  10641  0
10261  10641  10639  0
10263  10640  10642  0
10263  10642  10643  0
10263  10643  10267  0
10263  10267  9893  0
10639  10641  10644  0
10639  10644  10640  0
10267  10645  10268  0
10267  10643  10645  0
10266  9899  9900  0
10266  9900  10277  0
10646  10279  10278  0
10646  10278  9909  0
10646  9909  10647  0
10646  10647  10648  0
10646  10648  10279  0
9909  10644  10647  0
10644  9909  10280  0
10644  10280  10640  0
10640  10280  10642  0
10645  10281  10268  0
10649  10271  10273  0
10272  10650  9903  0
9903  10650  10274  0
10274  10276  10275  0
10274  10651  10276  0
10277  10286  10652  0
9569  10281  10280  0
10281  10645  10280  0
10281  9910  10268  0
10273  10282  10653  0
10273  10653  10649  0
10276  10651  10654  0
10276  10654  10283  0
10284  10655  10285  0
10656  10286  10288  0
10656  10288  10294  0
10656  10652  10286  0
10282  10657  10653  0
10282  10289  10657  0
10289  9916  10290  0
10657  10289  10290  0
9924  10303  10292  0
10292  10303  10658  0
10292  10658  10294  0
10657  10290  10309  0
9930  10309  10290  0
10657  10309  10659  0
10660  10659  10309  0
9917  10285  10661  0
9917  10661  9932  0
10312  10298  10300  0
10300  10301  10662  0
9935  10316  10303  0
10306  10305  10297  0
9919  9914  10319  0
10308  10663  10660  0
10664  10663  10308  0
10308  10660  10309  0
10665  10310  9932  0
10661  10665  9932  0
10311  10666  10302  0
10667  10311  9946  0
10317  10318  10668  0
10318  10305  10669  0
10670  10669  10305  0
10305  10306  10670  0
10306  10307  10670  0
10671  10670  10307  0
10307  9928  10671  0
9940  9945  10325  0
10664  10321  10672  0
10321  10664  10308  0
10665  10673  10310  0
9592  10322  10329  0
10668  10322  10317  0
9928  9938  10671  0
10323  10671  9938  0
10325  9949  10674  0
10330  10674  9949  0
10675  10331  10326  0
10673  10675  10326  0
10676  10331  10675  0
10326  10310  10673  0
9946  10327  10667  0
10677  10667  10327  0
10328  10329  10678  0
10679  10678  10329  0
10324  10680  9606  0
10335  9606  10680  0
9950  9951  10338  0
10681  10338  9951  0
9951  10331  10676  0
9951  10676  10681  0
10327  10339  10677  0
10334  10328  10682  0
10328  10678  10682  0
10683  10682  10678  0
10323  9605  9956  0
10339  10333  10684  0
10339  10684  10685  0
10339  10685  10686  0
10339  10686  10677  0
10333  10334  10687  0
10333  10687  10684  0
10334  10682  10688  0
10334  10688  10689  0
10334  10689  10687  0
10340  9959  10690  0
10691  9268  10340  0
10692  9268  10691  0
9268  10692  9956  0
10337  10693  10342  0
10684  10687  10685  0
9959  9960  10694  0
9959  10694  10690  0
10342  10695  9970  0
9960  10345  10696  0
9960  10696  10694  0
10344  10346  10697  0
10344  10697  10345  0
10346  10698  10697  0
10346  10352  10699  0
10346  10699  10698  0
10700  9968  9967  0
10349  9969  10701  0
9969  9970  10701  0
10352  10354  10702  0
10352  10702  10699  0
9978  9968  10703  0
9968  10700  10703  0
10354  10355  10704  0
10354  10704  10702  0
10357  10705  10355  0
10358  10706  10707  0
10358  10707  10360  0
10357  9642  10705  0
9994  9995  10708  0
9994  10708  10361  0
9995  10366  10708  0
10360  10364  9992  0
10365  10705  9642  0
9645  10363  10709  0
9645  10709  9646  0
10360  10710  10364  0
9650  10711  10365  0
9646  10712  9997  0
9997  10712  10713  0
10367  10368  10714  0
10364  10715  10369  0
10370  10711  9650  0
9998  10000  10716  0
9998  10716  10368  0
10371  10003  10001  0
9653  10717  10370  0
9999  9997  10718  0
9999  10718  10719  0
10000  10375  10716  0
10373  9999  10719  0
10376  9656  10379  0
10376  10379  10375  0
10379  10005  10720  0
10005  10004  10720  0
10381  10721  9655  0
9655  10721  9653  0
10373  10722  10378  0
10380  10723  10381  0
10011  10724  10382  0
10378  10383  10006  0
10378  10725  10383  0
10724  10011  10726  0
9667  10726  10011  0
10015  10383  10019  0
10383  10725  10019  0
10726  9667  10727  0
10386  10727  9667  0
10728  10018  10019  0
10725  10728  10019  0
10729  10386  10020  0
10020  10021  10729  0
10730  10729  10021  0
10022  10730  10021  0
10730  10022  10731  0
10017  10731  10022  0
10017  10387  10731  0
10728  10731  10387  0
10387  10018  10728  0
10732  10733  10734  0
10735  10734  10733  0
10390  10736  10737  0
10738  10737  10736  0
10737  10732  10390  0
10734  10390  10732  0
10734  10735  10739  0
10389  10740  10736  0
10736  10740  10738  0
10736  10390  10389  0
10391  10390  10734  0
10734  10739  10391  0
10392  10391  10739  0
10741  10392  10739  0
10740  10389  10388  0
10742  10392  10741  0
10740  10388  10743  0
10394  10743  10388  0
10392  10742  10393  0
10743  10394  10744  0
10395  10744  10394  0
10396  10393  10745  0
10393  10742  10745  0
10746  10396  10745  0
10038  10401  10747  0
10038  10747  9672  0
10397  9672  10747  0
10033  10037  10748  0
10396  10746  10400  0
10749  10400  10746  0
10750  10401  10402  0
10400  10749  10035  0
10751  10035  10749  0
10402  10042  10750  0
10405  10750  10042  0
10041  10035  10407  0
10035  10751  10407  0
10408  10752  10047  0
10753  10047  10752  0
10047  10753  10409  0
10754  10409  10753  0
10409  10754  10410  0
10755  10410  10754  0
10756  10040  10043  0
10757  10407  10751  0
10758  10408  10046  0
10410  10755  10414  0
10043  10412  10756  0
10757  10413  10407  0
10046  10050  10759  0
10046  10759  10758  0
10419  10415  10414  0
10049  10760  10405  0
10049  10761  10760  0
9689  10406  10056  0
10412  10762  10756  0
10050  10054  10417  0
10050  10417  10763  0
10050  10763  10759  0
10417  10764  10763  0
10049  10052  10761  0
10056  10406  10765  0
10411  10416  10766  0
10411  10766  10412  0
10412  10766  10762  0
10417  10418  10764  0
10767  10052  10055  0
10767  10761  10052  0
10416  10420  10768  0
10416  10768  10766  0
10413  10769  10421  0
10419  10770  10771  0
10419  10771  10062  0
10767  10055  10422  0
10056  10772  9707  0
10065  10426  10420  0
10420  10426  10768  0
10773  10421  10769  0
10062  10771  10071  0
10062  10071  9706  0
10771  10774  10075  0
10771  10075  10071  0
10774  10424  10076  0
10774  10076  10075  0
10774  10775  10424  0
10424  10775  10767  0
10424  10767  10422  0
10426  10776  10768  0
10421  10773  10777  0
10421  10777  10428  0
10418  10429  10778  0
10076  10424  10430  0
9707  10772  10779  0
9707  10779  10431  0
10426  10434  10776  0
10431  10779  10780  0
10442  10781  10776  0
10442  10776  10434  0
10428  10777  10782  0
10428  10782  10439  0
10429  10440  10783  0
10783  10440  10784  0
10431  10780  10441  0
10442  10443  10781  0
10441  10785  10077  0
10077  10785  10786  0
10077  10786  9722  0
9722  10786  10787  0
9722  10787  10079  0
10079  10787  10444  0
10439  10782  10788  0
10439  10788  10445  0
10440  10446  10789  0
10440  10789  10784  0
10445  10788  10790  0
10445  10790  10447  0
10446  10450  10789  0
10447  10790  10448  0
10449  10791  10450  0
10449  10453  10792  0
10449  10792  10791  0
9736  10451  10455  0
10453  10793  10792  0
10092  10794  10100  0
10092  10457  10794  0
10457  10454  10795  0
10457  10795  10796  0
10456  10797  10793  0
10456  10793  10453  0
10798  10460  10100  0
10100  10794  10798  0
10796  10794  10457  0
10456  10461  10797  0
10462  10466  10465  0
10799  10466  10099  0
10099  10104  10800  0
10801  10800  10104  0
10099  10800  10799  0
10104  10105  10801  0
10463  10460  10802  0
10463  10802  10467  0
10465  10466  10803  0
10465  10803  10804  0
10465  10804  10109  0
10466  10799  10803  0
9754  10801  10105  0
10108  10467  10472  0
10467  10802  10472  0
10468  10471  10469  0
10109  10804  10111  0
10801  9754  10805  0
10801  10805  10800  0
10475  10471  10470  0
10806  10471  10475  0
10111  10804  10479  0
10807  10479  10804  0
10808  10479  10807  0
10807  10799  10808  0
10809  10805  9754  0
9754  10112  10809  0
10475  10477  10806  0
10479  10808  10131  0
10810  10131  10808  0
10480  10809  10112  0
10482  10476  10115  0
10809  10480  10811  0
10483  10811  10480  0
10812  10123  10474  0
10476  10482  10813  0
10482  10478  10814  0
10478  10481  10814  0
10484  10814  10481  0
10131  10810  10486  0
10815  10486  10810  0
10122  10816  10483  0
10123  10812  10489  0
10485  10484  10121  0
10815  10487  10486  0
10493  10817  10816  0
10818  10816  10817  0
10816  10122  10493  0
10819  10488  10489  0
10124  10490  10491  0
10484  10485  10820  0
10821  10822  10485  0
10485  10822  10820  0
10823  10820  10822  0
10485  10487  10821  0
10824  10821  10487  0
10487  10815  10824  0
10825  10824  10815  0
10815  10818  10825  0
10817  10825  10818  0
10817  10493  10826  0
10488  10819  10494  0
10827  10494  10819  0
10490  10127  10828  0
10492  10491  10490  0
10492  10497  10133  0
10822  10821  10503  0
10501  10503  10821  0
10822  10503  10829  0
10822  10829  10823  0
10821  10824  10501  0
10502  10501  10824  0
10824  10825  10502  0
10830  10502  10825  0
10825  10817  10831  0
10825  10831  10830  0
10817  10826  10831  0
10832  10494  10827  0
10495  10135  10833  0
10495  10833  10499  0
10132  10828  10127  0
10132  10496  10834  0
10132  10834  10828  0
10500  10511  10137  0
10502  10830  10505  0
10831  10826  10506  0
10826  10493  10506  0
10498  10835  10135  0
10836  10135  10835  0
10498  10509  10835  0
10135  10836  10833  0
10837  10833  10836  0
10838  10833  10837  0
10833  10838  10499  0
10834  10496  10499  0
10154  10839  10515  0
10515  10840  10504  0
10503  10504  10840  0
10505  10830  10841  0
10830  10831  10842  0
10830  10842  10841  0
10831  10506  10843  0
10831  10843  10842  0
10494  10832  10516  0
10509  10517  10844  0
10510  10150  10845  0
10510  10845  10519  0
10150  10151  10845  0
10151  10164  10846  0
10847  10144  10511  0
10144  10847  10512  0
10514  10839  10154  0
10514  10520  10848  0
10514  10848  10839  0
10505  10841  10521  0
10843  10506  10167  0
10516  10849  10522  0
10516  10522  10507  0
10523  10524  10850  0
10523  10850  10525  0
10523  10525  10168  0
10517  10161  10527  0
10517  10527  10851  0
10517  10851  10844  0
10519  10852  10518  0
10519  10845  10852  0
10151  10846  10845  0
10164  10165  10853  0
10164  10853  10846  0
10166  10521  10528  0
10521  10841  10854  0
10167  10171  10855  0
10167  10855  10843  0
10849  10856  10522  0
10522  10856  10524  0
10850  10857  10525  0
10525  10857  10858  0
10525  10858  10529  0
10529  10859  10174  0
10529  10858  10860  0
10529  10860  10859  0
10859  10861  10534  0
10859  10534  10174  0
10851  10527  10862  0
10527  10863  10862  0
10163  10518  10864  0
10163  10864  10532  0
10518  10852  10865  0
10518  10865  10864  0
10852  10866  10865  0
10165  9812  10533  0
10165  10533  10853  0
10528  10521  10854  0
10171  10542  10855  0
10534  10867  10535  0
10534  10861  10867  0
10527  10868  10863  0
10527  10538  10868  0
10864  10539  10532  0
10869  10177  10178  0
10178  10528  10870  0
10854  10870  10528  0
10178  10870  10869  0
10855  10542  10871  0
10535  10184  10183  0
10535  10867  10872  0
10535  10872  10184  0
10538  10537  10547  0
10543  10547  10537  0
10538  10547  10868  0
10873  10539  10864  0
10864  10865  10873  0
10533  10172  10874  0
10182  10540  10544  0
10875  10544  10540  0
10540  10541  10875  0
10541  10177  10875  0
10177  10869  10875  0
10552  10871  10542  0
10546  10545  10876  0
10872  10545  10184  0
10549  10877  10868  0
10549  10868  10547  0
10549  10550  10877  0
10547  10543  10554  0
10878  10554  10543  0
10543  10539  10878  0
10879  10878  10539  0
10539  10873  10879  0
10880  10879  10873  0
10556  10874  10172  0
10544  10875  10881  0
10544  10881  10551  0
10553  10546  10882  0
10883  10882  10546  0
10553  10882  10559  0
10877  10550  10884  0
10885  10884  10550  0
10554  10878  10560  0
10879  10560  10878  0
10886  10879  10880  0
10887  10557  10551  0
10551  10881  10887  0
10186  10888  10552  0
10550  10555  10885  0
10889  10885  10555  0
10555  10560  10889  0
10890  10889  10560  0
10560  10879  10890  0
10886  10890  10879  0
10891  10556  10185  0
10191  10557  10887  0
10561  10888  10186  0
10559  10564  10558  0
10559  10892  10564  0
10185  10562  10891  0
10191  10893  10563  0
10894  10564  10892  0
10561  10195  10568  0
10564  10894  10565  0
10895  10565  10894  0
10194  10197  10896  0
10194  10896  10566  0
10565  10895  10198  0
10570  10198  10895  0
10570  10897  10575  0
10571  10207  10898  0
10571  10898  10899  0
10571  10899  10572  0
10572  10899  10573  0
10572  10573  10204  0
10569  10199  10900  0
10575  10901  10576  0
10898  10207  10208  0
10898  10208  10899  0
10899  10208  10581  0
10899  10581  10573  0
10573  10581  10902  0
10573  10902  10903  0
10573  10903  10574  0
10904  10574  10903  0
10574  10904  10577  0
10905  10577  10904  0
10577  10905  10578  0
10579  10906  10199  0
10900  10199  10906  0
10576  10901  10907  0
10576  10907  10908  0
10576  10908  10580  0
10581  9853  10582  0
10581  10582  10902  0
10582  9182  10210  0
10582  10210  10909  0
10580  10908  10910  0
10580  10910  10583  0
10210  10911  10909  0
10210  10211  10911  0
10211  10212  10912  0
10214  10584  10913  0
10214  10913  10213  0
10585  10586  10914  0
10212  10588  10912  0
10588  10915  10912  0
10213  10913  10916  0
10213  10916  10220  0
10586  10221  10917  0
10586  10917  10918  0
10586  10918  10914  0
10588  10218  10591  0
10588  10591  10915  0
10917  10221  10590  0
10217  10587  10919  0
10217  10919  10589  0
10591  9869  10595  0
10591  10595  10920  0
10220  10916  10225  0
10590  10921  10917  0
10223  10592  10224  0
10223  10589  10922  0
10223  10922  10592  0
10593  10225  10923  0
10921  10590  10229  0
10921  10229  10924  0
10592  10925  10594  0
10592  10922  10925  0
10926  10927  10928  0
10926  10928  10929  0
10926  10930  10927  0
10929  10928  10931  0
10929  10931  10932  0
10932  10933  10934  0
10932  10931  10935  0
10932  10935  10933  0
10596  10936  10595  0
10937  10595  10936  0
10229  10233  10924  0
10938  10924  10233  0
10939  10926  10929  0
10929  10932  10939  0
10940  10939  10932  0
10932  10934  10940  0
10941  10934  10933  0
10933  10942  10941  0
10936  10596  10943  0
10598  10943  10596  0
10233  10599  10938  0
10944  10938  10599  0
10945  10944  10599  0
10599  10602  10945  0
10594  10925  10597  0
10926  10939  10946  0
10947  10946  10939  0
10939  10940  10606  0
10604  10606  10940  0
10939  10606  10947  0
10948  10947  10606  0
10940  10934  10604  0
10611  10604  10934  0
10934  10941  10611  0
10612  10611  10941  0
10941  10949  10612  0
10247  10612  10949  0
10950  10951  10952  0
10950  10952  10953  0
10936  10943  10954  0
10955  10954  10943  0
10943  10598  10956  0
10600  10956  10598  0
10957  10614  10601  0
10958  10957  10601  0
10601  10232  10958  0
10606  10607  10948  0
10247  10949  10620  0
10951  10620  10949  0
10620  10950  10621  0
10627  10621  10950  0
10620  10951  10950  0
10950  10953  10627  0
10959  10627  10953  0
10943  10956  10955  0
10957  10960  10614  0
10614  10960  10249  0
10961  10239  10235  0
10607  10616  10962  0
10618  10962  10616  0
10627  10959  10963  0
10248  10613  9877  0
10964  10628  10250  0
10250  10249  10964  0
10960  10964  10249  0
10603  10615  10965  0
10615  10238  10965  0
10966  10965  10238  0
10239  10961  10622  0
10967  10962  10618  0
10968  10967  10618  0
10969  10255  10627  0
10627  10963  10969  0
10970  10259  10629  0
10629  10628  10971  0
10238  10251  10966  0
10630  10966  10251  0
10625  10626  10624  0
10255  10969  10632  0
10259  10970  10637  0
10254  10634  10972  0
10254  10972  10626  0
10634  10635  10973  0
10634  10973  10972  0
10635  10632  10974  0
10257  10636  10633  0
10635  10974  10975  0
10635  10975  10973  0
10974  10976  10975  0
10636  10262  10977  0
10638  10647  10641  0
10638  10637  10647  0
10648  10647  10637  0
10262  10265  10977  0
10265  10266  10978  0
10641  10647  10644  0
10643  10642  10645  0
10266  10277  10978  0
10642  10280  10645  0
10979  10271  10980  0
10271  10649  10980  0
10271  10979  10272  0
10981  10272  10979  0
10272  10981  10650  0
10650  10981  10651  0
10650  10651  10274  0
10648  10982  10983  0
10648  10983  10279  0
10984  10649  10985  0
10984  10986  10980  0
10984  10980  10649  0
10649  10653  10985  0
10981  10987  10651  0
10651  10987  10988  0
10651  10988  10654  0
10654  10988  10283  0
10284  10283  10989  0
10284  10989  10655  0
10990  10656  10294  0
10990  10294  10658  0
10990  10991  10656  0
10656  10991  10652  0
10279  10983  9914  0
10985  10992  10984  0
10985  10653  10993  0
10653  10657  10659  0
10653  10659  10993  0
10655  10661  10285  0
10655  10989  10994  0
10655  10994  10661  0
10995  10303  10316  0
10995  10316  10996  0
10303  10995  10997  0
10303  10997  10658  0
9914  10983  10998  0
10985  10993  10992  0
10993  10659  10660  0
10993  10660  10663  0
10661  10994  10665  0
10302  10999  10301  0
10302  10666  11000  0
10302  11000  10999  0
10301  10999  11001  0
10301  11001  10662  0
10662  11002  10312  0
10662  10312  10300  0
10662  11001  11003  0
10662  11003  11002  0
11002  11004  10313  0
11002  10313  10312  0
11002  11003  11005  0
11002  11005  11004  0
11004  10314  10313  0
11004  10315  10314  0
10315  11004  11006  0
10315  11006  10316  0
10316  11006  10996  0
10998  10319  9914  0
11007  10663  10664  0
11007  10664  10672  0
11007  10992  10663  0
10663  10992  10993  0
10665  11008  10673  0
10311  10667  10666  0
10319  11009  10320  0
11010  10325  10674  0
11010  11011  10325  0
11012  11010  10674  0
10325  11011  9940  0
9940  11011  10672  0
9940  10672  10321  0
11013  10675  11014  0
10673  11014  10675  0
11015  11013  11014  0
11013  11016  10675  0
11014  10673  11015  0
11008  11015  10673  0
10667  11017  10666  0
10329  10322  11018  0
10329  11018  10679  0
10668  11018  10322  0
11019  10671  10323  0
10320  11009  11020  0
10320  11020  10324  0
10674  10330  11012  0
11021  11012  10330  0
10675  11016  10676  0
10667  10677  11017  0
11022  11017  10677  0
10678  10679  10683  0
10324  11020  10680  0
10336  11021  10330  0
11023  10681  10676  0
10682  10683  10688  0
11024  10688  10683  0
10692  11025  9956  0
11019  9956  11025  0
9956  11019  10323  0
10337  10338  11026  0
10681  11026  10338  0
10337  11026  10693  0
11023  11027  10681  0
10677  10686  11022  0
11028  11022  10686  0
11029  10689  10688  0
10340  11030  10691  0
10342  10693  10695  0
11026  11031  10693  0
10693  11031  10695  0
11032  10686  10685  0
11033  11028  10686  0
10685  10687  11032  0
11034  11032  10687  0
10687  10689  11034  0
11035  11034  10689  0
10697  10696  10345  0
11036  10701  10695  0
9970  10695  10701  0
11031  11036  10695  0
10686  11032  11037  0
11038  11037  11032  0
10686  11037  11033  0
11032  11034  11038  0
10698  10699  11039  0
9967  9962  10700  0
10347  10700  9962  0
10348  10349  11040  0
11041  11040  10349  0
10349  10701  11041  0
11036  11041  10701  0
10699  10702  11039  0
10702  11042  11039  0
9978  10703  11043  0
9978  11043  9984  0
10700  10347  11044  0
10347  10348  11044  0
10348  11040  11044  0
10702  10704  11045  0
10702  11045  11042  0
10704  11046  11045  0
10704  10355  11046  0
11047  11048  11049  0
11047  11050  11048  0
11051  11048  11050  0
11048  11051  11052  0
11048  11052  11049  0
11051  11053  11052  0
11051  11054  11053  0
11055  11053  11054  0
10355  10705  11056  0
10355  11056  11046  0
11047  11049  11057  0
11049  11052  11058  0
11052  11053  11059  0
11052  11059  11058  0
11053  11060  11059  0
11053  11055  11060  0
11061  11060  11062  0
10708  10366  11063  0
11059  11061  11058  0
11059  11060  11061  0
10365  10711  10705  0
11064  10705  10711  0
10366  10367  10714  0
9646  10709  10712  0
10364  10710  10715  0
10370  11065  11066  0
10370  11066  10711  0
10370  10717  11065  0
10713  11067  9997  0
10368  10716  11068  0
10715  11069  10369  0
10369  11070  10003  0
10369  10003  10371  0
10717  9653  11071  0
10718  9997  11067  0
10716  10375  11072  0
11070  10004  10377  0
11070  10377  10003  0
11070  11073  10004  0
10721  11071  9653  0
11074  10722  10373  0
11074  10373  10719  0
11074  11075  10722  0
10375  10379  11076  0
10375  11076  11072  0
10379  10720  11076  0
10720  10004  11073  0
10381  11077  10721  0
10722  11078  10378  0
10722  11075  11079  0
10722  11079  11078  0
10723  10380  10382  0
10723  11077  10381  0
11078  11080  10378  0
10724  11081  10382  0
10724  10726  11082  0
10724  11082  11081  0
11080  11083  10725  0
11080  10725  10378  0
10726  10727  11082  0
11083  11084  10728  0
11083  10728  10725  0
10727  10386  11085  0
10386  10729  11086  0
10386  11086  11085  0
10729  11087  11086  0
10730  11088  10729  0
10729  11088  11087  0
11088  10730  11089  0
11088  11089  11090  0
10731  11089  10730  0
11089  10731  11084  0
11089  11084  11090  0
10728  11084  10731  0
11091  11092  10737  0
10737  11093  10732  0
10732  11093  11094  0
10732  11094  10733  0
10733  11094  11095  0
10733  11095  10735  0
10735  11095  11096  0
11091  10737  10738  0
10735  11096  10739  0
10738  11097  11091  0
10738  10740  11097  0
11098  11097  10740  0
10739  11096  11099  0
10739  11099  10741  0
10740  10743  11098  0
10744  11098  10743  0
11099  11100  10741  0
10741  11101  10742  0
10741  11100  11102  0
10741  11102  11101  0
10744  10395  11103  0
10395  10033  11103  0
10748  11103  10033  0
11104  10742  11101  0
11105  11101  11102  0
10742  11104  10745  0
10746  10745  11104  0
11101  11105  11104  0
11106  10746  11104  0
11107  10747  11108  0
10747  10401  11108  0
11109  11108  10401  0
10747  11107  10397  0
11110  10397  11107  0
10397  11110  10398  0
11111  10399  10398  0
11112  10748  10037  0
10746  11106  10749  0
11113  10749  11106  0
10401  10750  11109  0
11114  11109  10750  0
10399  11111  10403  0
10749  11113  10751  0
11115  10751  11113  0
10750  10405  11114  0
10403  11111  10404  0
11116  10404  11111  0
10037  10040  11112  0
11117  11112  10040  0
11118  10751  11115  0
10408  11119  10752  0
10753  11120  10754  0
11121  11114  10405  0
10404  11116  10406  0
10040  10756  11117  0
11118  10757  10751  0
10405  10760  11121  0
10763  10758  10759  0
10414  10755  10419  0
10770  10419  10755  0
10755  11122  10770  0
11121  10760  11123  0
10760  10761  11123  0
10756  10762  11117  0
11123  10761  11124  0
10056  10765  10772  0
10413  10757  10769  0
11125  10769  10757  0
10764  10418  11126  0
10770  11127  10771  0
10775  10771  11127  0
11127  11128  10775  0
11124  10775  11128  0
10775  10761  10767  0
10775  11124  10761  0
10772  10765  11129  0
10766  10768  11130  0
10766  11130  10762  0
10418  10778  11131  0
10418  11131  11126  0
10771  10775  10774  0
10768  10776  11132  0
10768  11132  11130  0
10778  10429  10783  0
10778  10783  11133  0
10783  11134  11133  0
11135  10777  10773  0
10783  10784  11134  0
10776  11136  11132  0
10777  11135  10782  0
10780  10785  10441  0
10780  11137  10785  0
10781  10443  11138  0
10781  11138  11136  0
10781  11136  10776  0
10782  11135  11139  0
10784  11140  11134  0
10785  11141  10786  0
10444  10787  11138  0
10444  11138  10443  0
10782  11139  10788  0
10784  10789  11142  0
10784  11142  11140  0
10788  11139  11143  0
10788  11143  10790  0
10790  11143  11144  0
10790  11144  10448  0
10448  11144  10451  0
10450  10791  10789  0
10455  11145  10454  0
10792  11146  11147  0
10792  11147  10791  0
10792  10793  11146  0
10795  11148  10796  0
10454  11145  10795  0
10793  11149  11146  0
10793  10797  11150  0
10793  11150  11149  0
10796  11151  10794  0
10796  11148  11152  0
10797  10461  11153  0
10797  11153  11150  0
10798  10794  11154  0
10798  11154  10460  0
10794  11151  11154  0
11151  10796  11152  0
10461  10469  11155  0
10461  11155  11153  0
11156  10802  10460  0
10460  11154  11156  0
11155  11157  11153  0
10807  10804  10803  0
10803  10799  10807  0
10805  10799  10800  0
11158  10473  10472  0
10472  10802  11158  0
10471  10806  10469  0
11159  10469  10806  0
10469  11159  11155  0
11160  11155  11159  0
10799  10805  10808  0
10473  11158  11161  0
10473  11161  10474  0
10806  11162  11159  0
10806  10477  11162  0
11163  11162  10477  0
10815  10810  10808  0
10808  10805  10815  0
11164  10815  10805  0
10805  10809  11164  0
10811  11164  10809  0
10474  11161  11165  0
10477  10476  11166  0
10813  11166  10476  0
10477  11166  11163  0
11167  11163  11166  0
10816  11164  10811  0
10811  10483  10816  0
10474  11165  10812  0
11168  11166  10813  0
11169  11167  11166  0
10813  10482  11168  0
11170  11168  10482  0
10814  11170  10482  0
10815  11164  10818  0
10816  10818  11164  0
10812  11165  10489  0
11171  10489  11165  0
11166  11168  11169  0
10820  10814  10484  0
11171  10819  10489  0
10814  10820  11172  0
11173  10819  11171  0
11174  10490  10828  0
10490  11174  10492  0
10492  11175  10497  0
10819  11173  10827  0
11176  10827  11173  0
11177  11178  10835  0
10836  10835  11178  0
11179  10497  11175  0
10500  10497  11179  0
10503  10840  10829  0
11180  10829  10840  0
10827  11176  10832  0
11181  10832  11176  0
11177  10835  11182  0
10509  11182  10835  0
11177  11182  11183  0
10836  11184  10837  0
11185  10834  10499  0
10834  11185  10828  0
10515  10839  10840  0
10840  11186  11180  0
10832  11181  10516  0
11182  10509  10844  0
11182  10844  11187  0
11182  11187  11183  0
11188  10499  10838  0
10499  11188  11185  0
11186  10839  11189  0
10839  10848  11189  0
10839  11186  10840  0
10842  10855  10841  0
10842  10843  10855  0
10858  11190  10860  0
10860  11191  11192  0
10860  11192  10859  0
10860  11190  11191  0
11193  11192  11191  0
11187  10844  11194  0
10844  10851  11195  0
10844  11195  11194  0
10845  11196  10852  0
10845  11197  11196  0
10845  10846  11198  0
10845  11198  11197  0
11199  10512  10847  0
10512  11199  10513  0
10520  10513  11199  0
10848  10520  11200  0
10841  11201  10854  0
10841  10855  11201  0
10849  11202  10856  0
10859  11192  10861  0
11192  11193  11203  0
11192  11203  10861  0
11204  11203  11193  0
10851  10862  11205  0
10851  11205  11195  0
10852  11196  10866  0
10846  10853  11206  0
10846  11206  11198  0
10854  11201  11207  0
11201  10855  10871  0
11202  11208  10856  0
10856  11208  11209  0
10856  11209  10524  0
10524  11209  10850  0
10861  11203  10867  0
10863  10868  10862  0
11196  11197  11210  0
11197  11198  11210  0
10853  10533  10874  0
10853  10874  11211  0
10853  11211  11206  0
10870  10854  11212  0
10854  11207  11212  0
11207  11201  11213  0
11201  10871  11213  0
11214  10545  10872  0
11214  10872  10867  0
11214  11215  10876  0
11214  10876  10545  0
10867  11203  11214  0
10865  10866  10873  0
10866  11196  11216  0
10870  11212  10869  0
11213  10871  10552  0
10546  10876  11217  0
10546  11217  10883  0
10877  11218  10868  0
10873  10866  10880  0
11219  10880  10866  0
10866  11216  11219  0
11220  10874  10556  0
11221  10881  10875  0
10875  10869  11221  0
10869  11212  11221  0
11213  10552  10888  0
11222  11213  10888  0
10884  11223  11224  0
11225  11223  10884  0
10884  11224  10877  0
11226  10886  10880  0
10880  11219  11226  0
10893  10887  10881  0
10881  11221  10893  0
11227  11222  10888  0
10559  10882  11228  0
10559  11228  10892  0
10884  10885  11225  0
10889  11225  10885  0
10889  10890  11229  0
11230  11229  10890  0
10890  10886  11230  0
11231  11230  10886  0
11226  11231  10886  0
10556  10891  11220  0
10887  10893  10191  0
11227  10888  11232  0
10561  11232  10888  0
11227  11232  11233  0
10563  10893  11234  0
10563  11234  10567  0
10561  10568  11232  0
11233  11232  11234  0
11232  10568  11234  0
11235  10891  10562  0
10567  11234  10568  0
10894  11236  10895  0
11237  11235  10562  0
11238  10895  11236  0
11239  10562  10566  0
10562  11239  11237  0
10566  10896  11239  0
10895  11240  10570  0
10197  10569  10896  0
11241  10896  10569  0
10570  11240  10897  0
11242  10897  11240  0
10897  11243  10575  0
10901  10575  11243  0
10897  11242  11243  0
11243  11244  10901  0
11245  10901  11244  0
11243  11246  11244  0
10569  10900  11241  0
11247  10907  10901  0
10901  11245  11247  0
11248  10903  11249  0
10902  11249  10903  0
10903  11250  10904  0
11251  10904  11250  0
11252  10904  11251  0
10904  11252  10905  0
11253  10905  11252  0
10905  11253  10578  0
10578  11253  10579  0
