#!ascii file
1023  1031  1032  0
1023  1032  1027  0
1022  1028  1033  0
1022  1033  1031  0
1029  1030  1034  0
1029  1034  1028  0
1030  1035  1036  0
1030  1036  1034  0
1037  1038  1039  0
1039  1038  1040  0
1033  1041  1031  0
1028  1042  1033  0
1028  1034  1042  0
1043  1044  1045  0
1046  1045  1044  0
1043  816  594  0
1043  594  1044  0
817  1047  818  0
818  1047  819  0
1037  1039  1048  0
1037  1048  1049  0
1039  1050  1048  0
1039  1040  1050  0
822  1048  1050  0
1050  1040  1051  0
1050  1051  822  0
1052  1041  1033  0
593  1044  594  0
1053  595  819  0
595  1053  820  0
821  820  1053  0
1054  1049  1048  0
1055  1054  1048  0
1048  822  1055  0
824  1055  822  0
822  1051  823  0
1056  823  1051  0
1057  823  1056  0
1033  1042  1052  0
1058  1059  1044  0
1044  593  1058  0
1060  1058  593  0
593  597  1060  0
599  1060  597  0
825  1061  826  0
1054  1055  1062  0
1055  824  1063  0
829  1063  824  0
1055  1063  1064  0
1055  1064  1062  0
823  1057  827  0
1065  827  1057  0
827  1065  606  0
1060  599  1066  0
1060  1066  1058  0
599  828  1066  0
828  600  1067  0
1068  826  1061  0
826  1068  602  0
602  1068  831  0
829  833  1069  0
829  1069  1063  0
606  1065  830  0
600  609  1070  0
600  1070  1067  0
831  836  832  0
831  1068  836  0
1069  833  1071  0
1069  1072  1063  0
830  1073  834  0
609  835  1070  0
839  1070  835  0
840  611  836  0
1069  1071  1072  0
833  622  843  0
833  843  1071  0
1073  1074  834  0
834  1074  837  0
845  1075  628  0
840  1076  617  0
843  1077  1071  0
1078  837  1074  0
837  1078  625  0
628  1075  838  0
1079  838  1075  0
838  1079  631  0
631  1079  846  0
1080  633  846  0
839  619  1081  0
617  1076  841  0
843  842  1082  0
648  842  621  0
621  847  648  0
625  1078  844  0
1083  844  1078  0
630  848  845  0
633  1080  849  0
1084  849  1080  0
849  1084  853  0
1085  853  1084  0
619  850  1081  0
1076  855  841  0
842  648  1082  0
847  637  650  0
844  1083  640  0
851  640  1083  0
853  1086  854  0
853  1085  1086  0
1086  850  854  0
1086  1085  1087  0
1086  1087  850  0
850  1087  1081  0
644  1088  859  0
644  859  646  0
644  855  1089  0
644  1089  1088  0
648  847  650  0
851  1090  856  0
851  1091  1090  0
656  856  1090  0
861  867  1092  0
1093  864  1090  0
863  1090  864  0
1091  1093  1090  0
1090  863  656  0
1094  869  862  0
1095  1094  862  0
862  864  1095  0
1093  1095  864  0
657  658  1096  0
1097  1096  658  0
658  659  1097  0
659  660  1097  0
660  1098  1097  0
660  868  1098  0
868  869  1094  0
872  873  1099  0
872  1099  1100  0
1099  873  1101  0
870  657  1096  0
873  871  1102  0
873  1102  1101  0
871  875  1103  0
871  1103  1102  0
533  1104  876  0
533  876  534  0
533  870  1104  0
875  880  1103  0
876  1104  1105  0
876  1105  1106  0
679  876  1106  0
1106  877  679  0
1106  1105  877  0
877  1105  675  0
675  1107  878  0
880  1108  1103  0
880  881  1108  0
888  1108  881  0
671  876  882  0
883  882  876  0
876  679  883  0
878  1107  1109  0
681  878  1110  0
681  1110  884  0
879  1111  874  0
879  885  1111  0
874  1111  1112  0
874  1112  886  0
1113  538  882  0
882  883  1113  0
544  1113  883  0
680  544  883  0
884  1110  1114  0
884  1114  684  0
684  1114  889  0
886  1112  888  0
1115  888  1112  0
888  1115  1116  0
538  1113  688  0
538  688  682  0
1113  544  688  0
1115  895  1116  0
1116  895  1117  0
1116  1117  1118  0
1116  1118  1119  0
685  892  893  0
891  1120  892  0
891  889  1121  0
891  1121  1120  0
885  894  896  0
895  1115  896  0
895  897  1117  0
1117  897  1118  0
898  1118  897  0
1118  898  1122  0
908  1122  898  0
686  893  900  0
908  707  1123  0
901  900  1124  0
902  1125  1126  0
902  1126  903  0
902  904  1125  0
910  1127  904  0
904  1127  1128  0
904  1128  1125  0
566  916  707  0
909  912  709  0
1129  912  909  0
910  1130  1127  0
1128  1127  1130  0
910  911  1130  0
704  906  1131  0
1132  704  1131  0
914  1133  911  0
1130  911  1133  0
704  1132  915  0
1134  915  1132  0
1135  1136  1137  0
1138  1137  1136  0
1136  1139  1140  0
1136  1135  1139  0
1141  1139  1135  0
1142  913  919  0
915  1134  923  0
924  1143  1138  0
1138  1136  924  0
925  924  1136  0
1136  1140  925  0
929  925  1140  0
1140  1139  929  0
928  929  1139  0
931  928  1139  0
1139  933  931  0
1139  1141  933  0
933  917  934  0
933  1144  917  0
383  934  917  0
1142  919  921  0
920  921  919  0
1145  1143  938  0
939  938  1143  0
1145  938  1146  0
1143  924  939  0
925  929  927  0
923  1147  937  0
938  944  1146  0
1147  1148  937  0
1147  1149  1148  0
1150  1148  1149  0
1151  1152  1153  0
1154  1152  1151  0
1151  949  1154  0
1155  1154  949  0
1154  1155  1156  0
1157  1156  1155  0
1148  1150  1158  0
1148  1159  937  0
945  937  1159  0
944  752  1153  0
947  1153  752  0
1153  947  1151  0
949  1151  947  0
949  951  1155  0
1160  1155  951  0
1155  1160  1157  0
941  943  946  0
941  946  1161  0
1162  1158  1163  0
1158  1162  1148  0
1159  1148  1162  0
951  950  1164  0
951  1164  1160  0
1165  953  952  0
952  941  1166  0
1161  1166  941  0
952  1166  1165  0
1163  1167  1168  0
1163  1169  1167  0
1163  1168  1162  0
954  958  950  0
950  1170  1164  0
950  958  1170  0
1164  1170  1171  0
1172  1173  1174  0
1172  1174  1175  0
1173  1176  1174  0
946  955  1161  0
1167  1177  1168  0
1168  1177  1178  0
1168  1178  1179  0
1168  1179  1162  0
1162  1179  1159  0
1180  1159  1179  0
1159  1180  945  0
770  945  1180  0
1172  1181  1182  0
1183  1182  1181  0
953  1165  1184  0
1177  1167  1185  0
1167  1186  1185  0
1178  1187  1179  0
1180  1179  1187  0
1180  961  770  0
1182  1183  1188  0
1185  1189  1177  0
1177  1189  1190  0
1177  1190  1178  0
1187  1178  1191  0
1187  1191  1180  0
1183  962  963  0
963  1188  1183  0
957  967  1192  0
957  1192  1193  0
1180  1191  961  0
961  1191  968  0
967  1194  1195  0
967  1195  1192  0
967  794  1196  0
967  1196  1194  0
794  795  1196  0
795  796  1197  0
795  1197  1196  0
796  970  1197  0
796  586  970  0
968  1191  1198  0
1196  1199  1194  0
1196  1197  1199  0
970  971  1200  0
971  969  968  0
971  968  1200  0
1201  1202  974  0
1202  1203  974  0
975  974  1203  0
1204  975  1203  0
1203  1205  1204  0
1206  1204  1205  0
974  973  1201  0
1207  1201  973  0
975  1204  979  0
1208  979  1204  0
1204  1209  1208  0
1204  1206  1209  0
1210  1209  1206  0
1209  1210  1211  0
977  1212  1207  0
977  1207  973  0
977  978  1212  0
1213  1212  978  0
992  1208  1209  0
1209  1214  992  0
1209  1211  1214  0
981  984  978  0
1213  978  984  0
979  1208  986  0
1000  986  1208  0
1208  992  1000  0
990  992  1214  0
1214  994  990  0
1214  1211  1215  0
1214  1215  994  0
799  996  984  0
986  1000  988  0
989  1000  992  0
994  1216  993  0
984  1217  1213  0
798  800  995  0
995  1218  996  0
996  1218  984  0
1217  984  1218  0
993  1219  1005  0
1220  1005  1219  0
1221  800  1008  0
1221  1222  800  0
1223  800  1222  0
800  1223  995  0
1218  995  1223  0
1006  1005  1224  0
1005  1225  1224  0
1005  1220  1225  0
1226  1227  1228  0
1229  1221  1008  0
1010  1003  1230  0
1007  1230  1003  0
1224  1007  1006  0
1009  1229  1008  0
1009  812  1231  0
1010  1230  1232  0
1010  1232  1011  0
1231  812  1233  0
1013  1233  812  0
1012  1014  1234  0
1235  1234  1014  0
1016  1235  1014  0
1011  1232  1236  0
1019  1237  1021  0
1019  1024  1237  0
1238  1237  1024  0
1021  1237  1239  0
1021  1239  1020  0
1026  1017  1020  0
1020  1239  1240  0
1241  1234  1235  0
1235  1016  1241  0
1242  1016  1015  0
1016  1243  1241  0
1015  1011  1242  0
1244  1242  1011  0
1011  1236  1244  0
1026  1245  1025  0
1026  1020  1245  0
1025  1246  1030  0
1025  1245  1247  0
1025  1247  1246  0
1246  1248  1030  0
1016  1242  1249  0
1016  1249  1243  0
1242  1244  1250  0
1242  1250  1251  0
1242  1251  1252  0
1242  1252  1249  0
1244  1253  1250  0
1244  1236  1254  0
1024  1027  1255  0
1030  1248  1035  0
1244  1038  1037  0
1244  1037  1253  0
1244  1254  1038  0
1027  1032  1256  0
1027  1256  1255  0
1035  1257  1036  0
1258  1036  1257  0
1259  1043  1045  0
1043  1259  816  0
1260  816  1259  0
1260  817  816  0
1261  817  1260  0
1251  1262  1252  0
1251  1250  1263  0
1250  1253  1264  0
1250  1264  1263  0
1253  1037  1264  0
1049  1264  1037  0
1038  1265  1040  0
1266  1040  1265  0
1032  1031  1267  0
1041  1267  1031  0
1032  1267  1256  0
1268  1256  1267  0
1258  1042  1036  0
1034  1036  1042  0
1269  1042  1258  0
1270  817  1261  0
817  1270  1047  0
1271  1047  1270  0
1047  1271  819  0
1272  819  1271  0
1251  1263  1262  0
1273  1263  1264  0
1264  1049  1273  0
1040  1266  1274  0
1040  1274  1051  0
1267  1041  1268  0
1275  1268  1041  0
1041  1052  1275  0
1269  1275  1052  0
1052  1042  1269  0
1046  1044  1059  0
1046  1059  1276  0
1046  1276  1277  0
819  1272  1278  0
819  1278  1053  0
1053  1278  821  0
821  1278  1279  0
821  1279  825  0
1273  1049  1280  0
1049  1054  1280  0
1062  1280  1054  0
1051  1274  1056  0
1056  1281  1057  0
1058  1282  1059  0
825  1279  1061  0
1061  1279  1283  0
1062  1064  1072  0
1062  1072  1284  0
1062  1284  1280  0
1065  1057  1285  0
1058  1066  1282  0
828  1067  1066  0
1061  1283  1068  0
1064  1063  1072  0
1286  1065  1285  0
1065  1286  830  0
1067  1070  1287  0
1067  1287  1288  0
1068  1289  1290  0
830  1286  1073  0
1291  1287  1070  0
1070  839  1291  0
1068  1290  836  0
1072  1071  1077  0
1072  1077  1292  0
1073  1293  1074  0
1081  1291  839  0
840  836  1290  0
1082  1077  843  0
1074  1293  1078  0
1294  1078  1293  0
1075  1295  1079  0
1296  1079  1297  0
1079  1295  1297  0
1298  1297  1295  0
1079  1296  846  0
1080  846  1296  0
1076  840  1299  0
1076  1299  855  0
1077  1082  1300  0
1078  1294  1301  0
1078  1301  1083  0
1083  1301  1302  0
845  848  1303  0
845  1303  1304  0
1297  1298  1296  0
1080  1296  1305  0
1080  1305  1084  0
1084  1305  1085  0
1082  647  1300  0
1082  648  647  0
851  1083  1306  0
848  641  858  0
848  858  1307  0
1085  1305  1308  0
1085  1308  1309  0
1085  1309  1087  0
1087  1309  1081  0
855  1299  1089  0
851  1306  1091  0
1310  1091  1306  0
1088  1311  859  0
1310  1093  1091  0
857  861  858  0
1095  1093  1312  0
1092  867  1313  0
1098  868  1094  0
1098  1094  1314  0
1095  1314  1094  0
867  872  1313  0
1100  1313  872  0
1096  1097  1315  0
1316  1315  1097  0
1098  1316  1097  0
1096  1317  870  0
1318  1101  1102  0
1101  1318  1319  0
870  1317  1104  0
1320  1321  1322  0
1103  1323  1102  0
1102  1324  1318  0
1104  1317  1325  0
1104  1325  1105  0
1105  1326  675  0
675  1326  1107  0
1321  1327  1322  0
1108  1328  1103  0
1108  888  1329  0
1103  1328  1323  0
1326  1105  1330  0
1326  1331  1107  0
1107  1331  1109  0
1109  1110  878  0
1332  1329  888  0
1333  1109  1331  0
1109  1333  1110  0
1334  889  1114  0
889  1334  1121  0
1111  885  1112  0
1335  1112  885  0
1112  1335  1115  0
888  1116  1332  0
1336  1332  1116  0
1116  1119  1336  0
896  1335  885  0
1115  1335  896  0
1337  1118  1122  0
1337  1119  1118  0
1338  1120  1121  0
1122  908  1337  0
1337  908  1123  0
1337  1123  1339  0
893  892  1340  0
893  1340  1341  0
893  1341  900  0
892  1120  1342  0
892  1342  1340  0
903  1126  1343  0
903  1343  907  0
903  907  905  0
682  688  557  0
900  1341  1124  0
1125  1344  1345  0
1125  1345  1126  0
1125  1128  1344  0
1126  1345  1346  0
1126  1346  1343  0
1343  1346  1347  0
1343  1347  907  0
907  1347  1348  0
907  1348  906  0
901  1124  909  0
1349  909  1124  0
1348  1131  906  0
1350  1130  1133  0
1130  1350  1128  0
1135  1137  1351  0
1352  1351  1137  0
1351  1353  1135  0
1135  1353  1141  0
1354  1141  1353  0
1355  1141  1354  0
1142  1356  913  0
913  1356  914  0
1357  914  1356  0
914  1357  1133  0
1132  1358  1134  0
1138  1143  1359  0
1359  1143  1360  0
1145  1360  1143  0
1359  1137  1138  0
1352  1137  1359  0
1141  1355  933  0
1144  933  1355  0
916  1144  1355  0
917  1144  916  0
1142  1129  1361  0
1362  923  1134  0
1145  1146  1363  0
1145  1363  1364  0
912  1142  921  0
912  1129  1142  0
1362  1147  923  0
1362  1365  1147  0
1366  1367  1368  0
1366  1368  1369  0
1366  1369  1370  0
1366  1370  1156  0
1366  1156  1371  0
1366  1371  1372  0
1366  1372  1367  0
1147  1365  1149  0
1146  944  1369  0
1152  1369  944  0
1146  1369  1363  0
1369  1152  1370  0
1154  1370  1152  0
1370  1154  1156  0
1373  1371  1156  0
1371  1373  1374  0
1371  1374  1375  0
1376  1374  1373  0
1377  1378  1379  0
1158  1379  1378  0
1379  1158  1380  0
1150  1380  1158  0
1380  1150  1149  0
944  1153  1152  0
1156  1157  1373  0
1381  1373  1157  0
1373  1381  1376  0
1382  1376  1381  0
1383  1376  1382  0
1378  1377  1384  0
1385  1384  1377  0
1157  1160  1381  0
1381  1174  1382  0
1386  1383  1382  0
1387  1169  1384  0
1384  1169  1378  0
1378  1169  1163  0
1378  1163  1158  0
1160  1164  1175  0
1160  1175  1381  0
1381  1175  1174  0
1382  1174  1176  0
1382  1176  1388  0
1382  1388  1386  0
1389  1387  1390  0
1387  1389  1167  0
1387  1167  1169  0
1164  1171  1181  0
1164  1181  1175  0
1175  1181  1172  0
1166  1161  955  0
1389  1391  1392  0
1393  1389  1392  0
1389  1393  1167  0
1186  1167  1393  0
1394  1170  958  0
1170  1394  1171  0
1171  1394  1181  0
1183  1181  1394  0
957  1165  1166  0
1166  955  957  0
1392  1391  1395  0
962  1394  958  0
1183  1394  962  0
1165  957  1193  0
1392  1396  1393  0
1393  1397  1186  0
1393  1396  1397  0
1186  1397  1185  0
1189  1185  1397  0
1189  1398  1190  0
1399  1190  1398  0
1190  1399  1191  0
1190  1191  1178  0
1193  1400  1401  0
1402  1401  1400  0
1193  1192  1403  0
1193  1403  1400  0
1397  1404  1189  0
1405  1189  1404  0
1189  1405  1398  0
1406  1398  1405  0
1398  1406  1399  0
1399  1198  1191  0
1407  1401  1402  0
1407  1402  1408  0
1192  1195  1403  0
1399  1200  968  0
1399  1406  1200  0
1399  968  1198  0
1403  1195  1409  0
1403  1409  1410  0
1195  1194  1411  0
1195  1411  1409  0
1194  1199  1411  0
1199  1412  1411  0
1199  1197  1412  0
1197  970  1413  0
1197  1413  1412  0
970  1200  1414  0
970  1414  1413  0
1406  1414  1200  0
1415  1416  1410  0
1410  1409  1415  0
1417  1415  1409  0
1409  1411  1417  0
1418  1417  1411  0
1411  1412  1418  0
1419  1418  1412  0
1420  1421  1422  0
1421  1420  1423  0
1203  1202  1420  0
1420  1202  1423  0
1424  1423  1202  0
1420  1205  1203  0
1420  1422  1425  0
1420  1425  1205  0
1202  1201  1424  0
1426  1424  1201  0
1205  1427  1206  0
1210  1206  1427  0
1201  1207  1426  0
1428  1426  1207  0
1429  1211  1210  0
1430  1431  1432  0
1433  1432  1434  0
1432  1431  1434  0
1435  1434  1431  0
1432  1436  1430  0
1432  1433  1436  0
1437  1436  1433  0
1207  1212  1428  0
1431  1430  1438  0
1431  1438  1439  0
1431  1439  1435  0
1430  1436  1440  0
1436  1441  1440  0
1213  1217  1212  0
1428  1212  1442  0
1428  1442  1443  0
1211  1444  1215  0
1438  1430  1226  0
1430  1440  1227  0
1430  1227  1226  0
1440  1441  1445  0
1440  1445  1227  0
1441  1446  1445  0
1217  1447  1212  0
1212  1447  1442  0
1215  1448  1216  0
1215  1216  994  0
1227  1445  1449  0
1445  1450  1449  0
1217  1451  1447  0
1448  1452  1453  0
1448  1453  1216  0
1216  1454  1219  0
1216  1219  993  0
1216  1453  1454  0
1438  1226  1455  0
1438  1455  1456  0
1455  1457  1456  0
1449  1450  1458  0
1449  1458  1459  0
1449  1459  1227  0
1218  1460  1217  0
1451  1217  1460  0
1447  1451  1442  0
1219  1454  1220  0
1226  1228  1455  0
1461  1455  1228  0
1455  1461  1457  0
1462  1222  1221  0
1223  1222  1463  0
1223  1463  1218  0
1218  1463  1460  0
1460  1464  1451  0
1220  1465  1225  0
1225  1465  1466  0
1461  1228  1227  0
1459  1461  1227  0
1467  1221  1468  0
1229  1468  1221  0
1467  1462  1221  0
1230  1007  1469  0
1230  1469  1470  0
1471  1469  1007  0
1007  1224  1471  0
1224  1225  1471  0
1466  1471  1225  0
1472  1468  1229  0
1229  1009  1473  0
1231  1473  1009  0
1230  1470  1232  0
1474  1475  1471  0
1471  1466  1474  0
1229  1473  1472  0
1012  1234  1013  0
1476  1236  1232  0
1237  1477  1239  0
1237  1478  1477  0
1479  1240  1239  0
1240  1480  1245  0
1240  1245  1020  0
1240  1479  1480  0
1481  1480  1479  0
1480  1482  1245  0
1480  1481  1482  0
1482  1247  1245  0
1483  1247  1482  0
1247  1483  1246  0
1013  1484  1233  0
1013  1234  1484  0
1241  1485  1234  0
1238  1478  1237  0
1238  1024  1486  0
1248  1487  1035  0
1241  1243  1488  0
1241  1488  1485  0
1243  1249  1252  0
1236  1476  1489  0
1236  1489  1254  0
1024  1255  1486  0
1490  1486  1255  0
1491  1257  1487  0
1035  1487  1257  0
1491  1487  1492  0
1491  1492  1493  0
1254  1489  1038  0
1038  1489  1494  0
1038  1494  1265  0
1495  1490  1255  0
1255  1256  1495  0
1496  1495  1256  0
1497  1258  1257  0
1497  1257  1498  0
1491  1498  1257  0
1045  1499  1259  0
1045  1046  1499  0
1265  1494  1266  0
1268  1496  1256  0
1500  1269  1258  0
1500  1258  1501  0
1497  1501  1258  0
1500  1501  1502  0
1500  1502  1269  0
1046  1277  1499  0
1503  1499  1277  0
1270  1504  1271  0
1272  1271  1504  0
1505  1262  1263  0
1263  1273  1505  0
1266  1506  1274  0
1507  1274  1506  0
1268  1275  1508  0
1509  1508  1275  0
1275  1269  1509  0
1502  1509  1269  0
1277  1510  1503  0
1511  1278  1272  0
1278  1511  1279  0
1512  1279  1511  0
1505  1273  1513  0
1273  1280  1513  0
1274  1507  1056  0
1056  1507  1281  0
1514  1281  1507  0
1276  1510  1277  0
1059  1282  1276  0
1279  1512  1283  0
1515  1283  1512  0
1280  1516  1513  0
1516  1280  1284  0
1281  1514  1285  0
1281  1285  1057  0
1276  1517  1510  0
1276  1282  1517  0
1282  1066  1518  0
1282  1518  1517  0
1066  1288  1519  0
1066  1519  1518  0
1066  1067  1288  0
1283  1289  1068  0
1284  1520  1516  0
1285  1521  1286  0
1285  1514  1521  0
1284  1072  1522  0
1284  1522  1520  0
1072  1292  1522  0
1521  1523  1286  0
1286  1524  1073  0
1293  1073  1524  0
1286  1523  1525  0
1286  1525  1524  0
1291  1526  1287  0
1290  1289  1527  0
1292  1077  1522  0
1293  1524  1528  0
1291  1081  1529  0
1290  1527  1530  0
1290  1530  840  0
1294  1293  1528  0
845  1304  1075  0
1309  1529  1081  0
1301  1294  1531  0
1532  1302  1301  0
1533  1075  1304  0
1304  1303  1534  0
1075  1533  1295  0
1295  1533  1535  0
1295  1535  1298  0
1298  1535  1536  0
1298  1536  1296  0
1296  1536  1537  0
1296  1537  1305  0
840  1530  1299  0
1300  647  859  0
1300  859  1311  0
1302  1306  1083  0
1302  1532  1306  0
1538  1306  1532  0
1303  848  1307  0
1303  1307  1539  0
1303  1539  1534  0
1540  1536  1535  0
1536  1540  1537  0
1541  1305  1537  0
1305  1541  1308  0
1542  1308  1541  0
1308  1542  1309  0
1543  1309  1542  0
1089  1299  1544  0
1306  1538  1545  0
1306  1545  1310  0
1307  1546  1539  0
1307  858  1546  0
1088  1089  1311  0
1545  1312  1310  0
1093  1310  1312  0
1539  1546  1547  0
1548  1546  858  0
858  861  1548  0
1092  1548  861  0
1549  1550  1314  0
1314  1095  1312  0
1314  1312  1549  0
1545  1549  1312  0
1546  1548  1551  0
1548  1092  1551  0
1313  1551  1092  0
1098  1314  1552  0
1550  1552  1314  0
1096  1315  1317  0
1325  1317  1315  0
1315  1316  1553  0
1552  1316  1098  0
1313  1100  1554  0
1100  1099  1555  0
1556  1555  1099  0
1099  1101  1556  0
1556  1101  1557  0
1319  1557  1101  0
1558  1321  1559  0
1321  1320  1559  0
1318  1324  1319  0
1320  1560  1559  0
1321  1558  1561  0
1558  1562  1561  0
1563  1562  1558  0
1564  1562  1563  0
1324  1102  1565  0
1325  1330  1105  0
1560  1322  1566  0
1321  1561  1327  0
1561  1562  1564  0
1567  1108  1329  0
1328  1108  1568  0
1328  1568  1323  0
1323  1568  1565  0
1323  1565  1102  0
1325  1569  1330  0
1570  1326  1330  0
1326  1570  1331  0
1571  1331  1570  0
1572  1573  1114  0
1572  1114  1110  0
1572  1574  1573  0
1333  1572  1110  0
1573  1575  1334  0
1573  1334  1114  0
1575  1573  1576  0
1575  1576  1334  0
1577  1566  1322  0
1332  1567  1329  0
1570  1330  1578  0
1331  1571  1579  0
1331  1579  1580  0
1331  1580  1333  0
1334  1576  1338  0
1334  1338  1121  0
1322  1327  1577  0
1581  1577  1327  0
1119  1337  1582  0
1120  1338  1583  0
1120  1583  1342  0
1584  1342  1583  0
1585  1586  1587  0
1588  1585  1587  0
1589  1585  1588  0
1340  1342  1584  0
1340  1584  1590  0
1586  1585  1346  0
1586  1346  1345  0
1585  1347  1346  0
1585  1589  1347  0
1591  1347  1589  0
1341  1340  1590  0
1341  1590  1124  0
1586  1345  1344  0
1344  1128  1592  0
1347  1591  1348  0
1593  1348  1591  0
1123  707  1594  0
1123  1594  1339  0
1124  1595  1349  0
1350  1596  1592  0
1350  1592  1128  0
1131  1348  1593  0
1131  1593  1597  0
1131  1597  1132  0
1594  707  916  0
909  1349  1129  0
1133  1357  1596  0
1133  1596  1350  0
1132  1597  1598  0
1132  1598  1358  0
1352  1359  1360  0
1352  1360  1599  0
1352  1599  1600  0
1352  1600  1351  0
1351  1600  1601  0
1351  1601  1353  0
1353  1601  1602  0
1353  1602  1354  0
1354  1594  1355  0
1354  1602  1594  0
1594  916  1355  0
1129  1349  1361  0
1142  1361  1356  0
1358  1598  1603  0
1358  1603  1134  0
1145  1364  1360  0
1362  1134  1603  0
1365  1362  1603  0
1364  1363  1604  0
1369  1604  1363  0
1605  1372  1371  0
1371  1375  1605  0
1375  1374  1606  0
1375  1606  1605  0
1379  1607  1608  0
1379  1608  1377  0
1385  1377  1608  0
1379  1380  1609  0
1379  1609  1610  0
1379  1610  1607  0
1380  1611  1612  0
1380  1612  1609  0
1611  1380  1149  0
1611  1149  1365  0
1374  1376  1606  0
1606  1376  1383  0
1606  1383  1613  0
1385  1614  1615  0
1385  1616  1614  0
1385  1615  1384  0
1617  1618  1619  0
1617  1619  1620  0
1619  1616  1620  0
1619  1390  1614  0
1619  1614  1616  0
1614  1390  1615  0
1615  1387  1384  0
1618  1617  1621  0
1622  1619  1618  0
1390  1619  1622  0
1615  1390  1387  0
1623  1386  1388  0
1618  1621  1624  0
1618  1624  1622  0
1389  1390  1622  0
1391  1622  1625  0
1622  1624  1625  0
1622  1391  1389  0
1625  1626  1391  0
1395  1391  1627  0
1391  1626  1627  0
1396  1392  1395  0
1627  1628  1395  0
1395  1628  1629  0
1395  1629  1396  0
1396  1629  1397  0
1397  1629  1404  0
1402  1630  1408  0
1402  1400  1631  0
1402  1631  1630  0
1400  1403  1410  0
1400  1410  1631  0
1632  1627  1633  0
1627  1632  1628  0
1628  1634  1629  0
1635  1629  1634  0
1629  1635  1404  0
1636  1404  1635  0
1404  1636  1405  0
1406  1405  1636  0
1408  1630  1637  0
1630  1631  1637  0
1631  1410  1416  0
1631  1416  1637  0
1412  1638  1419  0
1412  1413  1638  0
1413  1414  1638  0
1414  1406  1638  0
1637  1639  1640  0
1637  1416  1641  0
1637  1641  1639  0
1416  1415  1642  0
1416  1642  1641  0
1415  1417  1643  0
1415  1643  1642  0
1417  1644  1643  0
1417  1645  1644  0
1417  1418  1645  0
1646  1647  1640  0
1640  1639  1646  0
1648  1646  1639  0
1639  1641  1648  0
1649  1648  1641  0
1641  1642  1649  0
1650  1649  1642  0
1642  1643  1650  0
1651  1650  1643  0
1643  1644  1651  0
1652  1651  1644  0
1644  1645  1652  0
1653  1652  1645  0
1645  1418  1653  0
1654  1653  1418  0
1418  1419  1654  0
1655  1654  1419  0
1421  1423  1656  0
1657  1658  1659  0
1657  1660  1658  0
1657  1659  1661  0
1657  1661  1662  0
1663  1656  1423  0
1425  1664  1205  0
1427  1205  1664  0
1665  1660  1657  0
1657  1662  1665  0
1666  1665  1662  0
1662  1667  1666  0
1423  1424  1663  0
1424  1426  1663  0
1664  1425  1427  0
1429  1210  1427  0
1660  1665  1668  0
1665  1666  1434  0
1665  1669  1668  0
1666  1667  1433  0
1666  1433  1434  0
1667  1670  1437  0
1667  1437  1433  0
1670  1671  1437  0
1670  1672  1671  0
1426  1428  1673  0
1665  1434  1674  0
1665  1674  1669  0
1434  1435  1674  0
1437  1671  1441  0
1437  1441  1436  0
1675  1671  1672  0
1428  1443  1673  0
1429  1676  1444  0
1429  1444  1211  0
1435  1439  1677  0
1435  1677  1678  0
1441  1671  1446  0
1671  1675  1446  0
1679  1446  1675  0
1676  1680  1681  0
1676  1681  1444  0
1444  1681  1448  0
1444  1448  1215  0
1439  1438  1682  0
1439  1682  1677  0
1446  1679  1445  0
1683  1445  1679  0
1681  1684  1452  0
1681  1452  1448  0
1685  1684  1681  0
1438  1456  1682  0
1445  1683  1450  0
1686  1450  1683  0
1452  1684  1687  0
1688  1456  1457  0
1456  1688  1689  0
1458  1450  1690  0
1686  1690  1450  0
1691  1442  1451  0
1452  1687  1692  0
1452  1692  1453  0
1453  1692  1693  0
1453  1693  1454  0
1454  1693  1220  0
1457  1461  1688  0
1459  1688  1461  0
1458  1688  1459  0
1463  1222  1462  0
1694  1464  1460  0
1691  1464  1694  0
1464  1691  1451  0
1220  1693  1465  0
1465  1695  1466  0
1474  1466  1695  0
1696  1467  1697  0
1468  1697  1467  0
1698  1696  1697  0
1467  1696  1699  0
1467  1699  1462  0
1462  1699  1700  0
1462  1700  1463  0
1463  1700  1460  0
1460  1700  1701  0
1460  1701  1694  0
1702  1470  1469  0
1469  1471  1702  0
1475  1702  1471  0
1703  1704  1697  0
1697  1705  1698  0
1697  1704  1705  0
1697  1468  1472  0
1697  1472  1703  0
1470  1706  1232  0
1470  1702  1706  0
1702  1475  1707  0
1475  1708  1707  0
1475  1474  1708  0
1709  1481  1479  0
1703  1710  1711  0
1703  1711  1704  0
1472  1473  1712  0
1472  1712  1703  0
1473  1231  1712  0
1231  1233  1712  0
1232  1706  1476  0
1477  1713  1239  0
1714  1239  1713  0
1477  1478  1713  0
1239  1714  1479  0
1709  1479  1714  0
1703  1712  1715  0
1703  1715  1710  0
1712  1716  1715  0
1712  1233  1717  0
1712  1717  1716  0
1233  1484  1717  0
1484  1234  1485  0
1238  1718  1478  0
1238  1486  1718  0
1492  1719  1493  0
1493  1719  1720  0
1721  1493  1720  0
1719  1492  1487  0
1722  1719  1487  0
1476  1723  1489  0
1724  1486  1490  0
1725  1498  1493  0
1491  1493  1498  0
1725  1493  1721  0
1726  1727  1728  0
1499  1728  1727  0
1726  1728  1729  0
1259  1499  1727  0
1727  1730  1259  0
1243  1252  1731  0
1732  1731  1252  0
1252  1262  1732  0
1489  1723  1733  0
1489  1733  1494  0
1490  1495  1724  0
1734  1495  1496  0
1735  1501  1498  0
1497  1498  1501  0
1735  1498  1725  0
1259  1730  1710  0
1259  1710  1260  0
1260  1710  1261  0
1266  1494  1506  0
1508  1496  1268  0
1501  1735  1736  0
1501  1736  1502  0
1728  1499  1503  0
1728  1503  1737  0
1261  1715  1270  0
1738  1270  1715  0
1270  1738  1504  0
1262  1505  1732  0
1506  1739  1507  0
1496  1508  1740  0
1508  1509  1741  0
1508  1741  1742  0
1508  1742  1743  0
1508  1743  1740  0
1509  1502  1744  0
1509  1744  1741  0
1502  1745  1744  0
1502  1736  1745  0
1504  1746  1272  0
1747  1272  1746  0
1272  1747  1511  0
1512  1511  1747  0
1513  1748  1505  0
1749  1514  1507  0
1742  1741  1750  0
1742  1750  1743  0
1741  1744  1751  0
1741  1751  1750  0
1744  1745  1752  0
1744  1752  1753  0
1744  1753  1751  0
1513  1516  1754  0
1514  1749  1755  0
1753  1752  1756  0
1753  1756  1751  0
1752  1745  1757  0
1752  1757  1756  0
1758  1510  1517  0
1517  1518  1759  0
1283  1515  1289  0
1520  1754  1516  0
1755  1521  1514  0
1755  1760  1521  0
1759  1758  1517  0
1761  1759  1518  0
1518  1519  1761  0
1288  1287  1519  0
1526  1519  1287  0
1754  1520  1762  0
1521  1760  1763  0
1521  1763  1523  0
1519  1526  1764  0
1526  1291  1764  0
1077  1765  1522  0
1522  1765  1520  0
1523  1763  1525  0
1528  1524  1525  0
1525  1763  1766  0
1077  1300  1767  0
1077  1767  1765  0
1525  1766  1528  0
1768  1528  1766  0
1528  1769  1531  0
1528  1531  1294  0
1528  1768  1769  0
1767  1300  1311  0
1770  1301  1531  0
1301  1770  1532  0
1304  1534  1533  0
1309  1543  1771  0
1309  1771  1529  0
1544  1299  1530  0
1767  1311  1772  0
1534  1773  1533  0
1533  1773  1774  0
1533  1774  1535  0
1540  1535  1775  0
1540  1775  1541  0
1540  1541  1537  0
1541  1776  1542  0
1772  1089  1544  0
1772  1311  1089  0
1534  1539  1777  0
1778  1777  1539  0
1534  1777  1773  0
1779  1535  1774  0
1535  1779  1775  0
1776  1541  1775  0
1776  1780  1542  0
1781  1542  1780  0
1542  1781  1543  0
1771  1543  1781  0
1539  1547  1778  0
1773  1782  1783  0
1773  1783  1774  0
1774  1783  1779  0
1779  1784  1775  0
1775  1784  1776  0
1780  1776  1784  0
1780  1785  1781  0
1781  1785  1786  0
1545  1550  1549  0
1787  1547  1546  0
1546  1551  1788  0
1789  1788  1551  0
1546  1788  1787  0
1790  1316  1552  0
1790  1553  1316  0
1551  1313  1554  0
1315  1791  1325  0
1315  1553  1791  0
1554  1100  1792  0
1100  1555  1792  0
1556  1557  1793  0
1319  1794  1557  0
1795  1319  1324  0
1319  1795  1794  0
1796  1559  1560  0
1559  1797  1558  0
1798  1558  1797  0
1558  1798  1563  0
1799  1563  1798  0
1563  1800  1564  0
1801  1564  1800  0
1563  1799  1800  0
1802  1324  1565  0
1324  1802  1795  0
1573  1574  1803  0
1804  1803  1574  0
1803  1805  1573  0
1576  1573  1805  0
1803  1806  1807  0
1803  1807  1805  0
1560  1808  1796  0
1560  1566  1808  0
1809  1808  1566  0
1810  1561  1564  0
1564  1801  1810  0
1108  1811  1568  0
1108  1567  1812  0
1108  1812  1811  0
1813  1565  1568  0
1565  1813  1802  0
1569  1814  1330  0
1572  1804  1574  0
1572  1333  1804  0
1580  1804  1333  0
1576  1805  1815  0
1809  1566  1816  0
1577  1816  1566  0
1817  1809  1816  0
1818  1327  1561  0
1561  1810  1818  0
1810  1819  1818  0
1568  1811  1813  0
1330  1814  1578  0
1570  1578  1579  0
1570  1579  1571  0
1576  1815  1820  0
1576  1820  1338  0
1587  1816  1821  0
1587  1817  1816  0
1816  1577  1821  0
1577  1581  1822  0
1577  1822  1821  0
1581  1327  1823  0
1327  1818  1823  0
1332  1336  1824  0
1332  1824  1567  0
1336  1119  1582  0
1336  1582  1825  0
1338  1820  1583  0
1587  1821  1588  0
1821  1822  1588  0
1589  1588  1822  0
1582  1337  1826  0
1583  1827  1584  0
1587  1586  1828  0
1337  1339  1826  0
1590  1584  1829  0
1124  1590  1595  0
1344  1830  1586  0
1344  1592  1830  0
1831  1602  1832  0
1833  1832  1602  0
1339  1831  1826  0
1831  1339  1594  0
1596  1834  1830  0
1596  1830  1592  0
1599  1835  1600  0
1600  1835  1833  0
1600  1833  1601  0
1601  1833  1602  0
1831  1594  1602  0
1357  1836  1834  0
1357  1834  1596  0
1837  1360  1364  0
1838  1837  1364  0
1360  1837  1839  0
1360  1839  1599  0
1361  1349  1840  0
1361  1840  1841  0
1361  1841  1356  0
1356  1841  1836  0
1356  1836  1357  0
1603  1598  1842  0
1597  1842  1598  0
1603  1842  1843  0
1364  1604  1838  0
1603  1843  1365  0
1844  1365  1843  0
1604  1369  1368  0
1367  1372  1845  0
1372  1605  1845  0
1605  1846  1847  0
1846  1605  1606  0
1846  1606  1848  0
1848  1606  1613  0
1612  1610  1609  0
1612  1849  1610  0
1612  1844  1849  0
1844  1612  1611  0
1844  1611  1365  0
1850  1620  1851  0
1851  1620  1616  0
1851  1616  1608  0
1385  1608  1616  0
1608  1607  1852  0
1853  1613  1383  0
1850  1617  1620  0
1617  1850  1854  0
1855  1854  1850  0
1386  1856  1853  0
1386  1853  1383  0
1857  1856  1386  0
1621  1617  1854  0
1386  1623  1857  0
1623  1858  1857  0
1623  1859  1858  0
1860  1858  1859  0
1861  1621  1862  0
1621  1854  1862  0
1621  1861  1624  0
1625  1624  1861  0
1860  1859  1863  0
1864  1860  1863  0
1861  1626  1625  0
1861  1865  1626  0
1627  1626  1865  0
1861  1862  1865  0
1633  1865  1866  0
1865  1633  1627  0
1633  1866  1632  0
1632  1867  1628  0
1628  1867  1868  0
1628  1868  1634  0
1634  1868  1635  0
1866  1869  1870  0
1866  1870  1632  0
1867  1632  1870  0
1867  1871  1868  0
1872  1868  1871  0
1873  1868  1872  0
1868  1873  1635  0
1635  1873  1636  0
1638  1636  1873  0
1636  1638  1406  0
1638  1874  1419  0
1647  1646  1875  0
1646  1648  1876  0
1646  1876  1875  0
1648  1649  1877  0
1648  1877  1876  0
1649  1650  1878  0
1649  1878  1879  0
1649  1879  1877  0
1650  1651  1878  0
1651  1652  1880  0
1651  1880  1878  0
1652  1653  1881  0
1652  1881  1880  0
1653  1654  1882  0
1653  1882  1881  0
1654  1655  1882  0
1655  1419  1874  0
1883  1884  1875  0
1875  1876  1883  0
1885  1883  1876  0
1876  1877  1885  0
1886  1659  1658  0
1659  1886  1661  0
1887  1661  1886  0
1888  1661  1887  0
1661  1888  1889  0
1656  1890  1421  0
1422  1421  1890  0
1658  1660  1891  0
1668  1891  1660  0
1661  1889  1662  0
1667  1662  1889  0
1889  1892  1667  0
1893  1667  1892  0
1889  1888  1892  0
1656  1663  1894  0
1895  1894  1663  0
1890  1896  1422  0
1425  1422  1897  0
1422  1896  1897  0
1898  1899  1668  0
1667  1893  1670  0
1672  1670  1893  0
1893  1900  1672  0
1901  1895  1663  0
1425  1902  1427  0
1429  1427  1902  0
1425  1897  1903  0
1425  1903  1902  0
1668  1669  1898  0
1674  1898  1669  0
1904  1898  1674  0
1663  1426  1901  0
1902  1905  1676  0
1902  1676  1429  0
1902  1903  1906  0
1902  1906  1905  0
1674  1435  1678  0
1674  1678  1904  0
1904  1678  1907  0
1672  1900  1675  0
1675  1900  1908  0
1676  1905  1909  0
1676  1909  1680  0
1678  1677  1910  0
1678  1910  1907  0
1907  1910  1911  0
1675  1908  1679  0
1912  1679  1908  0
1680  1909  1681  0
1685  1681  1909  0
1677  1682  1913  0
1677  1913  1910  0
1910  1913  1911  0
1679  1912  1683  0
1443  1442  1914  0
1682  1456  1689  0
1682  1689  1913  0
1913  1689  1915  0
1683  1912  1916  0
1683  1916  1917  0
1683  1917  1686  0
1685  1918  1684  0
1687  1684  1918  0
1689  1688  1458  0
1689  1458  1690  0
1689  1690  1915  0
1690  1686  1915  0
1442  1691  1919  0
1442  1919  1914  0
1920  1692  1687  0
1692  1920  1693  0
1921  1693  1920  0
1693  1921  1465  0
1465  1921  1695  0
1699  1696  1698  0
1699  1922  1700  0
1923  1700  1922  0
1701  1700  1923  0
1924  1694  1701  0
1694  1924  1691  0
1919  1691  1924  0
1925  1695  1921  0
1695  1925  1474  0
1926  1705  1927  0
1704  1927  1705  0
1698  1705  1928  0
1698  1928  1699  0
1699  1928  1922  0
1701  1923  1929  0
1701  1929  1924  0
1924  1929  1930  0
1924  1930  1919  0
1707  1931  1702  0
1702  1931  1706  0
1707  1708  1932  0
1933  1932  1708  0
1708  1474  1933  0
1934  1933  1474  0
1925  1934  1474  0
1935  1714  1936  0
1935  1936  1937  0
1927  1704  1938  0
1704  1711  1938  0
1706  1931  1723  0
1706  1723  1476  0
1713  1939  1936  0
1713  1936  1714  0
1713  1478  1940  0
1713  1940  1939  0
1941  1719  1722  0
1729  1927  1726  0
1729  1942  1926  0
1729  1926  1927  0
1729  1943  1942  0
1927  1938  1726  0
1478  1718  1940  0
1721  1720  1944  0
1721  1944  1945  0
1720  1719  1941  0
1720  1941  1944  0
1726  1938  1727  0
1938  1711  1730  0
1938  1730  1727  0
1710  1730  1711  0
1715  1716  1738  0
1716  1717  1738  0
1717  1484  1946  0
1717  1946  1738  0
1484  1485  1946  0
1485  1488  1947  0
1485  1947  1946  0
1488  1243  1731  0
1488  1731  1947  0
1948  1947  1731  0
1486  1949  1718  0
1940  1718  1949  0
1486  1724  1949  0
1950  1725  1721  0
1945  1950  1721  0
1951  1725  1950  0
1729  1728  1943  0
1737  1943  1728  0
1732  1948  1731  0
1723  1952  1733  0
1724  1495  1734  0
1953  1724  1734  0
1725  1951  1735  0
1710  1715  1261  0
1733  1954  1494  0
1494  1955  1506  0
1956  1953  1734  0
1734  1496  1956  0
1504  1738  1746  0
1748  1732  1505  0
1506  1955  1739  0
1739  1957  1507  0
1496  1740  1956  0
1958  1956  1740  0
1740  1743  1958  0
1737  1503  1959  0
1507  1957  1749  0
1743  1750  1960  0
1743  1960  1958  0
1750  1961  1960  0
1745  1736  1962  0
1745  1962  1757  0
1503  1510  1963  0
1503  1963  1964  0
1503  1964  1959  0
1513  1754  1762  0
1513  1762  1748  0
1749  1965  1755  0
1750  1751  1961  0
1751  1756  1966  0
1751  1966  1961  0
1756  1757  1967  0
1756  1967  1968  0
1756  1968  1966  0
1757  1969  1970  0
1757  1970  1967  0
1757  1962  1969  0
1971  1969  1962  0
1972  1969  1971  0
1510  1758  1963  0
1755  1965  1760  0
1969  1972  1970  0
1973  1970  1972  0
1963  1758  1974  0
1758  1759  1975  0
1758  1975  1974  0
1759  1761  1975  0
1761  1519  1976  0
1977  1289  1515  0
1762  1520  1527  0
1967  1970  1978  0
1973  1978  1970  0
1963  1974  1979  0
1975  1761  1980  0
1981  1976  1519  0
1519  1764  1981  0
1764  1291  1981  0
1529  1981  1291  0
1527  1289  1977  0
1765  1527  1520  0
1760  1982  1763  0
1981  1529  1983  0
1763  1982  1984  0
1763  1984  1766  0
1766  1984  1768  0
1985  1983  1529  0
1767  1986  1765  0
1769  1768  1987  0
1769  1987  1531  0
1531  1987  1770  0
1770  1988  1532  0
1529  1771  1985  0
1772  1544  1986  0
1544  1530  1986  0
1986  1767  1772  0
1532  1988  1989  0
1532  1989  1538  0
1777  1778  1782  0
1777  1782  1773  0
1781  1786  1771  0
1990  1545  1538  0
1778  1547  1991  0
1778  1991  1782  0
1992  1782  1991  0
1782  1993  1994  0
1782  1994  1783  0
1782  1992  1993  0
1785  1995  1786  0
1790  1552  1550  0
1790  1550  1996  0
1997  1790  1996  0
1550  1998  1996  0
1550  1545  1990  0
1550  1990  1998  0
1790  1997  1553  0
1793  1557  1999  0
1794  1999  1557  0
1997  2000  1553  0
1553  2000  1791  0
1569  1325  1791  0
2001  2002  2003  0
2004  2005  1806  0
2004  2006  2007  0
2004  2007  2005  0
2005  2007  2008  0
2005  2008  2009  0
2001  2003  1799  0
1800  1799  2003  0
2001  1799  2010  0
2003  2011  1800  0
2012  1800  2011  0
2011  2013  2012  0
1806  2006  2004  0
1806  1803  2006  0
1806  2005  1807  0
2005  2014  1807  0
2005  2009  2014  0
1559  1796  1797  0
1797  2015  1798  0
1797  1796  2016  0
1797  2016  2015  0
1798  2015  2010  0
1798  2010  1799  0
1800  2012  1801  0
1795  2017  1794  0
1804  2018  1803  0
2006  1803  2018  0
1804  2019  2018  0
1807  2014  1805  0
2020  1796  1808  0
1808  1809  2021  0
2016  1796  2020  0
1801  2012  2022  0
2023  1801  2022  0
1802  1813  2017  0
1802  2017  1795  0
1804  1580  2019  0
1805  2024  1815  0
2021  1809  1817  0
1810  1801  2025  0
1810  2025  1819  0
1801  2023  2025  0
2026  2025  2023  0
1824  1812  1567  0
1812  1824  1811  0
2027  1811  1824  0
1811  2027  1813  0
1579  2019  1580  0
2028  1820  1815  0
1587  1828  1817  0
1817  1828  2029  0
1823  1822  1581  0
1819  1823  1818  0
1819  2025  2030  0
2026  2030  2025  0
1824  2031  2032  0
1824  2032  2027  0
1824  1336  2031  0
2028  1827  1820  0
1583  1820  1827  0
1822  1823  1589  0
2033  1589  1823  0
1823  1819  2033  0
1819  2030  2033  0
1336  1825  2031  0
2034  2031  1825  0
1584  1827  1829  0
1589  2033  2035  0
1589  2035  1591  0
1826  1825  1582  0
1832  2034  1825  0
1590  1829  2036  0
2037  1828  1830  0
1586  1830  1828  0
2037  2038  1828  0
1591  2035  1593  0
1832  1825  1831  0
1825  1826  1831  0
1595  1590  2036  0
2039  1830  1834  0
2039  2037  1830  0
1593  2040  1597  0
1833  1835  2041  0
1833  2042  1832  0
1595  2036  1840  0
2040  2043  1597  0
1599  1839  1835  0
1595  1840  1349  0
1840  2036  1841  0
1836  1841  2036  0
2043  1842  1597  0
2043  2044  1842  0
1837  2045  1839  0
1846  2046  2047  0
1848  2046  1846  0
2046  1848  2048  0
1848  2049  2048  0
2050  2048  2049  0
1605  2051  1845  0
2051  1605  1847  0
1846  2047  1847  0
1613  2049  1848  0
2052  2049  1613  0
1844  1843  2053  0
1842  2053  1843  0
1851  1608  1852  0
2054  1851  1852  0
1852  2055  2054  0
2055  1852  1607  0
2055  1607  1610  0
1849  2055  1610  0
1613  2056  2052  0
2052  2056  2057  0
1613  1853  2056  0
1856  1857  2058  0
1855  2059  1854  0
1857  1858  2058  0
1860  2060  1858  0
2058  1858  2060  0
1860  2061  2060  0
2059  2062  1862  0
2059  1862  1854  0
1860  1864  2061  0
2063  2062  2064  0
2062  2063  2065  0
2062  2065  1862  0
1864  2066  2067  0
1864  2067  2061  0
2063  2068  2065  0
1865  2065  2068  0
2065  1865  1862  0
2069  2067  2066  0
2063  2070  2068  0
2071  2068  2070  0
2068  2071  1865  0
1866  1865  2071  0
2072  2071  2073  0
2071  2072  1866  0
1869  1866  2072  0
2072  2074  1869  0
1869  2075  1870  0
1870  2076  1867  0
2077  1867  2076  0
1867  2077  1871  0
1882  1871  2077  0
1871  1882  1872  0
1874  1873  1872  0
1638  1873  1874  0
1870  2075  2076  0
2076  1880  2077  0
1881  2077  1880  0
2077  1881  1882  0
1655  1872  1882  0
1872  1655  1874  0
1879  1878  2078  0
2079  2078  1878  0
1879  2078  1885  0
1879  1885  1877  0
2080  2079  1878  0
1878  1880  2080  0
2076  2080  1880  0
1884  1883  2081  0
1884  2081  2082  0
1883  1885  2081  0
2083  2084  2085  0
2083  2086  2087  0
2083  2087  2084  0
2083  2085  2088  0
2086  2083  1658  0
2083  2088  1886  0
2083  1886  1658  0
2088  2089  1887  0
2088  1887  1886  0
2090  1887  2089  0
2086  1658  2091  0
1658  1891  2091  0
1887  2090  1888  0
2092  1888  2090  0
2092  2093  1888  0
1656  1894  1890  0
1891  1668  1899  0
1891  1899  2094  0
1888  2093  1892  0
2095  1892  2093  0
2096  1895  2097  0
2096  1894  1895  0
2096  2098  1894  0
1894  2098  1890  0
2099  1890  2098  0
1890  2099  1896  0
1899  1898  2100  0
1899  2100  2094  0
1898  2101  2100  0
1892  2095  1893  0
1893  2095  1900  0
2102  1900  2095  0
2097  2103  2104  0
2096  2097  2105  0
2097  2104  2106  0
2097  2106  2105  0
2097  1895  2103  0
1895  1901  2103  0
1896  2107  1897  0
1903  1897  2107  0
1898  1904  2108  0
1898  2108  2101  0
2109  1900  2102  0
2106  2104  2110  0
2104  2103  2111  0
2103  2112  2111  0
2103  1901  2112  0
2113  2112  1901  0
1901  1426  2113  0
1673  2113  1426  0
2114  1906  1903  0
1904  1907  2108  0
1900  2109  1908  0
2110  2104  2115  0
2116  2115  2104  0
2104  2111  2116  0
2117  2111  2112  0
2112  2113  2117  0
1906  2114  2118  0
1906  2118  1905  0
1905  2118  1909  0
1907  1911  2119  0
2120  2119  1911  0
1908  2121  1912  0
2113  1673  2117  0
1909  2118  2122  0
1911  1913  2120  0
1912  2121  2123  0
1912  2123  1916  0
1673  1443  2124  0
1914  2124  1443  0
1909  2122  2125  0
1909  2125  1685  0
1918  1685  2126  0
1685  2125  2126  0
1913  1915  2127  0
1913  2127  2120  0
2128  2120  2127  0
2127  1915  1917  0
1686  1917  1915  0
2127  1917  2128  0
2129  2128  1917  0
1917  1916  2129  0
1918  2126  2130  0
2131  1914  1919  0
1918  2130  1687  0
1687  2130  1920  0
1920  2130  2132  0
1920  2132  1921  0
1921  2132  2133  0
2134  1921  2133  0
1921  2134  1925  0
2135  2136  2137  0
2136  2135  2138  0
2139  2140  2141  0
2142  2141  2140  0
2141  2142  2143  0
2144  2143  2142  0
1705  1926  1928  0
1928  2145  1922  0
1922  2146  1923  0
2147  1923  2146  0
1923  2147  1929  0
2148  1919  1930  0
1707  1932  1931  0
1937  1936  2149  0
1928  1926  1942  0
1931  1932  2150  0
2151  2150  1932  0
1932  1933  2151  0
2152  2151  1933  0
1933  1934  2152  0
2153  2152  1934  0
2149  1936  1939  0
2154  1939  1940  0
1941  2155  1944  0
1944  2155  2156  0
2157  1944  2156  0
2158  1942  1943  0
2150  1723  1931  0
1949  2154  1940  0
1945  1944  2157  0
1738  1946  2159  0
2160  2159  1946  0
2161  2160  1946  0
1946  1947  2161  0
1948  2161  1947  0
1723  2150  1952  0
1949  1724  2162  0
1950  1945  1951  0
1943  1737  2158  0
1952  1955  1954  0
1952  1954  1733  0
1952  2150  1955  0
1724  1953  2162  0
1737  2163  2158  0
1732  1515  1948  0
1954  1955  1494  0
1735  2164  1736  0
1735  1951  2164  0
1738  2159  1746  0
2165  1747  1746  0
1732  1748  1515  0
1955  2166  1739  0
2167  1739  2166  0
1739  2167  1957  0
1958  2168  1956  0
2169  1736  2164  0
2170  1736  2169  0
1737  1959  2163  0
2171  1747  2165  0
1747  2171  1512  0
1958  1960  2168  0
1960  1961  2172  0
1736  2170  1962  0
2170  2173  1962  0
1971  1962  2173  0
2174  2173  2170  0
2173  2175  1971  0
2176  1971  2175  0
2173  2174  2175  0
2175  2177  2176  0
2178  2176  2177  0
2179  1959  1964  0
1512  2171  1515  0
1957  2180  1749  0
1961  1966  2172  0
2181  2172  1966  0
2182  2181  1966  0
1971  2176  1972  0
2183  1972  2176  0
2176  2178  2183  0
1966  1968  2182  0
1968  1967  1978  0
1968  1978  2182  0
1972  2183  1973  0
1964  1963  2184  0
1979  2184  1963  0
1964  2184  2179  0
2185  2179  2184  0
1762  1527  1977  0
1760  1965  2186  0
1760  2186  1982  0
1974  1975  1979  0
2187  1979  1975  0
1975  1980  2187  0
2188  2187  1980  0
1761  1976  2189  0
1761  2189  1980  0
1976  1981  2189  0
1527  1765  1530  0
1982  2186  2190  0
2184  1979  2191  0
1979  2192  2191  0
1979  2187  2192  0
1980  2189  2188  0
2189  1981  2193  0
1981  1983  2193  0
1530  1765  1986  0
1984  1982  2190  0
1984  2194  1768  0
2193  1983  2195  0
1983  1985  2195  0
2196  1768  2194  0
1768  2196  1987  0
2197  1770  1987  0
1770  2198  1988  0
1770  2197  2198  0
2199  1989  1988  0
1538  1989  1990  0
2199  2200  1989  0
1989  2200  1990  0
2201  1990  2200  0
1985  1771  2202  0
2201  1998  1990  0
2203  2204  2205  0
2204  2206  2205  0
2205  2207  2203  0
1996  2208  1997  0
2209  2204  2203  0
2210  2211  1793  0
1793  1999  2210  0
1794  2212  1999  0
2002  2213  2003  0
2213  2011  2003  0
1791  2214  1569  0
1791  2000  2214  0
2007  2215  2008  0
2007  2216  2215  0
2215  2217  2218  0
2215  2218  2008  0
2217  2219  2218  0
2220  2218  2219  0
2002  2001  2221  0
2011  2213  2013  0
1794  2222  2212  0
2223  2006  2224  0
2006  2223  2007  0
2008  2218  2220  0
2008  2220  2009  0
2221  2001  2010  0
2225  2012  2013  0
1569  2214  2226  0
2214  2227  2226  0
2224  2006  2018  0
2228  2014  2009  0
2015  2229  2010  0
2230  2010  2229  0
2015  2016  2229  0
2010  2230  2221  0
2231  2221  2230  0
2232  2022  2012  0
2225  2232  2012  0
1794  2233  2222  0
1794  2017  2233  0
1814  1569  2226  0
1805  2014  2228  0
1805  2228  2024  0
1808  2021  2020  0
2020  2234  2016  0
2235  2234  2020  0
2016  2234  2229  0
2022  2232  2236  0
2022  2236  2023  0
2024  2228  2237  0
1817  2029  2021  0
2021  2235  2020  0
2021  2029  2235  0
2023  2238  2026  0
2017  2239  2233  0
2017  1813  2240  0
2017  2240  2239  0
1814  2241  1578  0
1578  2242  2243  0
1578  2243  1579  0
1579  2243  2019  0
1815  2024  2237  0
1815  2237  2244  0
1815  2244  2028  0
2029  2245  2235  0
2029  1828  2245  0
2030  2026  2246  0
2027  2240  1813  0
2027  2032  2240  0
2028  2247  1827  0
2038  2245  1828  0
2033  2030  2248  0
2033  2248  2249  0
2030  2246  2248  0
2246  2026  2250  0
2026  2238  2250  0
2251  2250  2238  0
2031  2252  2032  0
2031  2034  2252  0
1827  2247  1829  0
2035  2033  2253  0
2246  2250  2248  0
1832  2042  2034  0
2254  2034  2042  0
1829  2247  2036  0
2255  2037  2039  0
2248  2250  2256  0
2257  2256  2250  0
2258  2248  2256  0
2250  2251  2257  0
2255  2039  1834  0
2043  2040  2044  0
1833  2259  2042  0
1833  2041  2259  0
2260  2261  2050  0
1836  2036  2247  0
2262  2258  2256  0
2256  2257  2262  0
2257  2263  2262  0
2045  2264  2265  0
2045  2265  1839  0
2045  2266  2264  0
1839  2265  2267  0
1839  2267  1835  0
1835  2267  2041  0
2046  2048  2050  0
2050  2049  2052  0
2050  2052  2260  0
2044  2268  1842  0
2258  2262  2269  0
2258  2269  2270  0
2258  2270  2271  0
2262  2263  2272  0
1837  1838  2273  0
1837  2273  2045  0
2045  2273  2266  0
2053  1842  2268  0
2274  2270  2275  0
2274  2276  2271  0
2274  2271  2270  0
2274  2277  2276  0
2270  2269  2275  0
2269  2262  2272  0
1838  1604  1368  0
1838  1368  2273  0
2273  1368  2278  0
2051  1847  2279  0
2055  2280  2054  0
2280  2055  1849  0
1849  2281  2280  0
2281  1849  1844  0
2281  1844  2053  0
2275  2269  2282  0
2283  2278  1368  0
1368  1367  2284  0
2285  2284  1367  0
2052  2057  2286  0
2274  2275  2287  0
2288  2287  2275  0
2274  2287  2277  0
2289  2277  2287  0
2275  2282  2288  0
2284  2283  1368  0
2290  2057  2056  0
1851  2291  1850  0
2292  1850  2291  0
2293  2289  2287  0
2294  2295  2296  0
2297  2294  2298  0
2299  1855  1850  0
2287  2288  2293  0
2300  2295  2294  0
2294  2297  2300  0
1853  2301  2056  0
1856  2302  1853  0
1856  2058  2302  0
2058  2303  2302  0
2304  2303  2058  0
2059  2305  2306  0
2059  1855  2305  0
2060  2307  2304  0
2060  2304  2058  0
2060  2061  2308  0
2060  2308  2307  0
2064  2062  2059  0
2064  2059  2306  0
2061  2309  2308  0
2061  2067  2309  0
2064  2070  2063  0
2067  2310  2311  0
2067  2311  2309  0
2312  2073  2070  0
2070  2073  2071  0
2312  2313  2073  0
2314  2073  2313  0
2315  2073  2314  0
2073  2315  2072  0
2316  2072  2315  0
