#!ascii file
29505  29293  29285  0
29505  29285  29276  0
29505  29276  29275  0
29505  29275  29493  0
29505  29493  29506  0
29505  29506  29293  0
29281  29507  29500  0
29294  29058  29059  0
29294  29059  29502  0
29294  29502  29508  0
29297  29504  29295  0
29297  29509  29510  0
29297  29510  29504  0
29504  29287  29290  0
29504  29290  29295  0
29293  29506  29511  0
29293  29511  29302  0
29281  29286  29507  0
29286  29294  29508  0
29286  29508  29507  0
29296  29512  29297  0
29296  29513  29514  0
29296  29514  29512  0
29513  29296  29304  0
29513  29304  29515  0
29513  29515  29514  0
29303  29302  29516  0
29303  29516  29308  0
29515  29304  29517  0
29304  29309  29315  0
29304  29315  29518  0
29304  29518  29517  0
29315  29519  29520  0
29315  29520  29518  0
29519  29315  29316  0
29308  29516  29314  0
29316  29317  29521  0
29316  29521  29519  0
29317  29319  29522  0
29317  29522  29523  0
29317  29523  29521  0
29314  29085  29321  0
29314  29516  29524  0
29314  29524  29085  0
29319  29322  29525  0
29319  29525  29522  0
29322  29323  29526  0
29322  29526  29527  0
29322  29527  29525  0
29526  29323  29088  0
29526  29088  29528  0
29526  29528  29529  0
29526  29529  29527  0
29528  29088  29089  0
29528  29089  29087  0
29528  29087  29530  0
29528  29530  29529  0
29087  29085  29524  0
29087  29524  29530  0
29091  29324  29531  0
29532  29329  29325  0
29532  29533  29329  0
29326  29096  29324  0
29324  29096  29328  0
29324  29328  29533  0
29324  29533  29531  0
29533  29328  29099  0
29533  29099  29329  0
29330  29534  29105  0
29330  29331  29535  0
29330  29535  29534  0
29105  29534  29536  0
29105  29536  29106  0
29106  29536  29332  0
29332  29536  29537  0
29332  29537  29333  0
29333  29537  29538  0
29333  29538  29334  0
29334  29337  29113  0
29334  29538  29539  0
29540  29331  29335  0
29540  29535  29331  0
29337  29541  29336  0
29337  29334  29542  0
29337  29542  29541  0
29543  29335  29339  0
29543  29339  29342  0
29543  29540  29335  0
29336  29544  29340  0
29336  29541  29544  0
29545  29347  29346  0
29545  29342  29347  0
29545  29546  29543  0
29545  29543  29342  0
29544  29547  29340  0
29343  29548  29344  0
29343  29115  29549  0
29343  29549  29548  0
29344  29548  29550  0
29344  29550  29345  0
29345  29550  29545  0
29345  29545  29346  0
29551  29552  29553  0
29551  29553  29554  0
29551  29554  29351  0
29551  29555  29552  0
29340  29354  29121  0
29556  29557  29558  0
29556  29558  29559  0
29556  29559  29560  0
29557  29350  29351  0
29557  29351  29554  0
29557  29554  29558  0
29551  29351  29353  0
29551  29353  29555  0
29122  29348  29561  0
29122  29561  29115  0
29562  29556  29560  0
29562  29560  29563  0
29562  29563  29564  0
29562  29564  29565  0
29556  29562  29356  0
29556  29356  29557  0
29557  29356  29350  0
29353  29358  29566  0
29354  29567  29355  0
29349  29359  29568  0
29349  29568  29348  0
29568  29359  29569  0
29570  29565  29569  0
29569  29565  29564  0
29569  29564  29568  0
29565  29570  29562  0
29361  29562  29570  0
29562  29361  29356  0
29362  29358  29357  0
29138  29355  29567  0
29567  29354  29571  0
29567  29571  29138  0
29363  29138  29571  0
29571  29572  29363  0
29364  29363  29572  0
29572  29573  29364  0
29574  29364  29573  0
29359  29128  29569  0
29365  29569  29128  0
29569  29365  29570  0
29364  29574  29139  0
29365  29366  29570  0
29369  29361  29570  0
29575  29362  29370  0
29576  29139  29577  0
29139  29576  29373  0
29366  29371  29570  0
29570  29371  29369  0
29370  29377  29575  0
29371  29375  29369  0
29377  29578  29575  0
29579  29575  29578  0
29580  29378  29374  0
29381  29369  29375  0
29369  29381  29376  0
29378  29580  29144  0
29581  29144  29580  0
29144  29581  29380  0
29582  29146  29380  0
29583  29376  29381  0
29376  29583  29379  0
29584  29379  29583  0
29379  29585  29377  0
29146  29582  29382  0
29586  29382  29582  0
29147  29151  29383  0
29384  29383  29151  0
29153  29583  29381  0
29587  29583  29153  0
29586  29385  29382  0
29588  29152  29384  0
29388  29152  29588  0
29386  29385  29589  0
29385  29586  29589  0
29388  29590  29158  0
29153  29155  29587  0
29163  29159  29591  0
29592  29158  29593  0
29392  29155  29162  0
29155  29392  29594  0
29158  29592  29391  0
29392  29393  29594  0
29595  28938  29163  0
29596  29164  29390  0
29164  29596  29389  0
29597  29393  28942  0
28716  28938  29595  0
29390  29394  29596  0
29598  29596  29394  0
29170  29597  28942  0
29394  29168  29598  0
29599  29598  29168  0
29600  29395  28941  0
28720  28716  28951  0
29595  28951  28716  0
29168  29169  29599  0
29601  29170  28943  0
29171  29180  29602  0
29603  29181  29397  0
29402  29401  29604  0
29605  29604  29401  0
29402  29604  29187  0
29606  29187  29604  0
29187  29606  29403  0
29607  29403  29606  0
29181  29603  29404  0
29405  29404  29603  0
29404  29405  29189  0
29400  29410  29401  0
29608  29401  29410  0
29605  29401  29608  0
29403  29607  29411  0
29180  28965  29412  0
29603  29609  29405  0
29610  29405  29609  0
29405  29610  29413  0
29409  29416  29415  0
29611  29415  29416  0
29192  29415  29611  0
29609  29612  29610  0
29613  29610  29612  0
29610  29613  29413  0
29614  29413  29613  0
29413  29614  29418  0
29615  29418  29614  0
29418  29615  29416  0
29416  29615  29616  0
29416  29616  29611  0
29611  29616  29419  0
29611  29419  29192  0
29421  29617  29618  0
29617  29421  29206  0
29617  29206  29422  0
29615  29619  29616  0
29616  29620  29419  0
29621  29419  29620  0
29419  29621  29198  0
29614  29622  29619  0
29614  29619  29615  0
29198  29621  29423  0
29208  29423  29623  0
29212  29208  29623  0
29212  29623  29424  0
29214  29624  29210  0
29210  29624  29625  0
29626  29217  29627  0
29217  29626  28980  0
28980  29626  29624  0
28980  29624  29214  0
29424  29628  29425  0
29629  29428  29221  0
29629  29221  29220  0
29629  29630  29428  0
29428  29630  29631  0
29428  29631  29429  0
29429  29631  29632  0
29429  29632  29216  0
29216  29632  29627  0
29216  29627  29217  0
29425  29628  29633  0
29427  29634  29426  0
29427  29430  29635  0
29427  29635  29634  0
29425  29633  29431  0
29425  29431  29218  0
29430  29433  29636  0
29430  29636  29635  0
29431  29633  29637  0
29433  29434  29638  0
29433  29638  29636  0
29639  29441  29436  0
29639  29436  29640  0
29436  29435  29641  0
29435  29234  29641  0
29234  29227  29642  0
28990  29437  29227  0
28767  29442  28993  0
29431  29643  29438  0
29438  29644  29439  0
29439  29644  29645  0
29439  29645  29223  0
29223  29645  28986  0
29434  29440  29646  0
29434  29646  29638  0
29446  29441  29647  0
29438  29643  29644  0
29644  29643  29648  0
29644  29648  29645  0
28986  29645  29007  0
29440  29443  29448  0
29440  29448  29450  0
29440  29450  29649  0
29440  29649  29646  0
29450  29444  29649  0
29240  29650  29442  0
29007  29645  29651  0
29240  29015  29650  0
29007  29651  29016  0
29652  29451  29455  0
29652  29455  29653  0
29451  29652  29452  0
29654  29454  29251  0
29654  29251  29655  0
29654  29655  29656  0
29251  29016  29651  0
29251  29651  29655  0
29455  29657  29653  0
29658  29457  29453  0
29658  29453  29454  0
29658  29454  29654  0
29658  29654  29659  0
29657  29455  29458  0
29457  29660  29661  0
29457  29661  29024  0
29024  29661  29462  0
29662  29663  29664  0
29662  29665  29666  0
29662  29666  29663  0
29465  29667  29467  0
29465  29668  29667  0
29669  29668  29465  0
29667  29668  29670  0
29667  29662  29671  0
29667  29671  29467  0
29667  29670  29665  0
29667  29665  29662  0
29662  29664  29671  0
29664  29663  29672  0
29463  29469  29258  0
29673  29464  29473  0
29673  29674  29464  0
29464  29674  29669  0
29464  29669  29465  0
29671  29468  29467  0
29671  29664  29675  0
29676  29675  29664  0
29664  29672  29676  0
29677  29678  29679  0
29680  29679  29678  0
29472  29678  29471  0
29678  29677  29471  0
29473  29471  29677  0
29468  29671  29475  0
29675  29475  29671  0
29681  29675  29676  0
29476  29680  29678  0
29678  29472  29476  0
29475  29675  29481  0
29681  29481  29675  0
29682  29261  29470  0
29261  29682  29482  0
29680  29476  29683  0
29684  29683  29476  0
29479  29684  29476  0
29480  29685  29686  0
29480  29481  29685  0
29259  28806  29687  0
29265  29687  28806  0
29259  29687  29688  0
29268  29689  29266  0
29690  29689  29268  0
29691  29690  29268  0
29482  29692  29263  0
29486  29263  29692  0
29693  29684  29479  0
29479  29480  29693  0
29686  29693  29480  0
29694  29687  29265  0
29695  29696  29689  0
29483  29689  29696  0
29689  29483  29266  0
29265  29264  29487  0
29265  29487  29694  0
29694  29487  29697  0
29487  29488  29697  0
29489  29483  29696  0
29698  29488  29498  0
29492  29498  29488  0
29697  29488  29698  0
29699  29698  29498  0
29696  29700  29489  0
29493  29489  29700  0
29696  29701  29700  0
29702  29048  29043  0
29043  29494  29702  0
29496  29272  29491  0
29501  29278  29496  0
29499  29703  29704  0
29704  29498  29499  0
29704  29705  29498  0
29699  29498  29705  0
29493  29700  29706  0
29700  29701  29706  0
29490  28822  29707  0
29494  29495  29708  0
29709  29708  29495  0
29500  29710  29495  0
29495  29710  29709  0
29711  29502  29501  0
29703  29712  29713  0
29714  29713  29712  0
29712  29703  29509  0
29510  29509  29703  0
29703  29499  29510  0
29504  29510  29499  0
29715  29493  29706  0
29493  29715  29506  0
29716  29506  29715  0
29717  29710  29500  0
29500  29507  29718  0
29500  29718  29717  0
29719  29717  29718  0
29718  29507  29719  0
29720  29719  29507  0
29711  29720  29508  0
29508  29502  29711  0
29712  29509  29512  0
29297  29512  29509  0
29712  29512  29714  0
29721  29714  29512  0
29506  29716  29511  0
29507  29508  29720  0
29512  29514  29721  0
29722  29721  29514  0
29723  29511  29716  0
29514  29515  29722  0
29724  29722  29515  0
29511  29723  29302  0
29516  29302  29723  0
29515  29517  29724  0
29725  29724  29517  0
29517  29518  29725  0
29518  29520  29725  0
29726  29725  29520  0
29520  29519  29727  0
29521  29727  29519  0
29520  29727  29726  0
29728  29726  29727  0
29727  29521  29728  0
29729  29728  29521  0
29521  29523  29729  0
29730  29731  29723  0
29524  29723  29731  0
29723  29524  29516  0
29523  29522  29732  0
29525  29732  29522  0
29523  29732  29729  0
29733  29729  29732  0
29732  29525  29734  0
29527  29734  29525  0
29732  29734  29733  0
29735  29733  29734  0
29734  29527  29736  0
29529  29736  29527  0
29734  29736  29735  0
29730  29735  29736  0
29736  29529  29731  0
29530  29731  29529  0
29736  29731  29730  0
29731  29530  29524  0
29536  29534  29737  0
29536  29737  29537  0
29537  29737  29738  0
29537  29738  29538  0
29538  29738  29739  0
29538  29739  29539  0
29539  29542  29334  0
29539  29739  29740  0
29539  29740  29741  0
29539  29741  29542  0
29540  29742  29535  0
29535  29742  29743  0
29535  29743  29534  0
29744  29540  29546  0
29540  29543  29546  0
29540  29744  29742  0
29541  29542  29745  0
29541  29745  29544  0
29546  29545  29550  0
29546  29550  29746  0
29544  29745  29547  0
29547  29745  29747  0
29548  29746  29550  0
29748  29563  29559  0
29748  29559  29749  0
29748  29750  29751  0
29748  29751  29563  0
29749  29559  29558  0
29749  29752  29748  0
29749  29558  29554  0
29749  29554  29553  0
29749  29553  29752  0
29553  29552  29753  0
29553  29753  29752  0
29552  29754  29753  0
29552  29555  29755  0
29552  29755  29754  0
29555  29756  29755  0
29547  29757  29340  0
29547  29747  29757  0
29549  29115  29561  0
29563  29560  29559  0
29555  29353  29566  0
29555  29566  29756  0
29340  29757  29758  0
29340  29758  29354  0
29757  29747  29759  0
29759  29760  29761  0
29759  29761  29757  0
29759  29762  29760  0
29760  29763  29761  0
29760  29762  29764  0
29760  29764  29763  0
29763  29764  29765  0
29561  29348  29568  0
29561  29568  29766  0
29568  29751  29766  0
29751  29568  29564  0
29751  29564  29563  0
29758  29757  29571  0
29758  29571  29354  0
29757  29761  29572  0
29757  29572  29571  0
29761  29763  29573  0
29761  29573  29572  0
29763  29765  29767  0
29763  29767  29573  0
29358  29362  29566  0
29362  29768  29566  0
29573  29767  29769  0
29573  29769  29574  0
29769  29577  29139  0
29769  29139  29574  0
29769  29770  29577  0
29362  29575  29768  0
29577  29770  29576  0
29576  29771  29373  0
29373  29771  29772  0
29373  29772  29374  0
29579  29578  29773  0
29374  29772  29580  0
29772  29774  29580  0
29580  29774  29775  0
29580  29775  29581  0
29581  29582  29380  0
29776  29777  29778  0
29776  29779  29780  0
29776  29780  29777  0
29776  29781  29779  0
29777  29782  29778  0
29777  29780  29783  0
29777  29783  29782  0
29379  29584  29585  0
29776  29778  29151  0
29776  29151  29784  0
29776  29784  29781  0
29778  29782  29384  0
29778  29384  29151  0
29782  29588  29384  0
29782  29785  29588  0
29583  29587  29786  0
29583  29786  29584  0
29584  29786  29787  0
29151  29387  29788  0
29151  29788  29784  0
29588  29590  29388  0
29588  29789  29590  0
29786  29587  29790  0
29386  29589  29791  0
29589  29586  29792  0
29590  29593  29158  0
29590  29789  29593  0
29587  29155  29790  0
29159  29386  29793  0
29159  29793  29794  0
29159  29794  29591  0
29386  29791  29793  0
29791  29589  29792  0
29163  29591  29795  0
29592  29593  29796  0
29592  29797  29391  0
29393  29597  29594  0
29596  29598  29798  0
29596  29798  29389  0
29391  29799  29600  0
29391  29600  28941  0
29391  29797  29799  0
29597  29170  29800  0
28951  29595  29801  0
29600  29802  29395  0
29395  29802  29396  0
29602  29599  29169  0
29169  29171  29602  0
29803  29602  29180  0
29804  29608  29410  0
29805  29604  29605  0
29604  29805  29606  0
29806  29606  29805  0
29606  29806  29607  0
29807  29607  29806  0
29607  29807  29411  0
29808  29411  29807  0
29411  29808  29412  0
29803  29180  29412  0
29410  29809  29804  0
29609  29810  29612  0
29618  29617  29811  0
29617  29422  29207  0
29617  29207  29812  0
29813  29812  29207  0
29612  29814  29613  0
29616  29619  29620  0
29207  28978  29813  0
29815  29813  28978  0
29209  29815  28978  0
29612  29816  29814  0
29817  29613  29814  0
29613  29817  29614  0
29614  29817  29622  0
29818  29619  29622  0
29619  29819  29620  0
29820  29620  29819  0
29619  29818  29819  0
29620  29820  29621  0
29821  29621  29820  0
29423  29621  29821  0
29814  29822  29817  0
29817  29823  29622  0
29824  29622  29823  0
29622  29824  29818  0
29819  29818  29824  0
29821  29825  29423  0
29821  29826  29825  0
29209  29210  29827  0
29625  29827  29210  0
29825  29623  29423  0
29828  29424  29623  0
29424  29828  29628  0
29627  29829  29626  0
29624  29626  29829  0
29426  29634  29830  0
29831  29830  29634  0
29830  29629  29426  0
29220  29426  29629  0
29830  29832  29629  0
29630  29629  29832  0
29829  29627  29632  0
29833  29633  29628  0
29635  29834  29634  0
29831  29634  29834  0
29834  29635  29636  0
29834  29636  29835  0
29836  29835  29636  0
29638  29836  29636  0
29441  29837  29647  0
29837  29441  29639  0
29837  29639  29838  0
29640  29838  29639  0
29436  29641  29640  0
29641  29234  29642  0
29839  29642  29227  0
29437  29839  29227  0
29643  29431  29637  0
29836  29638  29840  0
29841  29840  29638  0
29638  29646  29842  0
29649  29842  29646  0
29638  29842  29841  0
29843  29841  29842  0
29842  29649  29843  0
29444  29843  29649  0
29843  29444  29647  0
29446  29647  29444  0
28993  29442  29844  0
29637  29845  29643  0
29846  29643  29845  0
29847  29643  29846  0
29643  29847  29648  0
29645  29648  29847  0
29846  29848  29847  0
29849  29847  29848  0
29847  29849  29850  0
29847  29850  29645  0
29645  29850  29651  0
29015  29851  29650  0
29849  29852  29656  0
29849  29656  29850  0
29850  29656  29655  0
29850  29655  29651  0
29015  29452  29851  0
29852  29659  29656  0
29659  29654  29656  0
29653  29657  29853  0
29659  29457  29658  0
29657  29458  29853  0
29458  29459  29854  0
29661  29660  29855  0
29459  29254  29854  0
29661  29856  29462  0
29661  29855  29856  0
29857  29858  29859  0
29857  29859  29860  0
29859  29861  29666  0
29859  29862  29860  0
29859  29666  29862  0
29859  29858  29861  0
29858  29863  29861  0
29255  29462  29463  0
29665  29864  29862  0
29665  29862  29666  0
29666  29861  29865  0
29666  29865  29663  0
29861  29863  29866  0
29463  29462  29867  0
29463  29867  29868  0
29463  29868  29469  0
29668  29669  29869  0
29668  29869  29670  0
29670  29869  29864  0
29670  29864  29665  0
29663  29865  29870  0
29663  29870  29672  0
29865  29861  29866  0
29865  29871  29870  0
29257  29461  29028  0
29257  29872  29461  0
29469  29868  29873  0
29874  29875  29679  0
29874  29679  29876  0
29874  29876  29877  0
29875  29677  29679  0
29674  29878  29669  0
29672  29870  29871  0
29672  29871  29879  0
29672  29879  29880  0
29672  29880  29676  0
29257  29259  29881  0
29257  29881  29872  0
29469  29873  29470  0
29876  29679  29680  0
29876  29680  29882  0
29876  29882  29877  0
29677  29883  29473  0
29473  29883  29884  0
29473  29884  29673  0
29673  29884  29878  0
29673  29878  29674  0
29676  29880  29885  0
29676  29885  29886  0
29676  29886  29681  0
29470  29873  29682  0
29882  29680  29683  0
29882  29683  29887  0
29481  29681  29888  0
29481  29888  29889  0
29481  29889  29685  0
29681  29886  29888  0
29688  29890  29881  0
29688  29881  29259  0
29690  29891  29689  0
29682  29892  29482  0
29887  29683  29893  0
29683  29684  29894  0
29683  29894  29893  0
29685  29895  29686  0
29685  29889  29895  0
29688  29687  29896  0
29695  29689  29897  0
29689  29891  29897  0
29482  29892  29692  0
29684  29693  29898  0
29684  29898  29894  0
29693  29686  29899  0
29693  29899  29898  0
29686  29895  29899  0
29896  29694  29900  0
29896  29687  29694  0
29901  29902  29903  0
29901  29904  29902  0
29695  29901  29696  0
29268  29484  29905  0
29268  29905  29691  0
29906  29900  29699  0
29906  29907  29896  0
29906  29896  29900  0
29900  29694  29697  0
29902  29908  29903  0
29484  29271  29909  0
29485  29486  29910  0
29485  29910  29911  0
29906  29699  29705  0
29906  29705  29912  0
29906  29912  29913  0
29699  29900  29698  0
29900  29697  29698  0
29901  29903  29701  0
29901  29701  29696  0
29271  29490  29909  0
29485  29911  29491  0
29491  29911  29914  0
29912  29705  29704  0
29912  29704  29915  0
29912  29915  29916  0
29908  29917  29903  0
29494  29708  29702  0
29491  29914  29918  0
29491  29918  29496  0
29496  29918  29919  0
29496  29919  29920  0
29496  29920  29501  0
29713  29921  29922  0
29921  29923  29922  0
29924  29923  29921  0
29922  29915  29713  0
29703  29713  29915  0
29922  29916  29915  0
29915  29704  29703  0
29917  29925  29903  0
29903  29925  29701  0
29706  29701  29925  0
29926  29707  28822  0
29048  29702  29927  0
29928  29927  29702  0
29929  29709  29710  0
29501  29920  29711  0
29930  29711  29920  0
29921  29713  29931  0
29714  29931  29713  0
29921  29931  29924  0
29932  29924  29931  0
29917  29933  29925  0
29934  29925  29933  0
29935  29925  29934  0
29925  29935  29706  0
29715  29706  29935  0
28822  28823  29926  0
29936  29926  28823  0
28823  29048  29936  0
29710  29717  29929  0
29719  29929  29717  0
29719  29720  29937  0
29938  29937  29720  0
29720  29711  29938  0
29930  29938  29711  0
29931  29714  29932  0
29721  29932  29714  0
29934  29939  29935  0
29934  29940  29939  0
29941  29939  29940  0
29935  29939  29715  0
29716  29715  29939  0
29721  29722  29942  0
29943  29942  29722  0
29944  29939  29945  0
29939  29941  29945  0
29939  29944  29716  0
29723  29716  29944  0
29722  29724  29946  0
29725  29946  29724  0
29722  29946  29943  0
29947  29943  29946  0
29946  29725  29948  0
29946  29948  29947  0
29949  29947  29948  0
29726  29948  29725  0
29950  29949  29948  0
29948  29726  29951  0
29948  29951  29950  0
29952  29950  29951  0
29951  29726  29953  0
29728  29953  29726  0
29951  29953  29952  0
29954  29952  29953  0
29729  29953  29728  0
29955  29954  29953  0
29953  29729  29955  0
29956  29957  29945  0
29735  29945  29957  0
29941  29956  29945  0
29958  29957  29956  0
29945  29735  29944  0
29730  29944  29735  0
29944  29730  29723  0
29733  29955  29729  0
29955  29733  29957  0
29735  29957  29733  0
29955  29957  29958  0
29959  29534  29743  0
29534  29959  29737  0
29960  29737  29959  0
29961  29741  29740  0
29742  29962  29743  0
29963  29743  29962  0
29742  29964  29962  0
29743  29963  29959  0
29960  29959  29963  0
29741  29965  29542  0
29966  29542  29965  0
29741  29961  29965  0
29967  29965  29961  0
29965  29967  29966  0
29968  29966  29967  0
29744  29969  29742  0
29742  29969  29964  0
29970  29964  29969  0
29971  29964  29970  0
29964  29971  29972  0
29973  29972  29971  0
29964  29972  29962  0
29974  29972  29973  0
29975  29962  29972  0
29972  29974  29975  0
29542  29966  29745  0
29966  29968  29745  0
29976  29745  29968  0
29968  29977  29976  0
29546  29746  29744  0
29978  29744  29746  0
29744  29978  29969  0
29750  29969  29978  0
29748  29969  29750  0
29969  29748  29970  0
29752  29970  29748  0
29970  29752  29971  0
29971  29752  29973  0
29753  29973  29752  0
29973  29753  29974  0
29754  29974  29753  0
29979  29974  29754  0
29754  29755  29979  0
29756  29979  29755  0
29979  29756  29980  0
29745  29976  29747  0
29976  29981  29747  0
29982  29981  29976  0
29762  29981  29982  0
29548  29549  29746  0
29766  29746  29549  0
29746  29766  29978  0
29983  29978  29766  0
29978  29983  29750  0
29751  29750  29983  0
29747  29981  29759  0
29762  29759  29981  0
29762  29984  29764  0
29985  29764  29984  0
29549  29561  29766  0
29751  29983  29766  0
29756  29566  29986  0
29764  29985  29765  0
29987  29765  29985  0
29765  29987  29767  0
29988  29767  29987  0
29989  29769  29767  0
29988  29989  29767  0
29990  29769  29989  0
29991  29768  29579  0
29769  29990  29770  0
29768  29575  29579  0
29992  29576  29770  0
29576  29992  29771  0
29993  29994  29995  0
29996  29991  29579  0
29771  29992  29772  0
29993  29995  29997  0
29998  29997  29995  0
29995  29999  29998  0
30000  29998  29999  0
29995  29994  29999  0
30001  29999  29994  0
29999  30001  30000  0
29996  29579  30002  0
29579  29773  30002  0
29997  29998  30003  0
29779  30003  29998  0
29997  30003  30004  0
30005  30004  30003  0
29998  30000  29779  0
29780  29779  30000  0
30000  30006  29780  0
29783  29780  30006  0
30007  29783  30006  0
29377  30008  29578  0
29773  29578  30008  0
29774  30009  29775  0
30003  29779  30010  0
30003  30010  30005  0
29779  29781  30011  0
29779  30011  30010  0
29783  29785  29782  0
29783  30007  29785  0
30012  29785  30007  0
29585  30008  29377  0
30013  29775  30009  0
29775  30013  29581  0
29581  30013  29582  0
30014  29582  30013  0
29781  29784  30015  0
29781  30015  30011  0
29785  30012  29789  0
29785  29789  29588  0
30012  30016  29789  0
29585  29584  29787  0
29582  30014  29586  0
30017  29586  30014  0
29784  29788  30015  0
30018  29789  30016  0
29586  30017  29792  0
29789  30019  29593  0
29789  30018  30019  0
29790  29155  30020  0
29791  29792  30021  0
29791  30021  29793  0
29387  30022  29788  0
29593  30019  29796  0
29155  29594  30020  0
29591  29794  29795  0
29794  29793  30023  0
29387  29389  30022  0
29163  29795  29595  0
29799  30024  29600  0
29598  29599  29798  0
29802  30025  29396  0
30025  28943  29396  0
29601  30026  29800  0
29601  29800  29170  0
28951  29801  29397  0
28943  30025  29601  0
29602  29803  29599  0
29397  30027  29609  0
29397  29609  29603  0
29808  29803  29412  0
29609  30027  29810  0
29608  30028  29605  0
29608  29804  30028  0
29605  30028  29805  0
29809  30029  29804  0
29612  29810  29816  0
29811  29617  30030  0
29617  30031  30030  0
29617  29812  30031  0
29209  29827  30032  0
29209  30032  29815  0
29814  29816  30033  0
29820  29826  29821  0
29822  30034  29817  0
29817  30034  29823  0
29819  29824  30035  0
29819  30035  29820  0
29820  30035  30036  0
29820  30036  29826  0
29826  30036  30037  0
29826  30037  29825  0
30034  30038  29823  0
29823  30038  29824  0
29825  30037  30039  0
29825  30039  29623  0
29624  30040  30041  0
29624  30041  29625  0
29624  29829  30040  0
29628  29828  29833  0
29835  29831  29834  0
29835  30042  29831  0
29835  30043  30042  0
29831  30042  30044  0
29831  30044  29830  0
29830  30044  30045  0
29830  30045  29832  0
29832  30045  30046  0
29832  30046  29630  0
29630  30046  29631  0
29631  30046  30047  0
29631  30047  29632  0
29632  30047  30048  0
29632  30048  30049  0
29632  30049  29829  0
29833  30050  29633  0
29836  30043  29835  0
30043  29836  29840  0
30043  29840  30051  0
29843  30052  29841  0
30052  29843  30053  0
29647  30053  29843  0
30053  29647  29837  0
30054  30053  29837  0
29837  29838  30054  0
30055  29640  29641  0
29641  29642  30055  0
29839  29437  30056  0
30057  30056  29437  0
29437  28993  30057  0
29844  30057  28993  0
29637  30058  29845  0
30057  29844  30059  0
29650  29844  29442  0
29848  29845  30060  0
29845  29848  29846  0
29845  30058  30060  0
30061  29848  30060  0
29849  29848  30061  0
30061  29852  29849  0
30061  30062  29852  0
30061  30063  30062  0
30064  30062  30063  0
29659  29852  30062  0
29652  29653  29452  0
30065  29452  29653  0
29452  30065  29851  0
29853  30066  29653  0
29653  30066  30065  0
29660  30062  30067  0
30064  30067  30062  0
30062  29660  29659  0
29457  29659  29660  0
30067  30068  29660  0
29855  29660  30068  0
29458  30069  29853  0
30070  29853  30069  0
29458  29857  30069  0
30070  30069  30071  0
30069  29857  30071  0
29860  30071  29857  0
29857  29458  29858  0
29863  29858  29458  0
29458  29854  29863  0
30072  29863  29854  0
29862  30073  29860  0
29863  30072  30074  0
29856  29867  29462  0
29864  30073  29862  0
29869  30073  29864  0
30074  30075  29863  0
29863  30075  29866  0
30076  29866  30075  0
29669  30077  29869  0
29865  29866  29871  0
30076  29871  29866  0
29877  30078  29874  0
29875  29874  30078  0
30079  30078  29877  0
29875  30080  29677  0
30081  29677  30080  0
30082  29879  29871  0
30083  29880  29879  0
29871  30076  30082  0
29882  30079  29877  0
29677  30081  29883  0
29883  30081  29884  0
29878  29884  30081  0
29885  29880  30083  0
29885  30083  29886  0
30084  29886  30083  0
29872  29881  29890  0
29873  30085  29682  0
30079  29882  30086  0
29887  30086  29882  0
29888  29886  30084  0
29904  29695  29897  0
29904  29897  30087  0
29891  29690  30088  0
30089  30088  29690  0
30086  29887  30090  0
30091  30090  29887  0
29887  29893  30091  0
30092  30091  29893  0
29893  29894  30092  0
29895  29889  30093  0
29896  30094  29890  0
30094  30095  29890  0
29890  29688  29896  0
29904  30096  30097  0
29904  29901  29695  0
29690  29691  29905  0
29690  29905  30089  0
29692  30098  29486  0
29894  29898  30099  0
29894  30099  30092  0
29898  30100  30099  0
29899  29895  30101  0
30102  29898  29899  0
30094  29896  29907  0
30097  30103  30104  0
30097  30105  30103  0
29904  30097  29902  0
29905  29484  30106  0
29910  29486  30098  0
29898  30102  30100  0
30107  29907  29906  0
30107  29906  29913  0
30107  30108  29907  0
30094  29907  30108  0
30103  30109  30104  0
30097  30104  29902  0
30110  29913  29912  0
30110  29912  29916  0
30110  30111  30107  0
30110  30107  29913  0
30109  30112  30104  0
30104  29908  29902  0
29916  29922  29923  0
29916  30113  30110  0
29916  29923  30114  0
29916  30114  30113  0
30112  30115  29917  0
30112  29917  30104  0
30104  29917  29908  0
29490  29707  30116  0
29490  30116  29909  0
29923  29924  30117  0
29923  30118  30114  0
29923  30117  30118  0
30119  30115  30120  0
30115  30119  29933  0
30115  29933  29917  0
29707  29926  30121  0
29707  30121  30116  0
29927  30122  29048  0
29928  29702  30123  0
29928  30123  29927  0
29702  29708  30124  0
29702  30124  30123  0
29708  29709  30124  0
29709  29929  30124  0
29930  29920  30125  0
29930  30125  29938  0
30117  29924  30126  0
29924  29932  30127  0
29924  30127  30126  0
30119  30128  29933  0
30119  30129  30128  0
29933  30128  29940  0
29933  29940  29934  0
29926  29936  30130  0
29926  30130  30131  0
29926  30131  30121  0
29936  29048  30122  0
29719  29937  30132  0
29719  30132  29929  0
29937  29938  30133  0
29937  30133  30132  0
29932  29721  29942  0
29932  29942  30134  0
29932  30134  30127  0
30128  30135  29941  0
30128  29941  29940  0
30130  29936  30136  0
30134  29942  30137  0
29942  29943  30137  0
30138  29949  29950  0
30138  29950  30139  0
30138  30139  30140  0
30138  30140  30141  0
30138  30141  29949  0
30139  29950  29952  0
30139  29952  29954  0
30139  29954  30142  0
30139  30142  30140  0
29954  30143  30144  0
29954  30144  30142  0
30143  29954  29955  0
30143  29955  30145  0
30145  29955  30135  0
30145  30135  30128  0
30145  30128  30143  0
30135  29956  29941  0
29947  29949  30141  0
29955  29958  30135  0
30135  29958  29956  0
29737  29960  30146  0
29737  30146  29738  0
29738  30146  30147  0
29738  30147  29739  0
29739  30147  29961  0
29739  29961  29740  0
29963  29962  29975  0
29963  29975  30148  0
29963  30148  29960  0
29960  30149  30146  0
30146  30149  30150  0
29961  30147  30151  0
29961  30151  29967  0
29968  29967  30152  0
29968  30152  29977  0
29975  29974  29979  0
29975  29979  30148  0
30148  29979  29980  0
30148  29980  29960  0
29960  29980  30153  0
29960  30153  30149  0
30149  30153  30154  0
30149  30154  30150  0
29977  30155  29982  0
29977  29982  29976  0
29977  30152  30156  0
29977  30156  30155  0
29980  29756  30157  0
29980  30157  30153  0
30153  30157  30154  0
29982  29984  29762  0
29982  30155  29984  0
29756  29986  30157  0
29986  29566  30158  0
29986  30158  30159  0
29986  30159  30157  0
29985  30160  29987  0
29566  29768  30158  0
29987  30160  30161  0
29987  30161  29988  0
29768  30162  30158  0
29989  29988  30163  0
29989  30163  29990  0
29988  30161  30164  0
29988  30164  30163  0
29768  29991  30162  0
29990  30163  30164  0
29990  30164  29770  0
29770  30164  30165  0
29770  30165  29992  0
29993  30166  30167  0
29993  30167  29994  0
29994  30168  30001  0
29994  30167  30169  0
29994  30169  30168  0
30168  30169  30001  0
29992  30170  29772  0
29993  29997  30166  0
30171  30166  29997  0
30001  30172  30000  0
30006  30000  30172  0
30001  30169  30173  0
30001  30173  30172  0
30172  30173  30174  0
30172  30174  30006  0
29772  30170  29774  0
29997  30004  30171  0
30175  30171  30004  0
30006  30176  30007  0
30012  30007  30176  0
30006  30174  30176  0
29774  30177  30009  0
29774  30170  30177  0
30004  30005  30175  0
30178  30005  30010  0
30012  30176  30179  0
30012  30179  30016  0
30016  30179  30180  0
30009  30181  30013  0
30009  30177  30181  0
30010  30011  30178  0
30182  30178  30011  0
30018  30016  30180  0
30180  30183  30018  0
29585  29787  30184  0
29790  30184  29787  0
30181  30185  30013  0
30013  30185  30014  0
30014  30185  30017  0
30011  30015  30182  0
30018  30183  30019  0
29790  29787  29786  0
30186  30015  29788  0
29793  30021  30023  0
30021  29792  30187  0
30017  30187  29792  0
30022  30188  29788  0
29788  30188  30186  0
29795  29794  30189  0
30190  30189  29794  0
29794  30023  30190  0
30191  30186  30188  0
29796  30192  29592  0
30188  30022  30191  0
29797  29592  30192  0
30192  30193  29797  0
29594  29597  30194  0
29798  30022  29389  0
30195  29799  29797  0
29799  30195  30024  0
30196  30194  29597  0
29600  30024  29802  0
29800  30196  29597  0
30026  30196  29800  0
30197  29798  29599  0
29802  30198  30025  0
29601  30025  30026  0
30025  30198  30026  0
30027  29397  29801  0
29803  30197  29599  0
30197  29803  29808  0
30027  30199  29810  0
30200  30201  29200  0
30202  30200  29200  0
29804  30029  30028  0
30203  30028  30029  0
30028  30203  29805  0
30204  29805  30203  0
29805  30204  29806  0
29816  29810  30205  0
29812  29813  30206  0
30207  30032  29827  0
29816  30208  30033  0
29822  29814  30033  0
30209  30035  29824  0
30035  30209  30036  0
29827  29625  30207  0
30210  30207  29625  0
30033  30211  29822  0
30034  29822  30211  0
30212  29824  30038  0
30209  29824  30212  0
30210  29625  30041  0
30213  30039  30037  0
30039  29828  29623  0
30039  30213  29828  0
30049  30214  29829  0
30215  29829  30214  0
30216  29829  30215  0
29829  30216  30040  0
30041  30040  30216  0
30217  29833  29828  0
30042  30043  30218  0
30042  30219  30044  0
30045  30044  30219  0
30045  30220  30046  0
30047  30221  30048  0
29833  30217  30050  0
30222  30050  30217  0
29633  30050  29637  0
30050  30222  29637  0
30223  29637  30222  0
30224  29838  29640  0
29640  30225  30224  0
30051  29840  29841  0
30051  29841  30226  0
30051  30226  30227  0
30226  29841  30052  0
30226  30052  30228  0
30226  30228  30227  0
30052  30229  30228  0
30052  30053  30054  0
30052  30054  30229  0
29640  30055  30225  0
29637  30223  30058  0
29642  29839  30230  0
29839  30056  30231  0
30056  30057  30231  0
29839  30231  30230  0
30231  30057  30232  0
30057  30059  30232  0
29844  29650  29851  0
29844  29851  30233  0
30058  30063  30060  0
30060  30063  30061  0
30234  30064  30063  0
30065  30233  29851  0
30064  30068  30067  0
29853  30070  30066  0
30066  30235  30065  0
30066  30070  30236  0
30066  30236  30235  0
29855  30237  29856  0
30071  30238  30070  0
30071  29860  30239  0
30071  30239  30238  0
30070  30238  30236  0
29856  30237  30240  0
29856  30240  29867  0
29860  30073  30239  0
30072  29854  30241  0
29854  29254  30242  0
29854  30242  30241  0
29254  29460  30242  0
29867  30240  30243  0
30073  30244  30239  0
30072  30241  30074  0
29460  29872  30242  0
29460  29461  29872  0
29867  30243  29868  0
30073  30245  30244  0
30073  29869  30245  0
30246  30078  30247  0
30077  30245  29869  0
30076  30075  30248  0
30075  30074  30248  0
29868  30249  30250  0
29868  30250  29873  0
30247  30078  30079  0
30247  30079  30251  0
30078  30246  30252  0
30078  30252  29875  0
29875  30252  30253  0
29875  30253  30080  0
30080  30253  30254  0
30080  30254  30081  0
29878  30255  29669  0
29669  30255  30077  0
30082  30076  30248  0
29873  30250  30085  0
30251  30079  30086  0
30251  30086  30256  0
30081  30254  30257  0
30081  30257  29878  0
30083  30258  30259  0
30083  30259  30084  0
30083  29879  30082  0
30083  30082  30258  0
29872  29890  30095  0
30260  29904  30087  0
30085  30261  29682  0
30256  30086  30262  0
30086  30090  30262  0
29888  30084  29889  0
30263  29889  30084  0
30259  30263  30084  0
29904  30260  30096  0
30096  30260  30264  0
30265  30087  29897  0
29897  29891  30265  0
30088  30089  30266  0
29682  30261  29892  0
29892  30261  30267  0
29892  30267  29692  0
29692  30267  30098  0
30090  30091  30262  0
30268  30262  30091  0
30091  30092  30268  0
30269  30268  30092  0
30270  30269  30092  0
29895  30093  30101  0
30271  30093  29889  0
30093  30272  30101  0
29889  30263  30271  0
30094  30273  30095  0
30097  30096  30105  0
30096  30274  30105  0
30089  29905  30275  0
30092  30099  30270  0
29899  30101  30102  0
30272  30276  30101  0
30101  30276  30277  0
30101  30277  30102  0
30278  30273  30108  0
30273  30094  30108  0
30279  30105  30274  0
29910  30098  30280  0
30281  29910  30280  0
30099  30100  30270  0
30282  30270  30100  0
30100  30102  30282  0
30283  30282  30102  0
30277  30283  30102  0
30284  30108  30111  0
30107  30111  30108  0
30278  30108  30284  0
30105  30279  30103  0
30106  29484  30285  0
29910  30281  29911  0
30110  30113  30111  0
30286  30111  30113  0
30103  30112  30109  0
30103  30279  30112  0
29484  29909  30285  0
30116  30285  29909  0
29914  30287  29918  0
30288  29918  30287  0
30114  30118  30113  0
30289  30113  30118  0
29918  30288  29919  0
29919  30125  29920  0
29919  30288  30125  0
30290  30125  30288  0
30117  30291  30118  0
30289  30118  30291  0
30112  30292  30115  0
30120  30115  30292  0
30293  29927  30123  0
30123  30124  30294  0
30295  30294  30124  0
30296  30133  30125  0
29938  30125  30133  0
30290  30296  30125  0
30297  30133  30296  0
30291  30117  30298  0
30299  30298  30117  0
30117  30126  30299  0
30300  30301  30292  0
30292  30301  30120  0
30142  30120  30301  0
30120  30142  30119  0
30129  30119  30142  0
30136  29936  30122  0
30122  29927  30302  0
30293  30302  29927  0
30122  30302  30136  0
30124  29929  30303  0
30304  30303  29929  0
29929  30132  30304  0
30305  30304  30132  0
30132  30133  30305  0
30297  30305  30133  0
30126  30127  30299  0
30306  30299  30127  0
30127  30134  30306  0
30137  30306  30134  0
30306  30137  30307  0
30142  30301  30140  0
30301  30300  30140  0
30142  30144  30129  0
30143  30129  30144  0
30129  30143  30128  0
30137  29943  30307  0
29947  30307  29943  0
30307  29947  30141  0
30307  30141  30308  0
30141  30140  30308  0
30146  30150  30147  0
30309  30147  30150  0
30147  30309  30151  0
30310  30151  30309  0
30151  30310  29967  0
30152  29967  30310  0
30311  30150  30154  0
30150  30312  30309  0
30150  30311  30312  0
30313  30312  30311  0
30314  30310  30309  0
30310  30314  30152  0
30156  30152  30314  0
30315  30155  30156  0
30316  30311  30154  0
30311  30316  30313  0
30317  29984  30155  0
30154  30157  30316  0
30159  30316  30157  0
30318  30316  30159  0
29984  30317  29985  0
30319  29985  30317  0
30159  30158  30318  0
29985  30319  30160  0
30160  30320  30161  0
30160  30319  30320  0
30321  30320  30319  0
30322  30320  30321  0
30161  30320  30323  0
30322  30323  30320  0
30161  30323  30164  0
30324  30164  30323  0
30164  30324  30325  0
30326  30162  29991  0
30164  30325  30165  0
30327  29992  30165  0
30328  30167  30166  0
30167  30329  30169  0
30330  30169  30329  0
30173  30169  30330  0
30330  30331  30173  0
30332  30173  30331  0
29991  29996  30326  0
29992  30327  30170  0
30328  30166  30171  0
30173  30332  30174  0
30333  30174  30332  0
29996  30334  30326  0
30171  30175  30335  0
30336  30335  30175  0
30174  30333  30176  0
30179  30176  30333  0
30333  30337  30179  0
30338  30179  30337  0
30339  30008  30340  0
30008  29585  30340  0
30008  30339  29773  0
30002  29773  30339  0
30002  30341  29996  0
30334  29996  30341  0
30170  30342  30177  0
30175  30005  30178  0
30175  30178  30343  0
30175  30343  30336  0
30179  30338  30180  0
30344  30180  30338  0
29585  30184  30340  0
30177  30345  30181  0
30177  30342  30345  0
30343  30178  30182  0
30343  30182  30346  0
30343  30346  30347  0
30180  30344  30183  0
30348  30183  30344  0
30349  30181  30345  0
30181  30349  30185  0
30182  30015  30350  0
30182  30350  30346  0
30351  30185  30352  0
30185  30351  30017  0
30350  30015  30186  0
30020  30353  29790  0
30017  30351  30187  0
30186  30354  30350  0
30355  30356  30357  0
30020  29594  30358  0
30020  30358  30353  0
30023  30021  30359  0
30023  30359  30190  0
30021  30187  30359  0
30186  30191  30354  0
30192  30360  30193  0
29594  30194  30358  0
30191  30361  30354  0
30362  30357  30363  0
30357  30362  30355  0
30355  30362  30364  0
30355  30364  30365  0
30365  30364  30366  0
30365  30366  30367  0
30193  30195  29797  0
29595  29795  30368  0
29595  30368  30369  0
30191  30370  30371  0
30191  30371  30361  0
30191  30022  29798  0
30362  30363  30372  0
30362  30372  30364  0
29595  30369  29801  0
30191  29798  30370  0
30372  30363  30373  0
30364  30374  30375  0
30364  30375  30376  0
30364  30376  30366  0
30024  30377  30198  0
30024  30198  29802  0
30024  30195  30377  0
30370  29798  30197  0
30372  30373  30378  0
30372  30378  30379  0
30372  30379  30364  0
30364  30379  30374  0
30374  30379  30380  0
29801  30381  30027  0
30197  29808  30382  0
30378  30383  30379  0
30380  30379  30384  0
30027  30381  30199  0
30385  30386  30201  0
30385  30201  30200  0
30385  30387  30388  0
30385  30388  30386  0
30385  30200  30387  0
30386  30389  30390  0
30386  30390  30201  0
30386  30388  30389  0
30204  30391  29806  0
29806  30391  30382  0
29806  30382  29807  0
29807  30382  29808  0
30199  30205  29810  0
30199  30392  30205  0
30200  30202  30393  0
30201  30390  30394  0
30390  30395  30396  0
30390  30396  30394  0
30390  30389  30395  0
30395  30029  30396  0
30395  30397  30029  0
30029  30397  30398  0
30029  30398  30203  0
30203  30398  30399  0
30203  30399  30204  0
30205  30392  30400  0
30202  30401  30402  0
30202  30402  30403  0
30202  30403  30393  0
30205  30400  29816  0
30404  30405  30406  0
30404  30406  30402  0
30405  30030  30407  0
30405  30407  30406  0
30030  30031  30407  0
30031  29812  30206  0
30206  29813  30408  0
29813  29815  30408  0
29815  30032  30409  0
29816  30400  30208  0
30210  30410  30207  0
30411  30410  30210  0
30033  30208  30211  0
30209  30412  30036  0
30036  30412  30413  0
30210  30414  30411  0
30211  30415  30034  0
30034  30416  30038  0
30417  30038  30416  0
30038  30417  30212  0
30413  30037  30036  0
30414  30418  30411  0
30034  30415  30416  0
30037  30413  30213  0
30041  30414  30210  0
30419  29828  30213  0
30049  30420  30214  0
30421  30214  30420  0
30214  30421  30215  0
30422  30215  30421  0
30215  30422  30216  0
30423  30216  30422  0
30216  30423  30041  0
30041  30423  30414  0
30418  30414  30423  0
29828  30419  30217  0
30042  30424  30219  0
30042  30218  30424  0
30220  30045  30219  0
30220  30425  30046  0
30426  30046  30425  0
30046  30426  30047  0
30427  30047  30426  0
30047  30427  30221  0
30428  30048  30221  0
30048  30428  30049  0
30420  30049  30428  0
30051  30218  30043  0
30227  30429  30051  0
30227  30228  30430  0
30431  30430  30228  0
30228  30229  30431  0
30432  30431  30229  0
30433  30432  30229  0
30229  30054  30433  0
30054  29838  30433  0
30434  30433  29838  0
29838  30224  30434  0
30225  30055  30435  0
30436  30435  30055  0
30055  29642  30436  0
30230  30436  29642  0
30234  30058  30223  0
30233  30059  29844  0
30436  30230  30437  0
30438  30437  30230  0
30232  30438  30230  0
30230  30231  30232  0
30232  30059  30439  0
30058  30234  30063  0
30068  30440  29855  0
30237  29855  30440  0
30236  30238  30441  0
30238  30239  30441  0
30442  30441  30239  0
30443  30442  30239  0
30243  30240  30444  0
30445  30243  30444  0
30244  30443  30239  0
30241  30242  30446  0
29868  30243  30249  0
30243  30445  30249  0
30244  30245  30447  0
30446  30074  30241  0
29872  30446  30242  0
30250  30249  30445  0
30448  30246  30449  0
30246  30247  30449  0
30450  30449  30247  0
30246  30448  30252  0
30451  30252  30448  0
30252  30451  30253  0
30254  30253  30451  0
30447  30077  30255  0
30077  30447  30245  0
30248  30074  30452  0
30453  30452  30074  0
30074  30446  30453  0
30446  30454  30453  0
30455  30453  30454  0
30446  29872  30454  0
30247  30251  30450  0
30456  30450  30251  0
30257  30255  29878  0
30452  30082  30248  0
30457  30264  30260  0
30251  30256  30456  0
30082  30452  30458  0
30082  30458  30258  0
30452  30453  30458  0
30454  29872  30095  0
30087  30459  30260  0
30085  30250  30460  0
30085  30460  30261  0
30261  30460  30461  0
30256  30262  30462  0
30262  30463  30464  0
30262  30464  30462  0
30463  30262  30268  0
30463  30268  30465  0
30463  30465  30466  0
30463  30466  30464  0
30263  30259  30467  0
30264  30468  30469  0
30264  30469  30096  0
29891  30088  30266  0
29891  30266  30265  0
30266  30089  30275  0
30267  30470  30098  0
30268  30269  30465  0
30269  30270  30471  0
30093  30271  30272  0
30271  30263  30467  0
30095  30273  30278  0
30274  30096  30469  0
30274  30469  30472  0
30275  29905  30473  0
30474  30280  30098  0
30474  30098  30470  0
29905  30106  30473  0
30106  30285  30475  0
30280  30474  30281  0
30270  30282  30476  0
30282  30283  30477  0
30282  30477  30478  0
30282  30478  30479  0
30282  30479  30476  0
30283  30277  30480  0
30283  30480  30477  0
30276  30272  30481  0
30276  30481  30277  0
30284  30482  30278  0
30284  30111  30286  0
30284  30286  30482  0
30279  30274  30483  0
30279  30483  30484  0
30285  30485  30475  0
30281  30486  29911  0
30477  30480  30487  0
30477  30487  30488  0
30477  30488  30489  0
30477  30489  30478  0
30277  30481  30490  0
30277  30490  30480  0
30286  30113  30491  0
30286  30491  30482  0
30484  30492  30112  0
30484  30112  30279  0
30484  30493  30492  0
30285  30116  30494  0
30285  30494  30485  0
29911  30486  30495  0
29911  30495  29914  0
29914  30495  30287  0
30287  30495  30496  0
30287  30496  30288  0
30487  30480  30490  0
30487  30490  30488  0
30497  30289  30291  0
30497  30291  30498  0
30497  30491  30289  0
30289  30491  30113  0
30492  30292  30112  0
30116  30121  30499  0
30116  30499  30494  0
30498  30291  30298  0
30500  30300  30292  0
30500  30292  30492  0
30294  30501  30123  0
30295  30124  30303  0
30297  30296  30502  0
30297  30502  30503  0
30297  30503  30504  0
30297  30504  30305  0
30296  30290  30502  0
30498  30298  30505  0
30498  30505  30506  0
30298  30299  30507  0
30298  30507  30505  0
30299  30508  30507  0
30300  30509  30140  0
30302  30293  30510  0
30293  30123  30501  0
30293  30501  30510  0
30295  30303  30511  0
30303  30304  30512  0
30303  30512  30511  0
30304  30305  30504  0
30304  30504  30512  0
30299  30306  30513  0
30299  30513  30508  0
30306  30307  30514  0
30306  30514  30513  0
30307  30308  30515  0
30307  30515  30514  0
30515  30308  30140  0
30515  30140  30509  0
30312  30313  30516  0
30312  30516  30309  0
30309  30516  30517  0
30309  30517  30314  0
30314  30517  30518  0
30314  30518  30156  0
30156  30518  30315  0
30313  30316  30519  0
30313  30519  30516  0
30517  30520  30521  0
30517  30521  30518  0
30517  30516  30522  0
30517  30522  30520  0
30518  30521  30523  0
30518  30523  30315  0
30315  30317  30155  0
30315  30523  30524  0
30316  30318  30525  0
30316  30525  30519  0
30519  30526  30522  0
30519  30522  30516  0
30519  30525  30526  0
30315  30524  30317  0
30317  30524  30527  0
30317  30527  30319  0
30319  30527  30528  0
30158  30162  30529  0
30158  30529  30318  0
30319  30528  30321  0
30162  30530  30529  0
30324  30323  30322  0
30324  30531  30325  0
30162  30326  30530  0
30165  30325  30327  0
30325  30531  30327  0
30530  30326  30532  0
30167  30328  30329  0
30533  30329  30328  0
30329  30534  30330  0
30535  30330  30534  0
30329  30533  30534  0
30536  30534  30533  0
30330  30535  30331  0
30537  30331  30535  0
30331  30537  30332  0
30538  30332  30537  0
30539  30170  30327  0
30171  30335  30328  0
30540  30328  30335  0
30328  30540  30533  0
30536  30533  30540  0
30332  30538  30333  0
30337  30333  30538  0
30326  30334  30532  0
30170  30539  30342  0
30335  30541  30540  0
30542  30540  30541  0
30335  30336  30541  0
30543  30541  30336  0
30544  30340  30545  0
30546  30545  30340  0
30340  30544  30339  0
30547  30339  30544  0
30339  30547  30002  0
30341  30002  30547  0
30341  30548  30334  0
30543  30336  30549  0
30550  30551  30552  0
30344  30552  30551  0
30550  30552  30553  0
30554  30553  30552  0
30550  30553  30551  0
30552  30344  30338  0
30552  30338  30554  0
30337  30554  30338  0
30340  30184  30546  0
30336  30343  30555  0
30347  30555  30343  0
30336  30555  30549  0
30556  30549  30555  0
30557  30551  30558  0
30558  30551  30559  0
30560  30558  30559  0
30551  30557  30344  0
30561  30344  30557  0
30348  30344  30561  0
30352  30185  30349  0
30562  30563  30555  0
30563  30556  30555  0
