#!ascii file
30160  30523  30334  0
30525  30334  30523  0
30526  30335  29978  0
30335  30526  30527  0
30334  30525  30161  0
30528  30161  30525  0
30529  30530  30531  0
30532  30530  30533  0
29978  30162  30526  0
30161  30528  29986  0
30534  29986  30528  0
30535  30529  30531  0
30341  30531  30530  0
30530  30532  30341  0
30536  30532  30533  0
30162  30337  30526  0
29986  30534  30164  0
30338  30164  30534  0
30537  30535  30531  0
30531  30341  30538  0
30531  30538  30537  0
30342  30341  30532  0
30532  30536  30342  0
30342  30536  30343  0
30539  30343  30536  0
30166  30540  30163  0
30341  30344  30541  0
30341  30541  30538  0
30343  30539  30345  0
30166  30168  30348  0
30339  30338  30542  0
30543  29994  30339  0
30544  30172  30345  0
30545  30348  30347  0
29994  30543  30169  0
30546  30169  30543  0
30344  30171  30349  0
30172  30544  30352  0
30172  30352  30173  0
30547  30169  30546  0
30174  30177  30548  0
30170  30169  30547  0
30170  30547  30353  0
30350  30549  30349  0
30176  30353  30354  0
30350  30355  30550  0
30350  30550  30549  0
30177  30179  30548  0
30179  30551  30548  0
30356  30175  30354  0
30179  30182  30551  0
30181  30552  30183  0
30355  30186  30553  0
30355  30553  30550  0
30183  30552  30357  0
30186  30359  30553  0
30185  30554  30016  0
30358  30555  29794  0
29794  30555  30187  0
30360  30019  30363  0
30364  30194  30368  0
30364  30368  30556  0
30364  30557  30363  0
30187  30558  30188  0
30188  30558  30365  0
30366  30559  30560  0
30366  30560  30362  0
30366  30369  30559  0
30362  30560  30561  0
30362  30561  30367  0
30367  30561  30191  0
30191  30561  30368  0
30365  30558  30562  0
30365  30562  30370  0
30370  30562  30563  0
30370  30563  30374  0
30373  30208  30564  0
30373  30564  30565  0
30373  30565  30566  0
30200  30567  30205  0
30200  30374  30567  0
30375  30381  30376  0
30376  30377  30203  0
30208  30378  30564  0
30205  30568  30379  0
30205  30567  30568  0
30376  30381  30569  0
30376  30569  30377  0
30377  30569  30570  0
30377  30570  30382  0
30382  30570  30571  0
30382  30571  30383  0
30209  30572  30378  0
30211  30573  30574  0
30211  30574  30385  0
30212  30391  30575  0
30212  30575  30386  0
30211  30386  30573  0
30576  30389  30393  0
30576  30393  30394  0
30576  30577  30389  0
30576  30394  30578  0
30389  30577  30388  0
30215  30388  30390  0
30216  30579  30045  0
30045  30579  30391  0
30213  30387  30392  0
30387  30384  30580  0
30387  30580  30581  0
30387  30581  30392  0
30397  30578  30394  0
30392  30582  30395  0
30395  30582  30583  0
30395  30583  30396  0
30397  30403  30584  0
30585  30586  30404  0
30404  30405  30232  0
30404  30232  30585  0
30587  30585  30232  0
30232  30223  30587  0
30223  30225  30587  0
30225  30224  30588  0
30589  30588  30224  0
30224  30398  30589  0
30590  30589  30398  0
30398  30399  30590  0
30591  30590  30399  0
30399  30400  30591  0
30592  30591  30400  0
30593  30592  30400  0
30400  30401  30593  0
30594  30593  30401  0
30396  30595  30221  0
30406  30221  30595  0
30402  30594  30401  0
30406  30409  30228  0
30402  30234  30596  0
30597  30596  30234  0
30234  30236  30597  0
30595  30598  30406  0
30236  30412  30597  0
30599  30409  30600  0
30409  30599  30408  0
30413  30408  30599  0
30238  30415  30412  0
30600  30601  30599  0
30067  30414  30242  0
30602  30242  30414  0
30242  30603  30415  0
30412  30415  30603  0
30242  30602  30603  0
30420  30599  30601  0
30599  30420  30413  0
30416  30413  30420  0
30602  30414  30604  0
30414  30418  30604  0
30420  30601  30605  0
30606  30605  30601  0
30417  30607  30418  0
30604  30418  30607  0
30605  30423  30420  0
30246  30420  30423  0
30605  30608  30423  0
30609  30423  30608  0
30417  30610  30607  0
30423  30609  30424  0
30611  30424  30609  0
30429  30428  30610  0
30610  30417  30429  0
30612  30429  30417  0
30417  30421  30612  0
30613  30421  30419  0
30419  30425  30613  0
30614  30424  30611  0
30615  30428  30427  0
30429  30612  30433  0
30425  30422  30616  0
30422  30248  30616  0
30249  30616  30248  0
30250  30424  30614  0
30432  30615  30427  0
30433  30612  30617  0
30618  30617  30612  0
30616  30249  30434  0
30614  30437  30250  0
30251  30250  30437  0
30432  30435  30615  0
30619  30615  30435  0
30433  30617  30436  0
30620  30436  30617  0
30256  30441  30434  0
30437  30621  30438  0
30622  30438  30621  0
30619  30435  30439  0
30620  30440  30436  0
30623  30444  30447  0
30444  30623  30449  0
30439  30259  30450  0
30624  30451  30440  0
30440  30620  30624  0
30622  30625  30438  0
30268  30438  30625  0
30446  30443  30445  0
30446  30445  30626  0
30627  30626  30445  0
30452  30449  30623  0
30267  30264  30455  0
30451  30455  30264  0
30442  30270  30456  0
30628  30442  30456  0
30625  30629  30268  0
30453  30268  30629  0
30445  30454  30627  0
30630  30627  30454  0
30631  30093  30455  0
30632  30458  30460  0
30632  30460  30633  0
30634  30633  30460  0
30460  30283  30635  0
30460  30635  30634  0
30636  30634  30635  0
30637  30636  30635  0
30635  30283  30277  0
30635  30277  30637  0
30277  30278  30637  0
30638  30637  30278  0
30639  30638  30278  0
30278  30279  30639  0
30453  30640  30271  0
30461  30271  30640  0
30454  30457  30630  0
30641  30630  30457  0
30642  30641  30457  0
30457  30281  30642  0
30273  30093  30631  0
30465  30643  30456  0
30275  30465  30456  0
30467  30644  30645  0
30632  30467  30458  0
30279  30284  30646  0
30279  30646  30639  0
30284  30468  30646  0
30463  30464  30647  0
30464  30273  30648  0
30643  30465  30649  0
30645  30650  30651  0
30652  30651  30650  0
30467  30645  30459  0
30468  30653  30646  0
30468  30469  30653  0
30287  30462  30654  0
30477  30649  30473  0
30477  30655  30649  0
30649  30465  30473  0
30645  30651  30470  0
30645  30470  30459  0
30477  30476  30656  0
30477  30656  30657  0
30651  30652  30478  0
30651  30478  30470  0
30469  30474  30658  0
30475  30659  30290  0
30656  30476  30484  0
30652  30660  30489  0
30652  30661  30660  0
30652  30489  30478  0
30289  30488  30480  0
30289  29898  30488  0
29900  30481  30482  0
30656  30484  30485  0
30656  30485  30662  0
30656  30662  30663  0
30660  30664  30489  0
30474  30486  30665  0
30474  30665  30658  0
30488  30293  30666  0
30293  30299  30666  0
30482  30493  30294  0
30482  30667  30493  0
30485  30302  30668  0
30485  30668  30662  0
30489  30664  30490  0
30489  30490  30479  0
30486  30487  30669  0
30486  30669  30665  0
30299  30491  30666  0
30492  30493  30670  0
30302  30494  30668  0
30664  30671  30490  0
30668  30494  30672  0
30494  30495  30672  0
30499  30673  30674  0
30499  30674  30675  0
30499  30675  30498  0
30673  30499  30500  0
30500  30676  30673  0
30676  30500  30501  0
30676  30501  30671  0
30671  30501  30497  0
30671  30497  30490  0
30503  30504  30677  0
30503  30677  30678  0
30503  30678  30505  0
30508  30507  30515  0
30508  30515  30504  0
30504  30515  30679  0
30504  30679  30677  0
30677  30679  30680  0
30677  30680  30678  0
30505  30678  30681  0
30505  30681  30310  0
30310  30681  30682  0
30310  30682  30510  0
30510  30682  30683  0
30510  30683  30511  0
30515  30147  30517  0
30515  30517  30679  0
30679  30517  30518  0
30679  30518  30684  0
30679  30684  30680  0
30511  30685  30519  0
30511  30519  30516  0
30511  30683  30685  0
30518  30325  30684  0
30519  30685  30521  0
30325  30326  30686  0
30325  30686  30684  0
30521  30687  30331  0
30326  30332  30686  0
30331  30687  30688  0
30331  30688  30522  0
30332  30333  30686  0
30686  30333  30689  0
30333  30524  30690  0
30333  30690  30689  0
30523  30522  30691  0
30523  30691  30525  0
30335  30527  30524  0
30525  30691  30692  0
30525  30692  30528  0
30533  30530  30693  0
30694  30527  30526  0
30533  30695  30536  0
30536  30695  30696  0
30337  30694  30526  0
30697  30535  30537  0
30536  30698  30539  0
30536  30696  30698  0
30540  30699  30163  0
30336  30163  30700  0
30336  30700  30337  0
30338  30534  30542  0
30537  30538  30541  0
30701  30537  30541  0
30539  30698  30702  0
30539  30702  30345  0
30345  30702  30703  0
30348  30545  30704  0
30348  30704  30166  0
30542  30705  30339  0
30542  30706  30705  0
30543  30339  30705  0
30707  30701  30541  0
30345  30703  30544  0
30703  30708  30544  0
30541  30344  30707  0
30344  30349  30707  0
30544  30709  30352  0
30544  30708  30710  0
30544  30710  30709  0
30174  30347  30346  0
30347  30174  30711  0
30548  30711  30174  0
30352  30712  30351  0
30353  30547  30713  0
30707  30349  30549  0
30707  30549  30714  0
30715  30714  30549  0
30354  30353  30716  0
30713  30716  30353  0
30717  30351  30712  0
30718  30180  30356  0
30549  30550  30715  0
30552  30181  30351  0
30351  30717  30552  0
30551  30182  30719  0
30180  30718  30358  0
30720  30358  30718  0
30550  30553  30721  0
29793  30722  30182  0
29793  30016  30722  0
30723  30722  30016  0
30555  30358  30720  0
30553  30359  30721  0
30724  30184  30357  0
30184  30724  30361  0
30361  30554  30185  0
30723  30016  30554  0
30721  30359  30725  0
30360  30725  30359  0
30363  30725  30360  0
30555  30726  30187  0
30725  30363  30557  0
30725  30557  30727  0
30558  30187  30726  0
30728  30558  30726  0
30561  30556  30368  0
30557  30364  30556  0
30729  30558  30728  0
30730  30731  30732  0
30733  30731  30730  0
30560  30734  30561  0
30558  30729  30562  0
30733  30730  30735  0
30736  30562  30729  0
30372  30199  30034  0
30372  30371  30737  0
30373  30566  30371  0
30562  30736  30563  0
30738  30563  30736  0
30565  30564  30739  0
30740  30739  30564  0
30564  30378  30740  0
30741  30740  30378  0
30742  30374  30563  0
30374  30742  30567  0
30380  30743  30381  0
30744  30381  30743  0
30381  30744  30569  0
30745  30569  30744  0
30569  30745  30570  0
30746  30570  30745  0
30378  30572  30741  0
30747  30568  30567  0
30748  30568  30747  0
30568  30748  30379  0
30749  30379  30748  0
30379  30749  30380  0
30743  30380  30749  0
30571  30570  30750  0
30746  30750  30570  0
30209  30385  30572  0
30751  30572  30385  0
30752  30571  30750  0
30753  30385  30574  0
30385  30753  30751  0
30571  30754  30384  0
30571  30384  30383  0
30571  30752  30754  0
30575  30391  30579  0
30575  30755  30386  0
30386  30755  30573  0
30574  30573  30755  0
30754  30580  30384  0
30756  30580  30754  0
30576  30578  30757  0
30758  30388  30577  0
30759  30388  30758  0
30388  30759  30390  0
30390  30579  30216  0
30580  30756  30581  0
30760  30581  30756  0
30578  30397  30761  0
30392  30581  30582  0
30581  30760  30582  0
30761  30397  30584  0
30587  30225  30762  0
30225  30588  30762  0
30582  30760  30763  0
30582  30763  30583  0
30761  30584  30764  0
30584  30403  30404  0
30584  30404  30586  0
30584  30586  30764  0
30589  30590  30765  0
30590  30766  30765  0
30590  30591  30766  0
30591  30592  30767  0
30591  30767  30768  0
30591  30768  30766  0
30592  30593  30769  0
30593  30594  30770  0
30594  30402  30770  0
30402  30596  30770  0
30396  30771  30598  0
30396  30598  30595  0
30396  30583  30772  0
30396  30772  30771  0
30767  30592  30769  0
30767  30769  30768  0
30593  30770  30769  0
30770  30596  30773  0
30598  30774  30600  0
30598  30600  30406  0
30598  30771  30774  0
30406  30600  30409  0
30774  30771  30775  0
30774  30775  30606  0
30606  30775  30776  0
30774  30606  30601  0
30774  30601  30600  0
30603  30777  30412  0
30602  30604  30603  0
30606  30776  30778  0
30606  30778  30605  0
30605  30778  30608  0
30604  30779  30603  0
30608  30778  30609  0
30607  30779  30604  0
30607  30610  30779  0
30610  30428  30780  0
30610  30780  30779  0
30425  30616  30613  0
30611  30781  30614  0
30428  30615  30782  0
30428  30782  30780  0
30612  30421  30618  0
30421  30613  30618  0
30613  30616  30783  0
30616  30434  30783  0
30614  30781  30621  0
30614  30621  30437  0
30613  30783  30784  0
30613  30784  30618  0
30783  30434  30785  0
30783  30785  30784  0
30434  30441  30785  0
30615  30786  30782  0
30615  30619  30786  0
30618  30787  30617  0
30785  30441  30442  0
30788  30446  30626  0
30439  30789  30790  0
30439  30790  30619  0
30620  30617  30624  0
30617  30787  30624  0
30628  30785  30442  0
30622  30791  30625  0
30626  30627  30792  0
30446  30788  30447  0
30447  30788  30793  0
30447  30793  30623  0
30450  30794  30789  0
30450  30789  30439  0
30624  30795  30451  0
30625  30796  30629  0
30627  30797  30792  0
30452  30623  30450  0
30455  30451  30795  0
30628  30456  30798  0
30632  30799  30800  0
30799  30632  30633  0
30799  30633  30801  0
30629  30796  30802  0
30629  30802  30453  0
30453  30802  30640  0
30797  30627  30630  0
30803  30631  30455  0
30795  30803  30455  0
30798  30456  30643  0
30655  30798  30643  0
30467  30800  30644  0
30800  30467  30632  0
30462  30461  30804  0
30461  30640  30804  0
30804  30654  30462  0
30805  30641  30642  0
30806  30805  30642  0
30273  30631  30648  0
30807  30648  30631  0
30631  30808  30807  0
30631  30803  30808  0
30645  30644  30650  0
30809  30639  30646  0
30642  30281  30806  0
30463  30806  30281  0
30464  30648  30647  0
30810  30647  30648  0
30648  30807  30810  0
30655  30643  30649  0
30652  30650  30811  0
30812  30653  30469  0
30287  30654  30813  0
30472  30287  30813  0
30814  30806  30463  0
30463  30647  30814  0
30810  30814  30647  0
30477  30657  30655  0
30811  30661  30652  0
30469  30658  30812  0
30659  30815  30290  0
30816  30290  30815  0
30656  30663  30657  0
30290  30816  30481  0
30481  30667  30482  0
30481  30816  30667  0
30662  30817  30663  0
30817  30818  30663  0
30819  30818  30817  0
30661  30820  30660  0
30661  30821  30820  0
30822  30487  30480  0
30823  30822  30480  0
30480  30488  30823  0
30666  30823  30488  0
30493  30667  30670  0
30817  30662  30819  0
30824  30819  30662  0
30668  30824  30662  0
30820  30825  30660  0
30664  30660  30825  0
30487  30822  30826  0
30827  30487  30826  0
30666  30491  30828  0
30829  30828  30491  0
30491  30492  30829  0
30670  30829  30492  0
30672  30824  30668  0
30820  30674  30825  0
30673  30825  30674  0
30820  30830  30674  0
30676  30825  30673  0
30825  30676  30664  0
30671  30664  30676  0
30487  30827  30669  0
30672  30495  30831  0
30498  30831  30495  0
30831  30498  30675  0
30830  30675  30674  0
30678  30832  30681  0
30833  30681  30832  0
30678  30680  30832  0
30834  30832  30680  0
30681  30833  30682  0
30835  30682  30833  0
30682  30835  30683  0
30836  30680  30684  0
30680  30836  30834  0
30685  30837  30521  0
30684  30686  30836  0
30521  30837  30687  0
30689  30836  30686  0
30838  30522  30688  0
30522  30838  30691  0
30839  30692  30691  0
30524  30527  30840  0
30841  30530  30529  0
30530  30841  30693  0
30693  30695  30533  0
30842  30695  30693  0
30527  30694  30840  0
30692  30839  30528  0
30843  30528  30839  0
30844  30529  30845  0
30529  30535  30845  0
30846  30696  30695  0
30847  30696  30846  0
30337  30700  30694  0
30848  30694  30700  0
30843  30849  30528  0
30534  30528  30849  0
30535  30697  30845  0
30850  30845  30697  0
30696  30847  30698  0
30851  30698  30847  0
30698  30851  30702  0
30852  30702  30851  0
30166  30704  30540  0
30699  30540  30704  0
30853  30163  30699  0
30163  30853  30700  0
30849  30542  30534  0
30697  30537  30701  0
30697  30701  30854  0
30697  30854  30850  0
30702  30852  30703  0
30855  30703  30852  0
30545  30856  30704  0
30545  30347  30857  0
30545  30857  30856  0
30858  30542  30849  0
30542  30858  30706  0
30701  30707  30859  0
30701  30859  30854  0
30703  30860  30708  0
30703  30855  30860  0
30861  30860  30855  0
30347  30711  30857  0
30862  30705  30706  0
30705  30862  30543  0
30707  30714  30863  0
30707  30863  30859  0
30860  30861  30708  0
30864  30708  30861  0
30708  30864  30710  0
30865  30543  30862  0
30543  30865  30546  0
30714  30866  30863  0
30546  30865  30867  0
30546  30867  30547  0
30716  30713  30868  0
30713  30547  30867  0
30714  30715  30869  0
30714  30869  30866  0
30870  30871  30872  0
30870  30872  30873  0
30873  30872  30874  0
30873  30874  30875  0
30356  30354  30876  0
30356  30876  30718  0
30354  30716  30876  0
30869  30715  30877  0
30869  30877  30878  0
30871  30879  30872  0
30871  30880  30879  0
30875  30874  30881  0
30551  30719  30882  0
30715  30550  30721  0
30872  30879  30883  0
30872  30883  30884  0
30872  30884  30874  0
30874  30884  30885  0
30874  30885  30881  0
30881  30885  30886  0
30552  30887  30888  0
30552  30888  30357  0
30552  30717  30887  0
30719  30182  30722  0
30715  30721  30877  0
30879  30889  30883  0
30883  30890  30884  0
30885  30884  30891  0
30885  30891  30886  0
30888  30724  30357  0
30720  30892  30555  0
30720  30718  30892  0
30877  30721  30725  0
30877  30725  30878  0
30889  30893  30894  0
30889  30894  30883  0
30883  30894  30890  0
30884  30890  30891  0
30361  30724  30895  0
30361  30895  30554  0
30555  30892  30896  0
30893  30897  30894  0
30890  30898  30891  0
30897  30899  30894  0
30894  30899  30900  0
30894  30900  30890  0
30890  30900  30898  0
30898  30901  30891  0
30898  30902  30901  0
30555  30896  30903  0
30555  30903  30726  0
30727  30557  30556  0
30727  30556  30904  0
30900  30905  30902  0
30900  30902  30898  0
30900  30906  30905  0
30726  30903  30728  0
30907  30908  30732  0
30907  30732  30731  0
30907  30909  30910  0
30907  30910  30908  0
30907  30731  30911  0
30907  30911  30909  0
30908  30912  30732  0
30908  30910  30913  0
30914  30556  30561  0
30914  30561  30734  0
30556  30914  30904  0
30899  30906  30900  0
30728  30903  30915  0
30728  30915  30916  0
30731  30733  30917  0
30731  30917  30911  0
30732  30912  30918  0
30912  30919  30920  0
30912  30920  30918  0
30912  30908  30919  0
30919  30559  30920  0
30559  30919  30921  0
30559  30921  30560  0
30560  30921  30922  0
30560  30922  30734  0
30728  30916  30923  0
30728  30923  30729  0
30735  30032  30924  0
30735  30924  30733  0
30729  30923  30736  0
30924  30925  30926  0
30924  30926  30733  0
30927  30928  30929  0
30927  30199  30928  0
30199  30372  30928  0
30372  30930  30928  0
30372  30737  30930  0
30371  30566  30737  0
30566  30931  30737  0
30566  30565  30932  0
30566  30932  30931  0
30565  30933  30932  0
30736  30934  30738  0
30565  30739  30933  0
30935  30740  30741  0
30563  30738  30742  0
30743  30936  30744  0
30744  30936  30937  0
30744  30937  30745  0
30745  30937  30938  0
30745  30938  30746  0
30939  30741  30572  0
30741  30939  30935  0
30567  30742  30747  0
30749  30940  30743  0
30743  30940  30936  0
30941  30746  30938  0
30572  30751  30939  0
30942  30939  30751  0
30747  30943  30748  0
30750  30746  30944  0
30941  30944  30746  0
30750  30944  30752  0
30753  30945  30751  0
30942  30751  30945  0
30946  30754  30752  0
30947  30579  30948  0
30579  30947  30575  0
30949  30575  30947  0
30575  30949  30755  0
30950  30755  30949  0
30755  30950  30574  0
30951  30574  30950  0
30574  30951  30753  0
30945  30753  30951  0
30754  30946  30756  0
30952  30756  30946  0
30576  30757  30577  0
30953  30577  30757  0
30577  30953  30758  0
30948  30390  30759  0
30390  30948  30579  0
30756  30952  30760  0
30578  30954  30757  0
30578  30761  30954  0
30955  30760  30952  0
30760  30955  30763  0
30585  30956  30586  0
30764  30586  30956  0
30956  30585  30957  0
30587  30957  30585  0
30762  30957  30587  0
30762  30588  30958  0
30959  30958  30588  0
30588  30589  30959  0
30960  30959  30589  0
30589  30765  30960  0
30955  30961  30763  0
30763  30961  30583  0
30962  30583  30961  0
30765  30766  30963  0
30583  30962  30772  0
30964  30963  30766  0
30768  30964  30766  0
30768  30769  30965  0
30966  30967  30769  0
30769  30770  30966  0
30773  30966  30770  0
30965  30964  30768  0
30965  30769  30967  0
30966  30773  30968  0
30773  30596  30968  0
30597  30968  30596  0
30775  30771  30772  0
30968  30597  30777  0
30412  30777  30597  0
30969  30776  30775  0
30778  30776  30969  0
30970  30777  30603  0
30971  30778  30972  0
30779  30970  30603  0
30778  30971  30609  0
30609  30971  30611  0
30973  30611  30971  0
30779  30780  30974  0
30975  30974  30780  0
30611  30973  30781  0
30780  30782  30975  0
30976  30975  30782  0
30786  30976  30782  0
30781  30622  30621  0
30781  30977  30622  0
30791  30622  30977  0
30619  30790  30786  0
30790  30978  30786  0
30979  30787  30618  0
30980  30979  30618  0
30618  30784  30980  0
30981  30788  30982  0
30788  30626  30982  0
30792  30982  30626  0
30983  30788  30981  0
30984  30788  30983  0
30788  30984  30793  0
30985  30793  30984  0
30790  30789  30986  0
30794  30986  30789  0
30624  30787  30987  0
30980  30784  30988  0
30785  30988  30784  0
30791  30989  30625  0
30796  30625  30989  0
30793  30985  30623  0
30990  30623  30985  0
30450  30623  30794  0
30623  30990  30794  0
30987  30795  30624  0
30991  30987  30787  0
30988  30785  30992  0
30628  30992  30785  0
30792  30797  30993  0
30795  30987  30994  0
30992  30628  30798  0
30800  30799  30801  0
30800  30801  30995  0
30800  30995  30644  0
30633  30634  30996  0
30634  30636  30997  0
30634  30997  30996  0
30997  30636  30998  0
30802  30999  30640  0
30802  31000  30999  0
30797  30630  31001  0
30630  30641  31002  0
30630  31002  31001  0
31002  30641  31003  0
30795  30994  30803  0
30636  30637  31004  0
30636  31004  30998  0
30637  30638  31004  0
30638  30639  31005  0
30639  31006  31005  0
30640  30999  31007  0
30640  31007  30804  0
30804  31007  31008  0
30804  31008  30654  0
30641  30805  31003  0
30805  30806  31009  0
30655  30992  30798  0
30655  31010  30992  0
30650  30644  31011  0
30650  31011  31012  0
30639  30809  31006  0
30813  30654  31008  0
30813  31008  31013  0
30813  31013  31014  0
30807  30808  31015  0
30650  31012  30811  0
30813  31014  30472  0
30806  30814  31016  0
30806  31016  31009  0
30814  30810  31017  0
30814  31017  31018  0
30814  31018  31019  0
30814  31019  31016  0
30810  30807  31020  0
30810  31020  31017  0
30807  31015  31020  0
31015  31021  31020  0
30657  31022  31010  0
30657  31010  30655  0
30811  31012  31023  0
30812  31024  30653  0
31017  31025  31018  0
31020  31021  31026  0
31022  30657  30663  0
31027  30821  30661  0
31027  30661  30811  0
31027  30811  31023  0
30812  30658  31028  0
30812  31028  31024  0
30815  31029  30816  0
31017  31020  31030  0
31017  31030  31025  0
31020  31026  31030  0
30818  31031  30663  0
30818  31032  31033  0
30818  31033  31031  0
30663  31031  31022  0
30658  30665  31028  0
31032  30818  30819  0
31032  31034  31033  0
30821  30830  30820  0
30821  31035  30830  0
30823  31036  30822  0
30666  30828  30823  0
31029  30670  30667  0
31029  31037  30670  0
30667  30816  31029  0
31032  30819  31038  0
31032  31038  31034  0
30819  30824  31038  0
30830  31035  31039  0
30826  30822  31036  0
30829  30670  31037  0
30824  30672  31040  0
30672  30831  31041  0
30672  31041  31040  0
30831  30675  31042  0
30831  31042  31041  0
30675  30830  31039  0
30675  31039  31042  0
30683  30835  30837  0
30683  30837  30685  0
30833  31043  31044  0
30833  31044  30835  0
30833  30832  31043  0
30835  31044  31045  0
30835  31045  30837  0
30837  31045  31046  0
30834  30836  31043  0
30834  31043  30832  0
30837  31046  31047  0
30837  31047  30687  0
30836  30689  31048  0
30687  31047  30688  0
30689  30690  31048  0
30688  31049  30838  0
30690  31050  31048  0
30690  31051  31050  0
30838  31052  30691  0
30524  30840  30690  0
30690  30840  31053  0
30690  31053  31051  0
31054  30691  31052  0
30839  30691  31054  0
31055  30839  31054  0
30529  30844  30841  0
31056  30841  30844  0
30841  31056  30693  0
31057  30693  31056  0
30693  31057  30842  0
31058  30842  31057  0
30842  31059  30846  0
30842  30846  30695  0
30842  31058  31059  0
31060  30846  31059  0
30840  30694  31053  0
30839  31055  30843  0
31061  30843  31055  0
30844  31062  31056  0
31063  31062  30844  0
30846  31060  30847  0
31064  30847  31060  0
30694  30848  31065  0
30843  31061  31066  0
30845  30850  30844  0
31063  30844  30850  0
30847  31064  30851  0
31067  30704  30856  0
30704  31067  30699  0
30853  30699  31067  0
30853  31068  30700  0
30843  31066  30849  0
30858  30849  31066  0
30854  31069  30850  0
31063  30850  31069  0
31070  31071  31072  0
31073  31070  31072  0
30855  30852  31071  0
31074  30706  30858  0
31069  30854  31075  0
30859  31075  30854  0
31076  31069  31075  0
30861  30855  31071  0
31077  30706  31074  0
31075  30859  31078  0
31073  31079  31070  0
31080  31070  31079  0
31070  31080  31071  0
31081  31071  31080  0
31071  31081  30861  0
30711  30548  31082  0
30882  31082  30548  0
30706  31077  30862  0
30862  31083  30865  0
31084  31075  31078  0
31078  30859  31085  0
30863  31085  30859  0
31079  31086  31080  0
30870  31081  31080  0
31081  30870  30861  0
30873  30861  30870  0
30861  30873  30864  0
30875  30864  30873  0
31087  30867  30865  0
31078  31085  31084  0
30866  31085  30863  0
31080  31088  30870  0
31080  31086  31088  0
30548  30551  30882  0
31089  30868  30713  0
30713  30867  31089  0
31087  31089  30867  0
31090  31085  30866  0
30871  30870  31088  0
31091  30717  31092  0
31093  30876  30716  0
30716  30868  31093  0
30869  31090  30866  0
31088  30880  30871  0
30717  31091  30887  0
30876  31094  30718  0
31095  30718  31094  0
31096  31097  31098  0
31099  31097  31100  0
30878  31090  30869  0
30881  30886  31101  0
31102  31101  30886  0
31103  30887  31091  0
31104  30719  30722  0
30718  31095  30892  0
31105  30892  31095  0
31106  31107  31098  0
31096  31098  31107  0
31098  31097  31106  0
31108  31106  31097  0
31097  31099  31108  0
31109  31108  31099  0
30889  30879  30880  0
30887  31103  30888  0
30888  31103  30724  0
31104  30722  30723  0
31106  31108  31110  0
31110  31108  31109  0
31111  31090  30878  0
31112  31111  30878  0
30725  31112  30878  0
30880  31113  30889  0
30886  30891  30901  0
30886  30901  31102  0
30723  30554  30895  0
30892  31105  30896  0
31105  31114  30896  0
31115  30896  31114  0
31107  31106  31116  0
31117  31116  31106  0
31107  31116  31118  0
31106  31110  31117  0
31119  31111  31112  0
30727  31112  30725  0
30889  31113  30893  0
30896  31115  31120  0
31116  31117  31121  0
31122  31121  31117  0
31117  31110  31122  0
30727  31119  31112  0
30897  30893  31123  0
30893  31113  31124  0
30893  31124  31123  0
30896  31120  30903  0
31116  31121  30910  0
30913  30910  31121  0
31116  30910  30909  0
31116  30909  31118  0
31121  31122  30913  0
31119  30727  30904  0
30897  31123  30899  0
30903  31120  30915  0
30913  30921  30919  0
30913  30919  30908  0
30913  31122  31125  0
30913  31125  30921  0
30921  31125  31126  0
31126  30922  30921  0
31126  31127  30922  0
31127  30914  30734  0
31127  30734  30922  0
30914  31127  30904  0
30905  30906  31128  0
30905  31128  30902  0
30915  31120  31129  0
30915  31129  30916  0
31123  31130  30899  0
30899  31130  30906  0
30906  31130  31128  0
30917  30733  30926  0
30917  30926  31131  0
30923  31132  30736  0
30926  30925  31133  0
30926  31133  31131  0
30929  30928  31134  0
30929  31134  30925  0
30737  30931  31135  0
30736  31132  30934  0
30739  30740  31136  0
30739  31136  30933  0
30740  30935  31136  0
30738  30934  31137  0
30738  31137  30742  0
30935  31138  31136  0
30742  31137  31139  0
30742  31139  30747  0
30940  31140  30936  0
30938  30937  31141  0
30938  31141  30941  0
30939  30942  31142  0
30939  31142  30935  0
30935  31142  31138  0
30943  31143  30748  0
30749  30748  30940  0
30944  30941  31141  0
30944  31141  31144  0
30944  31144  31145  0
30944  31145  30752  0
30942  31146  31147  0
30942  31147  31142  0
31148  30946  30752  0
31148  30752  31145  0
31148  31145  31149  0
30948  31150  30947  0
30949  31151  30950  0
30950  31151  30951  0
30945  30951  31152  0
30945  31152  30942  0
30946  31148  31153  0
30946  31153  30952  0
30757  31154  30953  0
30757  30954  31155  0
30757  31155  31154  0
30758  31156  30759  0
30759  31156  31157  0
30759  31157  30948  0
30948  31157  31150  0
31151  31158  30951  0
30951  31158  31152  0
30942  31152  31159  0
30942  31159  31146  0
30954  30761  30764  0
30954  30764  31160  0
30954  31160  31155  0
31158  31161  31152  0
31152  31161  31159  0
30764  30956  31160  0
30956  31162  31160  0
30956  30957  31163  0
30956  31163  31162  0
30957  30762  31164  0
30957  31164  31163  0
30762  30958  31165  0
30762  31165  31164  0
30959  30960  31166  0
30960  30765  30963  0
30960  30963  31167  0
30961  30955  31168  0
30961  31168  31169  0
30961  31169  30962  0
30963  31170  31167  0
30962  31169  31171  0
31170  31172  31167  0
30963  30964  31170  0
30962  31173  30772  0
30962  31171  31173  0
31170  30964  31174  0
30964  30965  31175  0
30965  30967  31175  0
30967  31176  31175  0
30967  30966  31177  0
30966  30968  31177  0
30772  31173  30775  0
31173  30969  30775  0
31170  31174  31178  0
30964  31175  31174  0
31175  31179  31180  0
31175  31176  31179  0
30967  31177  31176  0
31177  30968  31181  0
30968  30777  31181  0
31170  31178  31182  0
31170  31182  31172  0
31183  31172  31182  0
31174  31184  31178  0
31174  31175  31180  0
31174  31180  31184  0
31177  31181  31185  0
30972  30778  30969  0
31179  31184  31180  0
31181  30777  30970  0
31181  30970  31185  0
31186  31185  30970  0
31187  31182  31178  0
31178  31184  31187  0
31186  30970  30779  0
31188  31186  30779  0
31189  31188  30974  0
30974  31188  30779  0
30971  31190  30973  0
31191  30973  31190  0
30974  30975  31189  0
30781  30973  31191  0
30977  30781  31191  0
31189  30975  30976  0
31192  31189  30976  0
31193  31194  30981  0
31195  30981  31194  0
30981  31195  30983  0
30983  31195  30984  0
31196  30984  31195  0
31197  30984  31196  0
31192  30978  31198  0
30978  30976  30786  0
30978  31192  30976  0
30982  31199  31193  0
31193  30981  30982  0
31198  30986  31200  0
30986  30978  30790  0
30986  31198  30978  0
30989  30791  31201  0
31199  30982  30792  0
31199  30792  31202  0
31203  31202  30792  0
30984  31197  30985  0
30990  30985  31197  0
31200  30990  31197  0
30990  30986  30794  0
30990  31200  30986  0
30979  30980  31204  0
30989  31205  30796  0
31206  30796  31205  0
30993  31203  30792  0
30787  30979  30991  0
31204  30991  30979  0
31204  30980  31207  0
30988  31207  30980  0
30995  30801  31208  0
31209  31208  30801  0
31210  31209  30801  0
30633  31210  30801  0
30996  31210  30633  0
30802  30796  31206  0
31000  30802  31206  0
31001  30993  30797  0
30994  30987  31211  0
30991  31211  30987  0
30992  31207  30988  0
30996  30997  31212  0
31213  31212  30997  0
30997  30998  31213  0
31214  31007  30999  0
31001  31002  31215  0
31002  31003  31215  0
31216  31215  31003  0
31217  31003  30805  0
30803  30994  31211  0
31211  30991  31218  0
30991  31204  31218  0
31204  31207  31219  0
30644  30995  31011  0
31220  31011  30995  0
31221  30998  31004  0
31004  30638  31221  0
31222  31221  30638  0
30638  31005  31222  0
31223  31222  31005  0
31007  31214  31008  0
30805  31009  31217  0
31021  30808  30803  0
30803  31211  31021  0
31218  31021  31211  0
31219  31207  31224  0
31010  31224  31207  0
31207  30992  31010  0
31005  31006  31223  0
31225  31217  31009  0
31009  31016  31225  0
31226  31225  31016  0
31021  31015  30808  0
31021  31218  31227  0
31228  31227  31218  0
31229  31219  31224  0
31224  31010  31022  0
31230  30809  30646  0
30646  30653  31230  0
31014  31231  30472  0
31016  31019  31226  0
31227  31228  31232  0
31233  31232  31228  0
31224  31022  31229  0
30653  31024  31234  0
30653  31234  31230  0
30472  31231  31235  0
30472  31235  30475  0
31236  31019  31237  0
31236  31238  31226  0
31236  31226  31019  0
31019  31018  31025  0
31019  31025  31237  0
31021  31227  31239  0
31021  31239  31026  0
31227  31232  31239  0
31233  31228  31229  0
31233  31229  31031  0
31229  31022  31031  0
30475  31235  30659  0
30659  31240  30815  0
30815  31240  31029  0
31237  31025  31241  0
31025  31030  31242  0
31025  31242  31241  0
31026  31239  31030  0
31239  31232  31243  0
31232  31233  31243  0
31233  31031  31033  0
31233  31033  31243  0
31035  30821  31027  0
31035  31027  31023  0
31035  31023  31244  0
31028  31245  31024  0
31029  31240  31246  0
31030  31239  31247  0
31030  31247  31242  0
31239  31243  31247  0
31243  31034  31247  0
31243  31033  31034  0
31244  31039  31035  0
31244  31248  31039  0
31037  31029  31246  0
31241  31242  31249  0
31242  31247  31250  0
31242  31250  31249  0
31247  31034  31251  0
31247  31251  31250  0
31034  31252  31251  0
31034  31038  31252  0
31038  31253  31252  0
31038  30824  31254  0
31038  31254  31253  0
31039  31248  31255  0
31039  31255  31042  0
30826  31036  31256  0
30826  31256  31257  0
31036  30823  31256  0
30823  30828  31258  0
30823  31258  31256  0
30828  30829  31259  0
30828  31259  31258  0
30829  31037  31259  0
30824  31040  31254  0
31041  31042  31255  0
30836  31260  31043  0
31046  31045  31261  0
31046  31261  31047  0
30836  31048  31260  0
30688  31047  31262  0
30688  31262  31049  0
30838  31049  31052  0
31051  31053  31050  0
31057  31263  31058  0
31057  31056  31264  0
31057  31264  31263  0
31059  31058  31265  0
31059  31265  31060  0
31053  30694  31065  0
31062  31264  31056  0
31062  31266  31264  0
31267  31064  31060  0
31267  31060  31265  0
31267  31265  31268  0
31267  31268  31064  0
31269  31270  31067  0
31269  31067  30856  0
31270  31271  31067  0
31065  30848  31272  0
31063  31273  31266  0
31063  31266  31062  0
31072  31064  31268  0
31072  31268  31274  0
31072  31274  31073  0
31064  31072  31071  0
31064  31071  30852  0
31064  30852  30851  0
30856  30857  31275  0
30856  31275  31269  0
31067  31271  31276  0
31067  31276  30853  0
30853  31276  31068  0
30700  31068  31272  0
30700  31272  30848  0
31063  31277  31273  0
31063  31069  31277  0
31274  31278  31073  0
31274  31266  31278  0
30857  30711  31275  0
31069  31279  31277  0
31069  31076  31279  0
31278  31280  31079  0
31278  31079  31073  0
31278  31281  31280  0
30711  31082  31275  0
31280  31282  31086  0
31280  31086  31079  0
31280  31281  31282  0
30862  31283  31083  0
30862  31077  31283  0
31075  31084  31284  0
31075  31284  31076  0
31285  31286  31287  0
31285  31287  30712  0
30882  31288  31082  0
31083  31283  31289  0
31083  31289  30865  0
30865  31289  31290  0
30865  31290  31087  0
31284  31084  31291  0
31284  31291  31292  0
31084  31085  31291  0
31282  31293  31086  0
31088  31086  31293  0
30712  31287  31092  0
31294  31288  30882  0
31089  31087  31295  0
31291  31085  31296  0
31090  31296  31085  0
31092  31287  31297  0
31092  31297  31091  0
30882  30719  31294  0
30876  31093  31094  0
31298  31094  31093  0
31093  30868  31299  0
31093  31299  31298  0
31300  31298  31299  0
30868  31089  31299  0
31089  31295  31299  0
31301  31100  31292  0
31292  31291  31301  0
31296  31301  31291  0
31296  31090  31302  0
31088  31293  30880  0
31303  30880  31293  0
31304  31305  31101  0
31306  31091  31297  0
31104  31294  30719  0
31094  31298  31095  0
31307  31095  31298  0
31097  31308  31100  0
31097  31096  31308  0
31309  31308  31096  0
31100  31301  31099  0
31109  31099  31301  0
31301  31296  31109  0
31310  31109  31296  0
31296  31302  31310  0
31101  31102  31304  0
31091  31306  31103  0
31095  31307  31105  0
31114  31105  31307  0
31113  30880  31303  0
31103  31311  30724  0
31312  30724  31311  0
30724  31312  30895  0
31313  30895  31312  0
30723  30895  31314  0
30895  31313  31314  0
31104  30723  31314  0
31107  31118  31096  0
31315  31309  31096  0
31109  31310  31110  0
31310  31302  31316  0
31302  31090  31316  0
31111  31316  31090  0
31317  31113  31303  0
31102  30901  31318  0
31319  31115  31114  0
31114  31320  31319  0
31321  31122  31110  0
31110  31310  31321  0
31316  31321  31310  0
31316  31111  31322  0
31119  31322  31111  0
30901  31323  31318  0
31324  31115  31319  0
31325  31321  31316  0
31316  31322  31325  0
30904  31322  31119  0
31326  31323  30901  0
31115  31324  31120  0
31327  31120  31324  0
31118  30909  31328  0
31329  31328  30909  0
31125  31122  31321  0
31126  31125  31321  0
31321  31325  31126  0
31127  31126  31325  0
31325  31322  31127  0
30904  31127  31322  0
30901  30902  31326  0
31330  31326  30902  0
31331  31326  31330  0
31120  31327  31129  0
31332  31129  31327  0
31333  31332  31327  0
30909  30911  31329  0
31334  31123  31124  0
30902  31128  31330  0
31331  31330  31128  0
31129  31332  31335  0
31129  31335  30916  0
31336  30916  31335  0
30911  30917  31329  0
31131  31329  30917  0
31337  31123  31334  0
31123  31337  31130  0
31338  31331  31128  0
31336  30923  30916  0
31130  31339  31128  0
31338  31128  31339  0
30923  31336  31340  0
30923  31340  31132  0
31341  31133  30925  0
30925  31134  31341  0
31134  30928  31342  0
30930  31342  30928  0
30930  30737  31135  0
31135  30931  31343  0
31344  31343  30931  0
30931  30932  31344  0
30933  31344  30932  0
31345  31132  31346  0
31347  30933  31136  0
30934  31132  31345  0
31348  31347  31136  0
31345  31137  30934  0
31136  31138  31348  0
30940  31349  31140  0
31140  31349  31144  0
31140  31144  30936  0
30936  31144  31141  0
30936  31141  30937  0
31139  31350  30747  0
31143  30747  31350  0
30747  31143  30943  0
31143  31351  30748  0
30748  31351  30940  0
30940  31351  31349  0
31352  31349  31351  0
31349  31149  31145  0
31349  31145  31144  0
31349  31352  31149  0
31353  31149  31352  0
31138  31142  31354  0
31138  31354  31355  0
31138  31355  31348  0
31149  31353  31148  0
31356  31148  31353  0
30947  31357  30949  0
30949  31357  31151  0
31142  31147  31354  0
31148  31356  31153  0
31358  31153  31356  0
31359  30953  31154  0
31154  31155  31360  0
30953  31359  30758  0
31150  31357  30947  0
31357  31361  31151  0
31151  31361  31158  0
31147  31362  31354  0
31357  31363  31361  0
31361  31364  31158  0
31361  31365  31364  0
31158  31364  31161  0
31161  31364  31366  0
31161  31366  31159  0
31146  31362  31147  0
31146  31159  31367  0
31153  31368  31168  0
31153  31168  30952  0
31153  31358  31369  0
31153  31369  31368  0
30952  31168  30955  0
31160  31370  31155  0
31160  31162  31371  0
31160  31371  31370  0
31163  31372  31162  0
31163  31164  31372  0
31165  30958  30959  0
31165  30959  31373  0
31364  31365  31374  0
31364  31374  31375  0
31364  31375  31366  0
31366  31376  31159  0
31159  31376  31367  0
31373  30959  31166  0
31166  30960  31167  0
31166  31167  31377  0
31166  31377  31378  0
31168  31368  31169  0
31377  31379  31378  0
31169  31380  31171  0
31379  31377  31172  0
31379  31172  31381  0
31377  31167  31172  0
31171  31380  31382  0
31171  31382  31173  0
31381  31172  31183  0
31173  31382  30969  0
31176  31177  31185  0
30969  31382  31383  0
31176  31384  31179  0
31176  31185  31384  0
30969  31383  30972  0
31385  31386  31387  0
31385  31387  31388  0
31183  31182  31385  0
31184  31179  31389  0
31184  31389  31390  0
31179  31391  31389  0
31179  31384  31391  0
31384  31185  31186  0
30972  31392  30971  0
30971  31392  31393  0
31385  31394  31386  0
31385  31182  31394  0
31184  31390  31187  0
31389  31391  31395  0
31391  31384  31188  0
31391  31188  31395  0
31384  31186  31188  0
30971  31393  31190  0
31386  31396  31387  0
31386  31394  31396  0
31182  31187  31397  0
31182  31397  31394  0
31187  31390  31397  0
31390  31389  31398  0
31389  31395  31398  0
31395  31188  31189  0
31399  31191  31190  0
31396  31195  31194  0
31396  31194  31400  0
31396  31196  31195  0
31396  31394  31196  0
31394  31397  31401  0
31397  31390  31401  0
31390  31398  31401  0
31398  31395  31189  0
31402  31194  31193  0
31402  31193  31199  0
31402  31403  31194  0
31402  31199  31404  0
31402  31404  31403  0
31196  31394  31405  0
31394  31401  31405  0
31401  31398  31198  0
31398  31192  31198  0
31398  31189  31192  0
31406  30791  30977  0
31406  31407  30791  0
31199  31202  31404  0
31196  31405  31197  0
31405  31200  31197  0
31405  31401  31198  0
31405  31198  31200  0
30791  31407  31201  0
31205  30989  31201  0
31202  31203  31408  0
31205  31409  31206  0
30995  31208  31410  0
30995  31410  31220  0
31206  31411  31000  0
31206  31409  31411  0
31411  31412  31000  0
31413  31203  30993  0
30993  31001  31413  0
31414  31413  31001  0
31001  31215  31414  0
31415  31414  31215  0
31220  31416  31011  0
31212  31213  31417  0
31418  31213  30998  0
31000  31412  30999  0
30999  31419  31214  0
31215  31216  31415  0
31217  31216  31003  0
31218  31204  31219  0
31012  31011  31416  0
30998  31221  31418  0
31013  31420  31421  0
31420  31013  31214  0
31008  31214  31013  0
31419  31420  31214  0
31217  31225  31422  0
31423  31422  31225  0
31219  31228  31218  0
31416  31424  31012  0
31221  31222  31425  0
31223  31425  31222  0
31223  31006  31426  0
30809  31426  31006  0
31013  31421  31427  0
31013  31427  31014  0
31225  31226  31423  0
31229  31228  31219  0
31428  31012  31424  0
31429  31426  30809  0
30809  31230  31429  0
31014  31427  31231  0
31430  31423  31226  0
31012  31428  31023  0
31238  31430  31226  0
31431  31244  31023  0
31428  31431  31023  0
31024  31245  31234  0
31235  31432  30659  0
30659  31432  31240  0
31433  31240  31432  0
31434  31240  31433  0
31237  31238  31236  0
31248  31244  31431  0
31240  31434  31246  0
31238  31237  31435  0
31238  31435  31436  0
31241  31435  31237  0
31259  31037  31437  0
31246  31437  31037  0
31435  31241  31436  0
31438  31436  31241  0
31241  31249  31438  0
31439  31438  31249  0
31440  31439  31249  0
31441  31249  31250  0
31250  31251  31441  0
31257  31256  31442  0
31443  31442  31256  0
31257  31442  31444  0
31256  31258  31443  0
31259  31443  31258  0
31445  31249  31441  0
31446  31254  31040  0
31040  31041  31446  0
31447  31446  31041  0
31041  31255  31447  0
31448  31044  31043  0
31044  31448  31045  0
31043  31449  31448  0
31261  31045  31448  0
31043  31260  31449  0
31261  31448  31449  0
31450  31449  31260  0
31451  31047  31261  0
31047  31451  31262  0
31452  31049  31262  0
31260  31048  31450  0
31453  31049  31452  0
31048  31050  31450  0
31454  31450  31050  0
31049  31453  31052  0
31455  31052  31453  0
31052  31455  31456  0
31050  31457  31454  0
31050  31053  31457  0
31052  31456  31054  0
31263  31264  31265  0
31263  31265  31058  0
31053  31065  31457  0
31054  31458  31055  0
31264  31266  31268  0
31264  31268  31265  0
31269  31459  31270  0
31460  31270  31459  0
31269  31461  31459  0
31270  31460  31271  0
31462  31271  31460  0
31061  31055  31458  0
31266  31274  31268  0
31269  31275  31463  0
31269  31463  31461  0
31464  31068  31276  0
31465  31068  31464  0
31068  31465  31272  0
31466  31066  31061  0
31277  31467  31273  0
31273  31467  31278  0
31273  31278  31266  0
31066  31466  30858  0
31468  30858  31466  0
31469  31467  31277  0
31467  31469  31281  0
31467  31281  31278  0
31275  31082  31470  0
31275  31470  31463  0
30858  31468  31074  0
31471  31074  31468  0
31472  31281  31469  0
31281  31472  31282  0
31082  31288  31470  0
31074  31471  31077  0
31076  31284  31279  0
31473  31282  31472  0
31286  31474  31287  0
31475  31287  31474  0
31077  31471  31283  0
31279  31284  31476  0
31284  31292  31476  0
31477  31287  31475  0
31478  31087  31290  0
31473  31479  31293  0
31473  31293  31282  0
31480  31479  31473  0
31287  31477  31297  0
31297  31477  31481  0
31295  31087  31478  0
31100  31482  31292  0
31100  31308  31482  0
31479  31483  31303  0
31479  31303  31293  0
31479  31480  31484  0
31479  31484  31483  0
31305  31304  31485  0
31297  31481  31306  0
31298  31300  31486  0
31298  31486  31307  0
31308  31309  31487  0
31308  31487  31482  0
31102  31488  31304  0
31306  31311  31103  0
31307  31489  31114  0
31307  31486  31489  0
31486  31490  31489  0
31309  31315  31487  0
31483  31491  31303  0
31483  31484  31492  0
31483  31492  31491  0
31102  31318  31488  0
31311  31493  31312  0
31312  31493  31313  0
31489  31320  31114  0
31489  31490  31494  0
31489  31494  31320  0
31096  31495  31315  0
31491  31317  31303  0
31320  31496  31324  0
31320  31324  31319  0
31320  31494  31496  0
31496  31494  31497  0
31496  31497  31498  0
31118  31328  31096  0
31096  31328  31495  0
31491  31499  31317  0
31324  31496  31333  0
31324  31333  31327  0
31496  31498  31500  0
31496  31500  31333  0
31328  31501  31502  0
31328  31503  31495  0
31317  31504  31124  0
31317  31124  31113  0
31317  31499  31504  0
31323  31326  31505  0
31328  31329  31501  0
31502  31503  31328  0
31333  31506  31332  0
31124  31504  31334  0
31331  31507  31326  0
31335  31332  31506  0
31335  31506  31508  0
31335  31508  31340  0
31335  31340  31336  0
31331  31509  31507  0
31340  31508  31346  0
31131  31510  31329  0
31337  31511  31130  0
31130  31511  31339  0
31338  31509  31331  0
31132  31340  31346  0
31131  31133  31510  0
31512  31510  31133  0
31133  31341  31512  0
31513  31341  31134  0
31134  31342  31513  0
31514  31342  30930  0
30930  31135  31514  0
31344  30933  31515  0
31516  31515  30933  0
31347  31516  30933  0
31345  31517  31137  0
31518  31347  31348  0
31137  31517  31139  0
31350  31519  31143  0
31143  31519  31520  0
31143  31520  31351  0
31351  31520  31521  0
31351  31521  31522  0
31351  31522  31352  0
31352  31522  31353  0
31355  31354  31523  0
31524  31523  31354  0
31154  31360  31525  0
31154  31525  31359  0
30758  31359  31526  0
30758  31526  31156  0
31157  31156  31527  0
31157  31527  31150  0
31150  31527  31357  0
31354  31362  31524  0
31528  31524  31362  0
31357  31529  31363  0
31365  31361  31363  0
31146  31367  31362  0
31530  31362  31367  0
31362  31530  31528  0
31531  31528  31530  0
31532  31358  31356  0
31372  31371  31162  0
31372  31164  31373  0
31164  31165  31373  0
31374  31365  31533  0
31366  31375  31376  0
31531  31530  31367  0
31358  31532  31369  0
31532  31368  31369  0
31166  31534  31373  0
31374  31535  31375  0
31536  31368  31532  0
31537  31378  31379  0
31368  31380  31169  0
31368  31536  31380  0
31379  31381  31537  0
31381  31538  31537  0
31539  31537  31538  0
31380  31536  31382  0
31540  31382  31536  0
31183  31538  31381  0
31382  31540  31383  0
31541  31383  31540  0
31539  31538  31388  0
31538  31183  31388  0
31385  31388  31183  0
31383  31541  30972  0
31392  30972  31541  0
31388  31387  31542  0
31387  31543  31542  0
31544  31399  31393  0
31190  31393  31399  0
31545  31399  31544  0
31400  31546  31547  0
31547  31543  31400  0
31542  31543  31547  0
31543  31387  31400  0
31396  31400  31387  0
31399  31545  31191  0
31194  31403  31546  0
31403  31548  31546  0
31404  31548  31403  0
31546  31400  31194  0
30977  31191  31406  0
31404  31202  31549  0
31550  31549  31202  0
31407  31551  31201  0
31202  31408  31550  0
31552  31550  31408  0
31550  31552  31553  0
31554  31550  31553  0
31553  31555  31554  0
31205  31201  31551  0
31551  31556  31205  0
31409  31205  31556  0
31552  31557  31553  0
31558  31553  31557  0
31553  31558  31555  0
31559  31555  31558  0
31560  31561  31410  0
31220  31410  31561  0
31410  31208  31560  0
31562  31560  31208  0
31208  31209  31562  0
31563  31562  31209  0
31209  31210  31563  0
31564  31563  31210  0
31565  31564  31210  0
31210  30996  31565  0
31212  31565  30996  0
31565  31212  31566  0
31567  31566  31212  0
31568  31409  31556  0
31408  31203  31552  0
