#!ascii file
27156  27374  27371  0
27153  27152  27375  0
27153  27375  27376  0
27153  27376  27151  0
26898  27159  27155  0
27150  27377  27161  0
27150  27161  26899  0
27150  27373  27378  0
27150  27378  27377  0
27158  27157  27376  0
27158  27376  27374  0
27157  27151  27376  0
27161  27379  27163  0
27161  27377  27379  0
26661  27162  27160  0
27163  27380  27164  0
27163  27379  27381  0
27163  27381  27380  0
27162  27166  27160  0
27160  27166  27382  0
27164  27380  27383  0
27164  27383  27384  0
27166  27169  27385  0
27166  27385  27382  0
27169  27168  27385  0
27386  27179  27387  0
27386  27387  27388  0
27386  27388  27389  0
27164  27384  27165  0
27389  27390  27174  0
27389  27174  27386  0
27389  27391  27390  0
27386  27174  27173  0
27386  27173  27179  0
27170  27165  27384  0
27390  27175  27174  0
27171  27181  27392  0
27171  27392  27393  0
27175  27390  27394  0
27181  27395  27392  0
27181  27184  27396  0
27181  27396  27395  0
27176  27397  27187  0
27176  27175  27397  0
27184  27188  27398  0
27184  27398  27396  0
27396  27398  27399  0
27396  27399  27395  0
27397  27190  27189  0
27397  27189  27187  0
27397  27400  27190  0
27188  26915  27191  0
27188  27191  27398  0
27398  27401  27399  0
27190  27400  27402  0
27190  27402  26917  0
27192  26917  27402  0
27192  27402  27403  0
27192  27403  26920  0
27404  27197  27405  0
27404  27405  27406  0
27405  27197  26927  0
27405  26927  27407  0
27405  27407  27406  0
27407  26927  27408  0
27407  27408  27409  0
27408  26927  27199  0
27408  27410  27409  0
27408  27199  27200  0
27408  27200  27410  0
27200  27411  27412  0
27200  27412  27410  0
27411  27200  26933  0
27411  26933  27202  0
27411  27202  27413  0
27193  27195  27414  0
26920  27403  27195  0
27202  27201  27415  0
27415  27201  26935  0
27415  26935  27208  0
26937  27204  27416  0
27204  27205  27417  0
27204  27418  27416  0
27205  27194  27419  0
27205  27419  27417  0
27194  27193  27419  0
27196  27211  26941  0
27196  26941  26923  0
27208  27203  27420  0
27203  26937  27421  0
27203  27421  27420  0
26937  27416  27422  0
26937  27422  27421  0
27416  27418  27422  0
27206  27210  27211  0
27206  27211  27196  0
27213  27215  26948  0
27216  26948  27215  0
27214  27423  27215  0
27424  27215  27423  0
27214  27217  27423  0
27425  27423  27217  0
27215  27424  27216  0
27426  27216  27424  0
27216  27426  27218  0
27427  27218  27426  0
27425  27217  27220  0
27218  27427  27221  0
27428  27221  27427  0
27427  27429  27428  0
27430  27428  27429  0
27221  27428  27223  0
27431  27223  27428  0
27428  27430  27431  0
27432  27431  27430  0
27224  27433  27225  0
27223  27431  27227  0
27229  27227  27431  0
27434  27229  27431  0
27435  27431  27432  0
27431  27435  27434  0
27436  27434  27435  0
27437  27228  26962  0
27228  27438  27224  0
27433  27224  27438  0
27229  27434  27230  0
27235  27230  27434  0
27434  27436  27235  0
27439  27235  27436  0
27440  27231  27232  0
27231  27440  27233  0
27437  26962  27233  0
27235  26969  26968  0
27235  27439  26969  0
27245  26969  27439  0
27441  27232  27236  0
27232  27441  27440  0
27442  27443  27444  0
27444  27240  27445  0
27239  27445  27240  0
27444  27445  27442  0
27446  27442  27445  0
27445  27239  27447  0
27241  27447  27239  0
27445  27447  27446  0
27448  27446  27447  0
27447  27241  27448  0
27449  27448  27241  0
27241  27242  27450  0
27243  27450  27242  0
27241  27450  27449  0
27451  27449  27450  0
27450  27243  27451  0
27244  27451  27243  0
27451  27244  27452  0
27245  27452  27244  0
27236  27238  27441  0
27453  27441  27238  0
27444  27248  27240  0
27247  27454  27238  0
27453  27238  27454  0
27246  27455  26974  0
26974  27455  27247  0
27454  27247  27455  0
26733  27252  27251  0
27456  27251  27252  0
27252  27253  27456  0
27457  27253  27248  0
27458  27246  27249  0
27251  27456  27256  0
27459  27256  27456  0
27456  27253  27460  0
27457  27460  27253  0
27261  27254  27258  0
27255  27267  27249  0
27461  27249  27267  0
27249  27462  27458  0
27249  27461  27462  0
27463  27263  27250  0
27250  27256  27463  0
27464  27463  27256  0
27459  27464  27256  0
27465  27261  27258  0
27466  27258  26994  0
27261  27465  27264  0
27467  27264  27465  0
27264  27467  27265  0
27461  27267  27266  0
27468  27268  27263  0
26994  27269  27466  0
27270  27271  27469  0
27468  27271  27268  0
27470  27269  26995  0
26995  26996  27470  0
27471  27470  26996  0
26996  26751  27471  0
27472  27471  26751  0
26751  27272  27472  0
27272  26999  27472  0
27273  27472  26999  0
27473  27273  27002  0
27002  27274  27473  0
27474  27473  27274  0
27000  27475  27005  0
27276  27005  27475  0
27274  27275  27474  0
27476  27474  27275  0
27275  27277  27476  0
27477  27476  27277  0
27478  27278  27276  0
27479  27007  27278  0
27277  27007  27477  0
27479  27477  27007  0
27279  27480  27011  0
27481  27279  27280  0
27011  27480  27482  0
27011  27482  27281  0
27281  27483  27013  0
27280  27282  27481  0
27484  27481  27282  0
27013  27483  27014  0
27283  27485  27017  0
27486  27283  27018  0
27017  27485  27284  0
27284  27487  27285  0
27282  27286  27484  0
27488  27484  27286  0
27288  27486  27018  0
27286  27290  27489  0
27286  27489  27488  0
27025  27285  27026  0
27297  27289  26546  0
27297  27490  27289  0
27029  27491  27291  0
27029  26792  27491  0
27022  27292  27492  0
27022  27492  27290  0
27024  27493  27494  0
27024  27494  27023  0
27294  27028  27026  0
27295  27495  26792  0
27030  27291  27296  0
27292  27033  27496  0
27023  27494  27293  0
27297  27027  27497  0
27034  27294  27498  0
27295  27298  27302  0
27295  27302  27495  0
27296  27499  27039  0
27033  27299  27500  0
27033  27500  27496  0
27293  27494  27300  0
27300  27497  27027  0
27301  27034  27498  0
27301  27498  27501  0
27302  27042  27502  0
27036  27301  27303  0
27042  27304  27502  0
27305  27039  27503  0
27305  27503  27504  0
27299  27047  27500  0
27303  27505  27044  0
27307  27304  27041  0
27307  27506  27304  0
27306  27305  27504  0
27306  27504  27507  0
27306  27507  27052  0
27308  27309  27508  0
27308  27508  27509  0
27309  27311  27510  0
27309  27510  27508  0
26802  27044  27511  0
26802  27511  27051  0
27311  27050  27512  0
27311  27512  27510  0
27050  27312  27512  0
27313  26808  27055  0
27313  27513  27312  0
27316  27310  26573  0
27316  27514  27310  0
27055  27315  27313  0
27051  27511  27515  0
27516  26811  26810  0
27516  26810  27314  0
27516  27517  26811  0
27516  27518  27517  0
27517  27519  26811  0
27517  27520  27519  0
27056  27521  27315  0
27521  27056  27057  0
27521  27057  27522  0
27519  27058  26811  0
27519  27523  27059  0
27519  27059  27058  0
27524  27059  27523  0
27522  27057  27317  0
27522  27317  27525  0
27524  26812  27059  0
27317  26822  27526  0
27317  27526  27525  0
26812  27318  26579  0
26812  27527  27318  0
27528  27318  27527  0
26822  27064  27526  0
27319  27529  27320  0
27530  27320  27531  0
27320  27530  27321  0
27532  27321  27530  0
27321  27532  27063  0
27533  27063  27532  0
27063  27533  27322  0
27322  27534  27323  0
27535  27068  27323  0
27069  27536  27324  0
27537  27324  27536  0
27069  27070  27538  0
27069  27538  27536  0
27324  27537  27325  0
27325  27539  27326  0
27325  27326  27071  0
27325  27537  27539  0
27540  27064  26830  0
27067  27541  27329  0
27067  27073  27541  0
27073  27330  27541  0
27535  27330  27068  0
27334  27538  27070  0
27542  27326  27539  0
27326  27542  27072  0
27543  27072  27542  0
27331  27072  27543  0
27327  27328  27333  0
27544  27328  27329  0
27545  27544  27329  0
27546  27334  27335  0
27332  27333  27338  0
27544  27333  27328  0
27335  27336  27546  0
27338  27333  27547  0
27548  27547  27333  0
27549  27078  27338  0
27338  27547  27549  0
27550  27340  27080  0
27551  27340  27550  0
27340  27551  27339  0
27552  27339  27551  0
27078  27549  27342  0
27553  27341  26029  0
27342  27554  27081  0
27081  27554  27082  0
27345  27555  27083  0
27556  27083  27555  0
27083  27556  26841  0
27557  26841  27556  0
26841  27557  27084  0
27558  27084  27557  0
27084  27558  27085  0
27559  27085  27558  0
27085  27559  27086  0
27560  27086  27559  0
27086  27560  27343  0
27561  27343  27560  0
26029  26624  27562  0
27563  27082  27564  0
27082  27563  27088  0
27088  27565  27089  0
27089  27566  27090  0
27344  27090  27566  0
27555  27345  27344  0
27343  27561  27346  0
27350  27349  27567  0
27567  27349  27347  0
27567  27347  27568  0
27561  27568  27347  0
27347  27346  27561  0
27569  26848  27092  0
27092  27093  27569  0
27570  27569  27093  0
27093  27348  27570  0
27354  27351  27571  0
27572  27571  27351  0
27351  27350  27572  0
26848  27573  27094  0
27352  27348  27095  0
27102  27353  27574  0
27575  27574  27353  0
27354  27575  27353  0
27356  27101  27576  0
27100  27102  27577  0
27574  27577  27102  0
27094  27578  27109  0
27579  26637  27362  0
27118  27109  27580  0
27118  27580  27357  0
26637  26645  27362  0
27357  27581  27360  0
27360  27581  27582  0
27362  27142  27583  0
27360  27582  27363  0
27369  27361  27367  0
27361  27369  27368  0
27363  27584  27147  0
27366  27372  27367  0
27585  27367  27372  0
27367  27585  27369  0
27586  27369  27585  0
27152  27369  27586  0
27373  27147  27587  0
27147  27584  27587  0
27371  27374  27372  0
27588  27372  27374  0
27372  27588  27585  0
27375  27585  27588  0
27585  27375  27586  0
27152  27586  27375  0
27589  27370  27149  0
27149  27155  27589  0
27590  27589  27155  0
27378  27373  27591  0
27373  27587  27592  0
27373  27592  27591  0
27376  27588  27374  0
27588  27376  27375  0
27155  27159  27590  0
27378  27591  27593  0
27378  27593  27377  0
27377  27593  27594  0
27377  27594  27379  0
27382  27159  27160  0
27379  27594  27595  0
27379  27595  27381  0
27381  27595  27596  0
27381  27596  27383  0
27381  27383  27380  0
27382  27385  27597  0
27598  27391  27599  0
27598  27600  27601  0
27598  27601  27391  0
27599  27388  27602  0
27599  27602  27603  0
27599  27603  27598  0
27602  27388  27387  0
27602  27387  27604  0
27604  27387  27384  0
27604  27384  27383  0
27599  27391  27389  0
27599  27389  27388  0
27387  27179  27170  0
27387  27170  27384  0
27168  27605  27385  0
27168  27171  27605  0
27390  27391  27606  0
27390  27606  27394  0
27393  27392  27607  0
27394  27606  27608  0
27392  27609  27607  0
27394  27610  27175  0
27392  27395  27611  0
27392  27611  27609  0
27610  27400  27397  0
27610  27397  27175  0
27395  27399  27611  0
27400  27610  27612  0
27400  27612  27613  0
27614  27615  27616  0
27616  27617  27614  0
27613  27402  27400  0
27618  27406  27407  0
27618  27407  27409  0
27618  27409  27619  0
27409  27620  27621  0
27409  27621  27619  0
27620  27409  27410  0
27620  27410  27615  0
27620  27615  27622  0
27620  27622  27621  0
27615  27614  27622  0
27615  27410  27412  0
27615  27412  27616  0
27616  27412  27411  0
27616  27411  27413  0
27616  27413  27623  0
27624  27195  27403  0
27624  27403  27402  0
27624  27402  27613  0
27624  27613  27625  0
27414  27195  27626  0
27195  27624  27626  0
27415  27208  27420  0
27415  27420  27627  0
27420  27628  27627  0
27420  27421  27629  0
27420  27629  27628  0
27419  27193  27414  0
27419  27414  27630  0
27419  27630  27631  0
27419  27631  27417  0
27421  27422  27632  0
27421  27632  27629  0
27422  27418  27633  0
27422  27633  27632  0
27418  27204  27634  0
27418  27634  27633  0
27204  27417  27631  0
27204  27631  27634  0
27423  27425  27635  0
27423  27635  27424  0
27424  27636  27426  0
27637  27426  27636  0
27424  27635  27638  0
27424  27638  27636  0
27426  27639  27429  0
27426  27429  27427  0
27426  27637  27639  0
27640  27429  27639  0
27425  27641  27635  0
27638  27635  27641  0
27425  27220  27641  0
27429  27640  27430  0
27642  27430  27640  0
27430  27435  27432  0
27430  27642  27435  0
27643  27435  27642  0
27435  27643  27436  0
27644  27436  27643  0
27228  27437  27438  0
27645  27433  27438  0
27436  27644  27439  0
27440  27646  27233  0
27233  27646  27437  0
27647  27648  27443  0
27649  27443  27648  0
27443  27442  27650  0
27443  27650  27647  0
27442  27446  27448  0
27442  27448  27651  0
27442  27651  27650  0
27448  27449  27651  0
27652  27651  27449  0
27451  27652  27449  0
27652  27451  27653  0
27654  27653  27451  0
27654  27452  27439  0
27245  27439  27452  0
27644  27654  27439  0
27440  27441  27646  0
27453  27646  27441  0
27655  27646  27453  0
27649  27656  27443  0
27657  27443  27656  0
27451  27452  27654  0
27453  27658  27655  0
27443  27657  27444  0
27658  27453  27454  0
27444  27657  27248  0
27659  27248  27657  0
27246  27458  27455  0
27660  27455  27458  0
27661  27455  27660  0
27455  27661  27454  0
27454  27662  27658  0
27663  27655  27658  0
27248  27659  27457  0
27660  27458  27462  0
27456  27460  27459  0
27664  27460  27457  0
27457  27659  27664  0
27665  27664  27659  0
27462  27666  27660  0
27667  27463  27464  0
27464  27459  27667  0
27668  27667  27459  0
27459  27460  27668  0
27669  27668  27460  0
27460  27664  27669  0
27670  27669  27664  0
27258  27466  27465  0
27671  27465  27466  0
27465  27671  27467  0
27672  27265  27467  0
27265  27672  27266  0
27673  27266  27672  0
27266  27673  27461  0
27461  27673  27462  0
27674  27666  27462  0
27263  27463  27468  0
27463  27667  27468  0
27675  27468  27667  0
27667  27668  27675  0
27676  27675  27668  0
27668  27669  27676  0
27670  27676  27669  0
27466  27677  27671  0
27466  27269  27677  0
27678  27467  27671  0
27467  27678  27672  0
27674  27673  27672  0
27673  27674  27462  0
27270  27469  27679  0
27270  27679  26997  0
27680  26997  27679  0
27681  27469  27271  0
27271  27468  27681  0
27682  27681  27468  0
27468  27675  27682  0
27269  27470  27677  0
27683  27677  27470  0
27680  27684  26997  0
27470  27471  27685  0
27470  27685  27683  0
27686  27683  27685  0
27471  27472  27685  0
27687  27685  27472  0
27688  27687  27472  0
27273  27688  27472  0
26997  27684  27000  0
27475  27000  27684  0
27689  27686  27685  0
27685  27687  27689  0
27687  27688  27689  0
27690  27689  27688  0
27688  27273  27690  0
27691  27690  27273  0
27273  27473  27691  0
27692  27691  27473  0
27693  27692  27473  0
27473  27474  27693  0
27694  27693  27474  0
27475  27695  27276  0
27696  27276  27695  0
27474  27476  27694  0
27697  27694  27476  0
27276  27696  27478  0
27698  27478  27696  0
27476  27477  27697  0
27699  27697  27477  0
27278  27478  27479  0
27700  27479  27478  0
27478  27698  27700  0
27477  27479  27701  0
27700  27701  27479  0
27477  27701  27699  0
27701  27700  27702  0
27279  27703  27480  0
27704  27480  27703  0
27279  27481  27703  0
27705  27703  27481  0
27480  27704  27482  0
27706  27281  27482  0
27281  27706  27483  0
27481  27484  27705  0
27488  27705  27484  0
27707  27485  27283  0
27485  27707  27284  0
27284  27707  27487  0
27489  27708  27488  0
27709  27486  27288  0
27487  27710  27711  0
27487  27711  27285  0
27287  27712  27024  0
27709  27288  27490  0
27289  27490  27288  0
27489  27290  27713  0
27285  27711  27026  0
27490  27297  27714  0
27294  27026  27715  0
27711  27715  27026  0
27294  27715  27716  0
27495  27491  26792  0
27491  27717  27291  0
27291  27717  27296  0
27492  27292  27718  0
27496  27718  27292  0
27497  27714  27297  0
27294  27716  27498  0
27719  27495  27302  0
27296  27717  27499  0
27720  27718  27496  0
27300  27721  27497  0
27502  27722  27719  0
27502  27719  27302  0
27723  27722  27502  0
27039  27499  27503  0
27496  27500  27720  0
27724  27720  27500  0
27304  27506  27502  0
27506  27723  27502  0
27504  27503  27725  0
27499  27725  27503  0
27504  27725  27726  0
27500  27047  27724  0
27505  27303  27301  0
27505  27301  27727  0
27506  27307  27728  0
27506  27728  27729  0
27504  27726  27730  0
27504  27730  27507  0
27731  27047  27308  0
27731  27724  27047  0
27731  27308  27509  0
27505  27727  27732  0
27307  27733  27728  0
27734  27052  27507  0
27734  27507  27730  0
27505  27511  27044  0
27505  27732  27511  0
27307  27046  27733  0
27508  27510  27735  0
27508  27735  27736  0
27737  27738  27739  0
27737  27739  27740  0
27738  27741  27742  0
27738  27742  27739  0
27738  27737  27743  0
27738  27743  27741  0
27741  27744  27745  0
27741  27745  27742  0
27741  27743  27746  0
27741  27746  27744  0
27744  27747  27745  0
27744  27746  27747  0
27510  27512  27748  0
27510  27748  27735  0
27512  27312  27749  0
27312  27513  27749  0
27511  27732  27515  0
27750  27739  27751  0
27750  27751  27752  0
27750  27740  27739  0
27750  27752  27753  0
27739  27742  27751  0
27742  27745  27754  0
27747  27746  27755  0
27748  27512  27756  0
27512  27749  27756  0
27513  27757  27749  0
27758  27752  27759  0
27758  27760  27752  0
27752  27761  27759  0
27752  27760  27753  0
27752  27751  27761  0
27751  27762  27761  0
27751  27742  27763  0
27751  27763  27762  0
27742  27754  27764  0
27742  27764  27763  0
27747  27765  27766  0
27747  27766  27745  0
27747  27767  27765  0
27765  27768  27766  0
27765  27769  27768  0
27513  27313  27315  0
27513  27315  27770  0
27513  27770  27757  0
27515  27771  27316  0
27515  27316  27051  0
27316  27771  27514  0
27314  27759  27516  0
27314  27758  27759  0
27759  27518  27516  0
27759  27761  27518  0
27761  27517  27518  0
27761  27762  27520  0
27761  27520  27517  0
27762  27763  27772  0
27762  27772  27520  0
27763  27764  27773  0
27763  27773  27772  0
27754  27745  27774  0
27754  27774  27764  0
27745  27766  27775  0
27745  27775  27774  0
27768  27776  27777  0
27768  27777  27766  0
27768  27769  27776  0
27776  27778  27777  0
27770  27779  27780  0
27770  27780  27757  0
27520  27772  27781  0
27772  27773  27781  0
27773  27764  27782  0
27773  27782  27781  0
27764  27774  27783  0
27764  27783  27782  0
27775  27766  27784  0
27775  27784  27774  0
27766  27777  27784  0
27777  27778  27785  0
27779  27770  27786  0
27779  27786  27787  0
27779  27787  27780  0
27770  27315  27521  0
27770  27521  27786  0
27520  27781  27523  0
27520  27523  27519  0
27781  27782  27524  0
27781  27524  27523  0
27782  27783  27788  0
27782  27788  27524  0
27783  27774  27789  0
27783  27789  27788  0
27774  27784  27790  0
27774  27790  27789  0
27784  27777  27791  0
27784  27791  27790  0
27777  27785  27791  0
27785  27778  27792  0
27786  27793  27787  0
27786  27521  27522  0
27788  27789  27527  0
27788  27527  27524  0
27789  27790  27794  0
27789  27794  27527  0
27790  27791  27794  0
27791  27785  27795  0
27785  27792  27795  0
27786  27522  27525  0
27786  27525  27796  0
27524  27527  26812  0
27794  27791  27528  0
27794  27528  27527  0
27791  27795  27797  0
27791  27797  27528  0
27795  27792  27798  0
27795  27798  27797  0
27799  27798  27792  0
27525  27526  27796  0
27528  27797  27319  0
27528  27319  27318  0
27797  27798  27529  0
27797  27529  27319  0
27798  27799  27529  0
27800  27529  27799  0
27529  27531  27320  0
27529  27800  27531  0
27531  27801  27530  0
27802  27530  27801  0
27530  27802  27532  0
27532  27802  27803  0
27533  27532  27534  0
27533  27534  27322  0
27804  27532  27803  0
27532  27804  27534  0
27805  27534  27804  0
27534  27805  27323  0
27806  27323  27805  0
27323  27806  27535  0
27807  27535  27806  0
27536  27538  27537  0
27808  27537  27538  0
27809  27537  27808  0
27810  27539  27537  0
27811  27064  27540  0
27812  27545  27329  0
27329  27541  27812  0
27813  27812  27541  0
27541  27330  27813  0
27814  27535  27807  0
27538  27815  27808  0
27809  27808  27815  0
27538  27334  27815  0
27816  27815  27334  0
27539  27810  27542  0
27543  27542  27810  0
27540  26830  27331  0
27817  27544  27545  0
27818  27817  27545  0
27545  27812  27818  0
27813  27818  27812  0
27813  27330  27819  0
27535  27819  27330  0
27546  27820  27334  0
27334  27820  27816  0
27333  27544  27548  0
27821  27548  27544  0
27544  27822  27821  0
27544  27817  27822  0
27823  27820  27546  0
27546  27336  27823  0
27336  27337  27823  0
27824  27823  27337  0
27548  27825  27547  0
27548  27821  27825  0
27337  27339  27824  0
27552  27824  27339  0
27826  27827  27549  0
27549  27547  27826  0
27825  27826  27547  0
27549  27827  27342  0
27828  27342  27827  0
27829  27550  27080  0
27550  27829  27551  0
27551  27830  27552  0
27554  27342  27828  0
27831  27551  27829  0
27551  27831  27830  0
27557  27832  27558  0
27559  27558  27832  0
26029  27562  27553  0
27554  27564  27082  0
27555  27833  27556  0
27834  27556  27833  0
27556  27834  27557  0
27835  27557  27834  0
27559  27836  27560  0
27837  27561  27560  0
27563  27565  27088  0
27565  27566  27089  0
27566  27838  27344  0
27344  27839  27555  0
27837  27840  27561  0
27841  27572  27350  0
27350  27567  27841  0
27568  27841  27567  0
27568  27561  27840  0
27108  27562  26624  0
26848  27569  27573  0
27570  27348  27842  0
27354  27571  27843  0
27352  27356  27576  0
27575  27354  27844  0
27094  27573  27578  0
27845  27101  27100  0
27100  27577  27845  0
27108  26637  27846  0
27579  27846  26637  0
27109  27578  27847  0
27109  27847  27580  0
27583  27579  27362  0
27580  27581  27357  0
27581  27848  27582  0
27370  27583  27142  0
27584  27363  27582  0
27582  27849  27584  0
27584  27849  27850  0
27584  27850  27587  0
27592  27587  27851  0
27587  27850  27852  0
27587  27852  27851  0
27851  27852  27592  0
27370  27589  27853  0
27590  27853  27589  0
27592  27854  27591  0
27593  27591  27854  0
27592  27855  27854  0
27382  27590  27159  0
27593  27854  27856  0
27593  27856  27594  0
27594  27856  27857  0
27594  27857  27595  0
27382  27597  27858  0
27859  27858  27597  0
27860  27600  27861  0
27860  27862  27863  0
27860  27863  27600  0
27860  27861  27603  0
27860  27603  27864  0
27860  27864  27862  0
27864  27603  27865  0
27864  27865  27866  0
27595  27857  27867  0
27595  27867  27596  0
27863  27601  27600  0
27863  27868  27601  0
27600  27598  27861  0
27861  27598  27603  0
27603  27602  27865  0
27865  27602  27604  0
27865  27604  27869  0
27596  27867  27383  0
27597  27385  27859  0
27601  27868  27870  0
27604  27383  27867  0
27870  27606  27391  0
27870  27391  27601  0
27870  27871  27606  0
27605  27171  27393  0
27605  27872  27385  0
27605  27393  27873  0
27605  27873  27872  0
27393  27607  27873  0
27606  27871  27874  0
27606  27874  27608  0
27607  27609  27875  0
27607  27875  27876  0
27875  27609  27876  0
27608  27610  27394  0
27608  27612  27610  0
27611  27399  27609  0
27877  27614  27878  0
27878  27614  27617  0
27879  27612  27608  0
27879  27608  27880  0
27879  27880  27881  0
27882  27619  27621  0
27882  27621  27622  0
27882  27622  27883  0
27882  27884  27619  0
27622  27877  27883  0
27877  27622  27614  0
27617  27616  27623  0
27881  27625  27879  0
27879  27625  27613  0
27879  27613  27612  0
27413  27202  27623  0
27625  27626  27624  0
27625  27881  27885  0
27625  27885  27626  0
27626  27885  27886  0
27626  27886  27887  0
27626  27887  27414  0
27629  27632  27888  0
27629  27888  27628  0
27630  27414  27887  0
27630  27887  27889  0
27630  27889  27631  0
27634  27631  27889  0
27632  27633  27888  0
27633  27634  27888  0
27636  27890  27637  0
27891  27637  27890  0
27636  27638  27892  0
27636  27892  27890  0
27637  27891  27639  0
27640  27639  27891  0
27642  27893  27643  0
27642  27894  27893  0
27895  27893  27894  0
27433  27645  27896  0
27897  27896  27645  0
27896  27897  27898  0
27899  27898  27897  0
27893  27900  27643  0
27644  27643  27900  0
27893  27895  27900  0
27901  27900  27895  0
27438  27902  27645  0
27903  27645  27902  0
27645  27903  27897  0
27899  27897  27903  0
27651  27904  27650  0
27650  27904  27905  0
27906  27905  27904  0
27652  27904  27651  0
27904  27652  27907  0
27653  27907  27652  0
27904  27907  27906  0
27901  27906  27907  0
27907  27653  27900  0
27654  27900  27653  0
27907  27900  27901  0
27900  27654  27644  0
27908  27438  27437  0
27649  27648  27656  0
27656  27648  27909  0
27910  27909  27648  0
27911  27656  27909  0
27648  27647  27910  0
27905  27910  27647  0
27647  27650  27905  0
27646  27655  27437  0
27437  27655  27908  0
27912  27908  27655  0
27657  27656  27913  0
27913  27656  27911  0
27914  27912  27655  0
27655  27663  27914  0
27915  27914  27663  0
27916  27657  27913  0
27657  27916  27659  0
27662  27454  27661  0
27662  27917  27658  0
27918  27663  27658  0
27915  27663  27918  0
27919  27659  27916  0
27660  27920  27661  0
27921  27661  27920  0
27659  27919  27665  0
27660  27666  27922  0
27664  27665  27670  0
27923  27670  27665  0
27924  27666  27674  0
27675  27676  27682  0
27925  27682  27676  0
27676  27670  27925  0
27926  27925  27670  0
27670  27923  27926  0
27927  27671  27677  0
27671  27927  27678  0
27928  27672  27678  0
27929  27672  27928  0
27672  27929  27674  0
27930  27674  27929  0
27924  27674  27930  0
27679  27931  27680  0
27932  27680  27931  0
27679  27469  27931  0
27933  27931  27469  0
27469  27681  27933  0
27934  27933  27681  0
27681  27682  27934  0
27935  27934  27682  0
27682  27925  27935  0
27936  27935  27925  0
27925  27926  27936  0
27677  27937  27927  0
27677  27683  27937  0
27938  27937  27683  0
27928  27939  27929  0
27940  27929  27939  0
27929  27940  27930  0
27924  27930  27940  0
27684  27680  27475  0
27941  27475  27680  0
27683  27686  27938  0
27942  27938  27686  0
27475  27941  27695  0
27943  27695  27941  0
27686  27689  27942  0
27944  27942  27689  0
27945  27944  27689  0
27689  27690  27945  0
27946  27945  27690  0
27690  27691  27946  0
27692  27946  27691  0
27695  27943  27696  0
27947  27696  27943  0
27946  27692  27948  0
27949  27948  27692  0
27692  27693  27949  0
27950  27949  27693  0
27696  27947  27698  0
27951  27698  27947  0
27693  27694  27950  0
27697  27950  27694  0
27698  27951  27952  0
27697  27699  27953  0
27698  27952  27700  0
27954  27952  27951  0
27954  27700  27952  0
27704  27955  27482  0
27956  27482  27955  0
27482  27956  27706  0
27703  27705  27704  0
27957  27704  27705  0
27483  27706  27014  0
27705  27488  27958  0
27708  27958  27488  0
27283  27486  27959  0
27283  27959  27707  0
27707  27959  27960  0
27707  27960  27487  0
27487  27960  27710  0
27961  27708  27489  0
27708  27961  27962  0
27489  27713  27961  0
27290  27492  27713  0
27963  27713  27492  0
27713  27963  27961  0
27964  27961  27963  0
27712  27965  27024  0
27024  27965  27493  0
27966  27715  27711  0
27966  27711  27967  0
27968  27963  27492  0
27963  27968  27964  0
27715  27966  27716  0
27495  27969  27491  0
27491  27969  27970  0
27491  27970  27717  0
27492  27718  27968  0
27971  27968  27718  0
27493  27972  27494  0
27495  27719  27969  0
27973  27969  27719  0
27717  27970  27499  0
27718  27720  27974  0
27718  27974  27971  0
27494  27972  27721  0
27494  27721  27300  0
27498  27975  27501  0
27722  27976  27973  0
27722  27973  27719  0
27722  27723  27977  0
27722  27977  27976  0
27978  27725  27499  0
27978  27499  27970  0
27978  27970  27969  0
27720  27724  27979  0
27720  27979  27980  0
27720  27980  27974  0
27301  27501  27727  0
27506  27981  27977  0
27506  27977  27723  0
27506  27729  27982  0
27506  27982  27981  0
27725  27978  27983  0
27725  27983  27984  0
27725  27984  27726  0
27724  27731  27979  0
27731  27509  27979  0
27509  27508  27985  0
27736  27985  27508  0
27514  27046  27310  0
27514  27986  27733  0
27514  27733  27046  0
27737  27987  27988  0
27737  27988  27743  0
27737  27740  27989  0
27737  27989  27987  0
27746  27743  27990  0
27735  27748  27991  0
27052  27992  27053  0
27740  27993  27989  0
27740  27750  27994  0
27740  27994  27993  0
27746  27990  27755  0
27755  27995  27747  0
27748  27756  27991  0
27756  27749  27996  0
27756  27997  27991  0
27749  27757  27996  0
27515  27732  27998  0
27514  27999  27986  0
27053  27758  27314  0
27053  27992  27758  0
27758  27992  28000  0
27758  28000  28001  0
27758  28001  27760  0
27760  28002  27753  0
27753  28002  27994  0
27753  27994  27750  0
27747  27995  27767  0
27767  28003  27769  0
27767  27769  27765  0
27767  27995  28003  0
27996  27757  28004  0
27996  28004  28005  0
27996  28005  27756  0
27514  27771  27999  0
28003  28006  28007  0
28003  28007  27769  0
28003  27995  28008  0
28003  28008  28006  0
27769  28007  28009  0
27769  28009  27776  0
27776  28009  27778  0
28004  27757  27780  0
28004  28010  28005  0
28006  28011  28012  0
28006  28008  28013  0
28006  28013  28014  0
28006  28014  28011  0
28006  28012  28015  0
28006  28015  28007  0
28007  28015  28016  0
28007  28016  28009  0
28009  28016  27778  0
28004  27780  27787  0
28004  27787  28010  0
28017  28018  28019  0
28011  28020  28012  0
28011  28014  28021  0
28012  28020  28022  0
28012  28022  28015  0
28016  28015  28023  0
28016  28023  27778  0
27778  28023  27792  0
27787  27793  28024  0
28017  28025  28026  0
28019  28018  28027  0
28028  28011  28021  0
28022  28020  28029  0
28022  28029  28015  0
28015  28029  28023  0
27793  27786  27796  0
28030  28026  28025  0
28017  28026  28018  0
28011  28031  28032  0
28011  28032  28020  0
28011  28028  28031  0
28033  28031  28028  0
28023  28029  27799  0
28023  27799  27792  0
27793  27796  28034  0
27796  27526  28035  0
28026  28027  28018  0
28031  28036  28032  0
28036  28031  28033  0
28020  28032  28037  0
28020  28037  28029  0
28029  28037  27800  0
28029  27800  27799  0
27526  28038  28035  0
28030  28039  28026  0
28026  28039  28040  0
28026  28040  28027  0
28027  28040  28041  0
28036  28042  28032  0
28032  28042  28043  0
28032  28043  28037  0
27800  28037  27801  0
27800  27801  27531  0
27526  27064  28038  0
28039  28044  28040  0
28041  28040  28045  0
28036  28046  28042  0
28042  28047  28043  0
28048  28037  28043  0
28037  28048  27801  0
28049  27801  28048  0
28050  27801  28049  0
27801  28050  27802  0
27803  27802  28050  0
28045  28040  28044  0
28051  28043  28047  0
28043  28051  28048  0
28052  28048  28051  0
28048  28052  28049  0
28053  28049  28052  0
28049  28053  28050  0
28054  28050  28053  0
28050  28054  27803  0
28055  27803  28054  0
27803  28055  27804  0
27806  27805  27804  0
28056  27804  28055  0
27804  28056  27806  0
27810  27537  27809  0
28057  27814  27807  0
28058  27809  27815  0
28059  27815  27816  0
27809  28058  27810  0
28060  27810  28058  0
27810  28060  27543  0
28061  27543  28060  0
28062  27543  28063  0
27543  28061  28063  0
27543  28062  27331  0
27540  27331  28062  0
27817  27818  27822  0
28064  27822  27818  0
27818  27813  28064  0
27819  28064  27813  0
27819  27535  28065  0
28066  28065  27535  0
27535  27814  28066  0
27814  28057  28066  0
27816  27820  28059  0
28067  28059  27820  0
28068  27540  28062  0
28069  27821  27822  0
27822  28064  28069  0
28070  28069  28064  0
28064  27819  28070  0
28071  28070  27819  0
27819  28065  28071  0
27820  27823  28067  0
28072  28067  27823  0
28073  28072  27823  0
28074  27827  28075  0
27826  28075  27827  0
28076  28074  28075  0
28075  27826  28077  0
27825  28077  27826  0
28075  28077  28076  0
28078  28077  27825  0
28079  28078  27825  0
27825  27821  28079  0
27821  28069  28079  0
27823  27824  28073  0
28080  28073  27824  0
28081  28080  27824  0
27824  27552  28081  0
28082  28081  27552  0
27828  27827  28074  0
27552  27830  28082  0
27341  28083  27080  0
27341  27553  28083  0
27080  28083  27829  0
28084  27829  28083  0
27829  28084  27831  0
28085  27830  27831  0
27554  28086  27564  0
27557  28087  27832  0
27557  27835  28087  0
28088  27559  27832  0
27559  28088  27836  0
27836  28088  27560  0
28089  27560  28088  0
28090  27564  28086  0
27564  28090  27563  0
27839  27833  27555  0
27560  28089  27837  0
27563  28090  27565  0
27838  27566  27565  0
27838  28091  27344  0
27344  28091  27839  0
28092  27568  27840  0
28093  28092  27840  0
28094  28093  27840  0
27840  27837  28094  0
28095  27571  27572  0
27572  27841  28095  0
28092  27841  27568  0
27569  27570  28096  0
27570  27842  28096  0
28097  27842  27348  0
27354  27843  27844  0
28095  27843  27571  0
27348  27352  28097  0
27352  27576  28097  0
27108  27846  28098  0
27573  28099  27578  0
28100  27845  27577  0
27577  27574  28100  0
27575  28100  27574  0
28101  28098  27846  0
28102  27846  27579  0
28102  28101  27846  0
27578  28103  27847  0
27579  28104  28102  0
27579  27583  28104  0
27847  28105  27580  0
27581  27580  28105  0
27581  28105  27848  0
27583  27370  28106  0
27848  27849  27582  0
27849  28107  27850  0
27850  28108  27852  0
27850  28107  28108  0
27852  28109  27855  0
27852  27855  27592  0
27852  28108  28109  0
28109  28110  27855  0
27590  28111  27853  0
27590  28112  28111  0
27855  28110  27856  0
27855  27856  27854  0
28110  28113  27856  0
27590  27382  28114  0
27382  27858  28114  0
27862  28115  28116  0
27862  28116  28117  0
28115  27862  27864  0
28115  27864  28118  0
28118  27864  27866  0
28118  27866  28119  0
27856  28113  27857  0
27858  27859  28120  0
28121  27868  27863  0
28121  27863  27862  0
28121  27862  28117  0
28121  28117  28122  0
27866  27865  27869  0
27866  27869  28123  0
27866  28123  28119  0
28123  27869  27867  0
28123  27867  27857  0
28123  27857  28113  0
28123  28113  28119  0
27869  27604  27867  0
27859  28124  28125  0
28124  28126  28125  0
27870  27868  28127  0
27859  27385  27872  0
27859  27872  28124  0
28124  27872  28126  0
27870  28127  27871  0
27872  27873  28126  0
27873  27607  27876  0
27873  27876  28128  0
27874  27880  27608  0
27874  28129  27880  0
28130  27882  27883  0
28130  28131  28132  0
28130  28132  28133  0
28130  28133  27882  0
28130  27883  27877  0
28130  27877  28131  0
27877  28134  28131  0
27877  27878  28134  0
27884  27882  28133  0
27884  28133  28135  0
28136  27881  27880  0
27623  27202  28137  0
28138  27886  28136  0
28139  27886  28138  0
28136  27886  27885  0
28136  27885  27881  0
27202  27415  28140  0
27886  27889  27887  0
27886  28139  27889  0
28141  27889  28139  0
27415  27627  28140  0
27628  27888  28142  0
27888  28143  28142  0
28144  27634  27889  0
28144  27889  28141  0
28143  27634  28144  0
27888  27634  28143  0
27890  27892  28145  0
27890  28145  27891  0
27891  28146  27640  0
27640  28146  27642  0
28147  27642  28146  0
27641  28148  27638  0
27892  27638  28148  0
27642  28147  27894  0
28149  27894  28147  0
27894  28149  27895  0
28150  27895  28149  0
27898  27899  28151  0
28152  28151  27899  0
28150  28153  27906  0
27906  27901  27895  0
27906  27895  28150  0
27438  27908  27902  0
28154  27902  27908  0
27902  28154  27903  0
27909  27903  28154  0
27903  27909  27899  0
27910  27899  27909  0
27899  27910  28152  0
27905  28152  27910  0
28152  27905  28155  0
28156  28155  27905  0
27905  27906  28156  0
27908  27912  28154  0
27911  28154  27912  0
27911  27909  28154  0
27912  27914  27911  0
27913  27911  27914  0
27914  28157  27913  0
27914  27915  28157  0
28158  28157  27915  0
28157  28158  27913  0
28159  27913  28158  0
27913  28159  27916  0
28160  27661  27921  0
27661  28160  27662  0
28161  27662  28160  0
27662  28161  27917  0
27918  27658  27917  0
27918  28162  27915  0
28163  27915  28162  0
28164  28158  27915  0
28165  27915  28163  0
28158  28164  28159  0
27916  28159  27919  0
28166  27919  28159  0
27660  27922  27920  0
27920  28167  27921  0
28168  27921  28167  0
27921  28168  28160  0
28169  28160  28168  0
28160  28169  28161  0
28170  27917  28161  0
27917  28170  27918  0
28162  27918  28170  0
28162  28171  28163  0
28165  28163  28171  0
27919  28166  27665  0
28172  27665  28166  0
27922  28173  27920  0
28167  27920  28173  0
27665  28172  27923  0
28174  27923  28172  0
27666  27924  27922  0
28175  27922  27924  0
27922  28175  28173  0
28176  28173  28175  0
28177  27933  28178  0
27933  27934  28178  0
28179  28178  27934  0
27934  27935  28179  0
28174  27926  27923  0
28180  27678  27927  0
27678  28180  27928  0
27939  27928  28180  0
28181  28175  27924  0
28182  27932  27931  0
27931  27933  28182  0
28177  28182  27933  0
27935  27936  28183  0
28174  27936  27926  0
28184  27927  27937  0
28185  27937  27938  0
27927  28184  28180  0
28186  28180  28184  0
28180  28186  27939  0
28187  27939  28186  0
27939  28187  27940  0
28188  27940  28187  0
27940  28188  27924  0
28189  27924  28188  0
28181  27924  28189  0
27680  27932  27941  0
28190  27941  27932  0
27932  28191  28190  0
28192  28190  28191  0
27938  27942  28185  0
27941  28190  27943  0
28193  27943  28190  0
27942  27944  28185  0
28194  28185  27944  0
27948  27945  27946  0
27943  28193  27947  0
28195  27947  28193  0
28196  28194  27944  0
27944  27945  28196  0
28197  28196  27945  0
27945  27948  28197  0
27948  27949  28197  0
28198  28197  27949  0
27947  28195  27951  0
28199  27951  28195  0
27949  27950  28198  0
28200  28198  27950  0
27950  27697  27953  0
27950  27953  28200  0
28201  28200  27953  0
27699  28201  27953  0
28201  27699  27701  0
27704  27957  27955  0
28202  27955  27957  0
27955  28202  27956  0
27956  28203  27706  0
27958  27957  27705  0
27957  27958  28204  0
27957  28204  28202  0
27706  28203  28205  0
27706  28205  27014  0
27958  27708  27962  0
27958  27962  28204  0
27014  28205  27287  0
27959  28206  27960  0
27960  28206  28207  0
27960  28207  28208  0
27960  28208  27710  0
28209  27962  27961  0
27486  27709  28210  0
27710  28208  28211  0
27961  28212  28209  0
28210  27709  27490  0
27711  27710  27967  0
28211  27967  27710  0
28213  27961  27964  0
27961  28213  28212  0
27965  27712  28214  0
27965  28214  28215  0
27490  28216  28210  0
27490  27714  28216  0
27965  28215  27493  0
27972  27493  28215  0
28217  28216  27714  0
27966  28218  27716  0
27968  27971  27964  0
28219  27964  27971  0
27964  28219  28213  0
27497  28220  28217  0
27497  28217  27714  0
27497  27721  28220  0
27975  27498  27716  0
27975  27716  28218  0
28219  28221  28213  0
27975  28222  27501  0
27976  27977  27983  0
27976  27983  27973  0
27973  27983  27978  0
27973  27978  27969  0
27974  28219  27971  0
27501  28222  28223  0
27501  28223  27727  0
27981  28224  27977  0
27977  28224  27983  0
27983  28224  27984  0
27980  28225  27974  0
27727  28223  28226  0
27980  27979  27509  0
27980  27509  27985  0
27980  27985  28225  0
27729  27728  28227  0
27729  28227  27982  0
27726  27984  28228  0
27726  28228  27730  0
27985  28229  28225  0
27727  28226  27732  0
27728  27733  28230  0
27728  28230  28227  0
27730  28228  28231  0
27730  28231  27734  0
27736  28229  27985  0
27732  28226  28232  0
27986  28230  27733  0
27734  28233  27052  0
27734  28231  28233  0
27988  27987  27990  0
27988  27990  27743  0
27735  27991  28234  0
27735  28234  27736  0
27732  28232  27998  0
27986  27999  28230  0
27052  28235  27992  0
27052  28233  28235  0
28235  28000  27992  0
27989  27993  28236  0
27989  28236  27987  0
27987  28236  28237  0
27987  28237  27990  0
27990  28237  28238  0
27990  28238  27755  0
27755  28238  27995  0
28000  28239  28001  0
28001  28240  28241  0
28001  28241  27760  0
28001  28239  28242  0
28001  28242  28240  0
27760  28241  28243  0
27760  28243  28002  0
28002  28243  28244  0
28002  28244  27994  0
27994  28244  28245  0
27994  28245  27993  0
27993  28245  28246  0
27993  28246  28236  0
28237  28236  28247  0
28237  28247  28238  0
28238  28247  28248  0
28238  28248  27995  0
27991  27997  28249  0
27997  27756  28005  0
27998  27771  27515  0
27999  27771  28250  0
27999  28250  28251  0
28241  28240  28252  0
28241  28252  28243  0
28243  28252  28253  0
28243  28253  28244  0
28244  28253  28245  0
28245  28253  28246  0
28246  28254  28236  0
28236  28254  28247  0
28247  28254  28013  0
28247  28013  28248  0
28248  28013  28008  0
28248  28008  27995  0
27997  28005  28255  0
28005  28010  28255  0
27771  28256  28257  0
28240  28017  28019  0
28240  28019  28252  0
28252  28019  28253  0
28253  28258  28246  0
28246  28258  28259  0
28246  28259  28254  0
28254  28259  28260  0
28254  28260  28014  0
28254  28014  28013  0
28010  27787  28261  0
28010  28261  28262  0
27771  28257  28263  0
27771  28263  28264  0
27771  28265  28250  0
27771  28264  28265  0
28025  28017  28240  0
28253  28019  28258  0
28258  28266  28259  0
28259  28266  28028  0
28259  28028  28260  0
28260  28028  28021  0
28260  28021  28014  0
27787  28024  28261  0
28025  28267  28030  0
28019  28027  28268  0
28019  28268  28258  0
28258  28268  28269  0
28258  28269  28266  0
28266  28269  28028  0
28024  27793  28034  0
28024  28034  28270  0
28024  28270  28261  0
28034  28271  28270  0
28269  28033  28028  0
28034  27796  28035  0
28034  28035  28271  0
28027  28041  28268  0
28268  28041  28272  0
28268  28272  28269  0
28269  28272  28273  0
28269  28273  28033  0
28033  28273  28036  0
28267  28039  28030  0
28273  28274  28036  0
28036  28274  28046  0
28038  27064  28275  0
28267  28276  28039  0
28277  28041  28045  0
28046  28278  28042  0
27064  27811  28275  0
28039  28276  28044  0
28044  28279  28045  0
28277  28045  28279  0
28280  28042  28278  0
28042  28280  28047  0
28047  28280  28051  0
28281  28051  28280  0
28282  28052  28051  0
28052  28282  28053  0
28053  28282  28054  0
28055  28054  28282  0
28056  28055  28283  0
28044  28284  28279  0
28051  28281  28282  0
28285  28282  28281  0
28283  28282  28285  0
28282  28283  28055  0
27807  27806  28056  0
28285  28286  28283  0
28287  28283  28286  0
28283  28287  28056  0
28288  28056  28287  0
28056  28288  27807  0
28289  27807  28288  0
27807  28289  28057  0
27815  28059  28058  0
28290  28058  28059  0
28058  28291  28060  0
28292  28060  28291  0
28058  28290  28291  0
28060  28292  28061  0
28063  28061  28292  0
28059  28293  28290  0
28291  28290  28293  0
28059  28067  28293  0
28294  28293  28067  0
28295  28063  28292  0
28063  28295  28062  0
28296  28062  28295  0
28062  28296  28068  0
28297  28068  28296  0
28068  28297  27540  0
28298  27540  28297  0
27540  28298  27811  0
27811  28298  28299  0
28300  28299  28298  0
28301  28076  28302  0
28302  28076  28303  0
28077  28303  28076  0
28304  28302  28303  0
28078  28303  28077  0
28305  28304  28303  0
28303  28078  28306  0
28079  28306  28078  0
28303  28306  28305  0
28307  28305  28306  0
28306  28079  28307  0
28070  28071  28308  0
28309  28071  28065  0
28065  28066  28309  0
28067  28072  28294  0
28300  28298  28297  0
28301  28074  28076  0
28310  28079  28069  0
28069  28070  28310  0
28308  28310  28070  0
28073  28080  28072  0
28311  28080  28081  0
28081  28082  28311  0
28082  27830  28085  0
27828  28312  27554  0
28313  28083  27553  0
28085  27831  28084  0
28085  28314  28082  0
27554  28312  28086  0
28315  28087  27835  0
28316  27832  28087  0
27832  28316  28088  0
28317  28088  28316  0
28088  28317  28089  0
28086  28318  28090  0
27833  28319  27834  0
27833  27839  28319  0
28320  28319  27839  0
28315  27835  27834  0
28089  28317  27837  0
28321  27837  28317  0
28090  28322  27565  0
27565  28322  27838  0
28091  28323  27839  0
28324  28092  28093  0
28321  28094  27837  0
28095  27841  28325  0
28326  28325  27841  0
27841  28092  28326  0
28324  28326  28092  0
28327  27562  27108  0
27573  27569  28099  0
28328  27843  28095  0
28095  28325  28328  0
27108  28098  28327  0
27844  27843  28329  0
28330  27844  28329  0
28328  28329  27843  0
28331  28097  27576  0
27576  27101  28331  0
27845  28100  28332  0
28333  28332  28100  0
28334  28333  28100  0
28100  27575  28335  0
28100  28335  28334  0
27575  27844  28335  0
28330  28335  27844  0
28099  28103  27578  0
28336  28331  27101  0
27101  27845  28336  0
28337  28336  27845  0
27845  28332  28337  0
28333  28334  28338  0
28101  28102  28104  0
27847  28103  28105  0
28104  27583  28339  0
28105  28340  27848  0
27583  28106  28339  0
27848  28340  27849  0
27849  28341  28107  0
27849  28340  28341  0
28107  28341  28342  0
28107  28342  28108  0
28108  28342  28343  0
28108  28343  28109  0
28109  28343  28344  0
28109  28344  28110  0
27853  28111  28345  0
28111  28112  28346  0
28111  28346  28345  0
28112  27590  28114  0
28112  28114  28347  0
28116  28115  28348  0
28116  28348  28349  0
28116  28349  28350  0
28115  28351  28348  0
28351  28115  28118  0
28351  28118  28352  0
28110  28344  28353  0
28110  28353  28354  0
28110  28354  28113  0
28114  27858  28120  0
28114  28120  28355  0
28355  28120  28356  0
28122  28350  28357  0
28122  28357  28358  0
28350  28122  28117  0
28350  28117  28116  0
28118  28119  28359  0
28118  28359  28352  0
28119  28354  28359  0
28122  28358  28121  0
28119  28113  28354  0
27868  28121  28127  0
27871  28360  27874  0
27874  28360  28361  0
27874  28361  28129  0
28362  28363  28132  0
28362  28132  28364  0
28131  28364  28132  0
28131  28134  28365  0
28363  28135  28133  0
28363  28133  28132  0
28129  28136  27880  0
28129  28366  28367  0
28129  28367  28136  0
27617  28368  27878  0
27617  27623  28368  0
28369  28138  28136  0
28369  28136  28367  0
27623  28137  28370  0
27623  28370  28368  0
28138  28369  28371  0
28138  28371  28139  0
28137  27202  28140  0
28137  28140  28372  0
28137  28372  28373  0
28137  28373  28370  0
27628  28374  28375  0
27628  28375  27627  0
28374  27628  28142  0
28139  28144  28141  0
28139  28371  28376  0
28139  28376  28377  0
28139  28377  28144  0
28372  28140  28373  0
28140  27627  28378  0
27627  28375  28378  0
28142  28143  28379  0
28142  28379  28374  0
28143  28144  28377  0
28143  28377  28379  0
27891  28380  28146  0
28381  28146  28380  0
27891  28145  28380  0
27892  28380  28145  0
28147  28382  28149  0
28150  28383  28153  0
28149  28383  28150  0
28156  28384  28155  0
28384  28156  28153  0
27906  28153  28156  0
28384  28153  28385  0
27915  28165  28164  0
28386  28164  28165  0
28164  28386  28159  0
28387  28159  28386  0
28166  28159  28387  0
28167  28388  28168  0
28389  28168  28388  0
28390  28388  28167  0
28168  28389  28169  0
28391  28169  28389  0
28169  28391  28161  0
28392  28161  28391  0
28161  28392  28170  0
28393  28170  28392  0
28170  28393  28162  0
28394  28162  28393  0
28162  28394  28171  0
28395  28171  28394  0
28171  28395  28165  0
28396  28165  28395  0
28165  28396  28386  0
28397  28386  28396  0
28386  28397  28387  0
28398  28387  28397  0
28387  28398  28166  0
28173  28399  28167  0
28390  28167  28399  0
28400  28399  28173  0
28173  28176  28400  0
28401  28400  28176  0
28178  28402  28177  0
28403  28178  28179  0
28404  28403  28179  0
28179  27935  28183  0
28179  28183  28404  0
28175  28181  28176  0
28401  28176  28181  0
27932  28182  28191  0
28405  28191  28182  0
28182  28177  28405  0
28183  27936  28404  0
28406  28404  27936  0
27936  28174  28406  0
27937  28185  28184  0
28186  28407  28187  0
28408  28187  28407  0
28409  28407  28186  0
28187  28408  28188  0
28410  28188  28408  0
28188  28410  28189  0
28411  28189  28410  0
28189  28411  28181  0
28181  28412  28401  0
28181  28411  28412  0
28413  28412  28411  0
28191  28414  28192  0
28415  28192  28414  0
28194  28184  28185  0
28184  28194  28186  0
28409  28186  28194  0
28408  28416  28410  0
28417  28410  28416  0
28410  28417  28411  0
28418  28411  28417  0
28413  28411  28418  0
28190  28192  28193  0
28415  28193  28192  0
28194  28196  28409  0
28197  28409  28196  0
28409  28197  28416  0
28419  28416  28197  0
28193  28415  28420  0
28193  28420  28195  0
28421  28419  28197  0
28197  28198  28421  0
28422  28421  28198  0
28423  28199  28195  0
