#!ascii file
  3.350291   -5.215473   36.974316  0
  5.327210   -5.200698   33.416325  0
  9.154772   -4.712024   31.733116  0
 12.862836   -3.709119   29.100655  0
 21.828648   -4.548327   29.216003  0
 43.277504   -1.232553   30.669910  0
 41.807552   -0.856701   31.090693  0
 40.905350   -1.295573   31.027664  0
 40.585644   -0.860810   29.396549  0
 22.924631   -4.009416   28.061287  0
 45.775959   -1.598042   29.301933  0
 38.927963   -1.100270   28.645987  0
 47.932545   -3.050205   27.177788  0
 38.536072   -1.615381   26.733486  0
 40.032715   -0.370941   27.719259  0
 23.364975   -4.496204   27.429882  0
 15.218366   -3.269416   23.298706  0
 14.511711   -2.875146   24.898857  0
 49.392899   -5.301657   25.360516  0
 39.767185   -0.862512   26.499287  0
 39.453850   -1.190959   25.025642  0
 48.697350   -6.304867   24.282003  0
 49.984791   -5.422575   23.996519  0
 38.720421   -2.398121   24.098492  0
 32.115749   -4.424688   23.821449  0
 48.415161   -6.123003   22.227709  0
 40.043541   -1.557897   23.113066  0
 38.823257   -2.552485   22.965340  0
 31.321777   -3.240108   21.624380  0
 48.538509   -6.069993   20.448284  0
 50.625881   -4.075962   20.519777  0
 38.902512   -2.109454   22.073315  0
 30.378101   -3.452688   20.258907  0
 47.612938   -6.189159   19.797216  0
 49.795376   -5.213904   19.021709  0
 14.850607   -2.734669   21.033316  0
 48.843952   -6.006385   18.893599  0
 36.892471   -2.827305   21.793592  0
 34.986351   -3.140483   21.464903  0
  8.010877   -2.831284   21.785065  0
  6.475212   -2.888020   20.865114  0
 48.986500   -5.911578   16.777645  0
 33.163769   -3.445436   20.544989  0
 27.348547   -1.808428   18.602581  0
 10.137566   -2.882403   21.635630  0
  5.295348   -3.361244   18.840271  0
 48.468067   -6.351268   15.831445  0
 49.255047   -5.449572   14.779745  0
 30.582804   -3.433190   19.209461  0
 11.981176   -1.900650   20.959751  0
  5.233193   -4.024099   16.201063  0
 28.975569   -2.502236   17.874527  0
 44.749245   -3.927247   11.340823  0
 27.543243   -2.508795   17.436646  0
  6.905125   -3.772568   13.148984  0
 42.627369   -3.190547   10.149245  0
  9.131377   -2.890877   12.364820  0
 39.793255   -2.206235    9.582258  0
 41.552612   -1.824173   11.511147  0
 39.435764   -1.640127   11.069255  0
 38.061810   -1.837056    9.889859  0
 36.434666   -2.353261    8.744192  0
 36.039711   -1.826675    9.835852  0
 35.326214   -2.066900    8.768663  0
 34.358505   -1.974108    9.295848  0
 33.103149   -2.076378    9.243216  0
  9.532457   -2.071245   11.847665  0
  8.440647   -2.165897   11.837100  0
  7.073903   -2.770161   12.600271  0
 56.758987   -0.144092   11.285183  0
  4.184823   -1.955272    9.857097  0
 57.057365    0.110946   10.269507  0
 52.164482    0.536541   10.850739  0
 49.902775   -0.187525   10.372374  0
 57.426090    0.040015    9.115414  0
 50.723492    0.427856    9.687183  0
 48.688210   -1.002180    8.053341  0
  4.436717   -2.129400    6.775251  0
  4.184853   -2.307778    7.542188  0
 58.177227   -0.405309    7.291997  0
 50.799877   -0.098500    7.951128  0
 49.801517   -1.148663    6.897560  0
 51.636349   -0.785254    5.815478  0
  6.103220   -3.943884    5.188364  0
 58.494640   -0.740947    6.503193  0
 31.863598   -2.077347    7.684245  0
 59.031952   -0.533609    5.253818  0
 58.849514   -1.784308    3.497844  0
 52.607937   -0.980433    3.571718  0
 59.768196   -0.116704    3.552253  0
 52.738453   -0.928270    1.392497  0
 35.637165   -4.631359    5.930899  0
  6.569333   -3.227570    5.247371  0
  5.874732   -3.063213    5.104506  0
  5.412976   -3.863201    4.581629  0
 58.708199   -2.298011    0.932145  0
 59.905155   -0.750489    1.704728  0
 51.525272   -2.141641    0.707283  0
 36.487774   -4.780903    4.594715  0
  4.493371   -3.341370    3.178774  0
 58.941193   -1.531814   -0.643230  0
 52.561172   -1.276478   -0.211571  0
 52.789272   -1.769425   -3.079571  0
 38.964642   -4.044868    1.353922  0
 42.993401   -3.054337   -2.800357  0
  1.798073   -2.920150   -3.361102  0
 58.771523   -0.117739   -3.113097  0
 53.977612    0.651542   -4.034682  0
 53.455082   -1.527058   -4.896451  0
 59.362907   -0.256007   -3.402426  0
 60.371365    0.384863   -4.068927  0
 35.491772   -2.512374   -6.936375  0
 61.551857   -0.168158   -4.511898  0
 63.343433   -0.110559   -4.572250  0
 53.442829   -1.981730   -6.408972  0
 54.179874   -0.454104   -6.119651  0
 36.653507   -2.788931   -6.852521  0
 35.257408   -2.310385   -8.030608  0
 34.896099   -1.594693   -7.750377  0
 64.166321    0.125207   -6.086091  0
 52.579292   -2.647673   -7.886788  0
 37.596085   -2.471512   -7.310248  0
 38.551208   -3.390385   -8.675395  0
 60.297512   -2.368489  -12.503886  0
 47.733799   -3.032899   -7.972226  0
 39.588894   -3.244282   -9.939622  0
 64.001808   -0.772610   -9.391179  0
 63.252232   -1.100520  -10.594027  0
 61.404934   -1.357656  -12.396895  0
 51.339039   -3.040972   -9.565651  0
 36.811699   -2.206969   -9.209387  0
 49.048389   -2.301739  -10.176539  0
 50.313305   -2.673875  -10.686038  0
 40.895363   -2.234056  -11.936345  0
 38.098038   -2.828695   -9.862290  0
 60.116699   -2.954492  -13.858159  0
 58.499039   -3.852343  -14.666854  0
 38.742550   -3.066299  -10.440311  0
 42.146629   -3.947243  -16.847752  0
 39.374012   -2.470421  -12.098159  0
 59.054104   -1.755544  -16.023872  0
 54.761463   -3.300544  -16.197626  0
 51.929424   -4.462648  -15.786016  0
 49.704472   -4.689759  -16.609406  0
 43.198009   -4.044355  -18.805973  0
 39.921810   -3.356495  -13.279994  0
 44.371323   -4.473419  -19.596531  0
 46.571213   -4.458449  -20.247766  0
  2.887801   -3.539055  -16.355394  0
 40.616341   -3.168770  -14.902996  0
 41.333023   -3.861593  -16.185778  0
 42.285755   -3.575508  -17.551394  0
 43.078876   -3.773782  -19.201496  0
 62.206482   -3.182113  -18.563524  0
 60.521046   -3.266273  -18.269327  0
 58.777000   -3.332919  -18.322243  0
 56.147816   -3.669586  -19.537325  0
 44.083233   -3.306904  -23.499359  0
 53.710659   -3.212543  -20.602816  0
 49.782032   -1.416023  -21.575197  0
 48.417099   -2.725585  -21.934633  0
 41.916546   -3.591166  -25.268091  0
 39.547333   -3.385587  -25.452692  0
 38.730442   -2.889543  -26.009771  0
 61.875832   -2.190598  -23.669880  0
 60.875725   -1.760086  -25.156803  0
 59.555611   -1.531434  -26.677715  0
 58.618912   -1.999696  -27.620249  0
 57.756805   -1.735006  -27.006245  0
 55.373997   -2.142457  -27.036638  0
 46.122635   -2.358842  -24.539921  0
 37.701717   -3.709268  -26.616020  0
 52.163559   -2.378458  -27.785412  0
 44.292805   -3.020537  -25.643488  0
 43.263966   -1.898228  -26.896883  0
 42.626785   -1.823426  -27.640963  0
 37.538319   -3.160107  -27.378307  0
  3.787908   -3.377868  -29.530384  0
 42.190838   -2.245315  -29.364191  0
 36.891178   -2.138251  -28.437943  0
 46.704433   -2.883537  -32.657402  0
 41.763508   -2.465597  -30.123770  0
 41.015381   -2.846780  -30.740067  0
 21.496553   -2.882224  -35.287434  0
 22.415762   -3.782321  -32.050854  0
 21.183071   -3.425484  -31.802778  0
  1.672017   -3.544782  -32.258007  0
 40.409958   -2.310084  -31.356678  0
 39.458035   -2.697845  -31.493711  0
 37.020588   -2.619457  -30.404043  0
 15.749181   -3.748307  -34.823292  0
  2.230647   -3.272664  -35.029716  0
 58.104767   -1.046234  -29.212021  0
 58.902637   -0.616218  -29.579752  0
 56.124508   -1.431867  -29.172441  0
 28.030413   -1.723578  -36.153854  0
 15.049289   -4.414095  -37.124283  0
 59.445427   -1.665833  -32.313686  0
 59.741886   -0.804622  -31.329550  0
 55.209717   -0.430815  -29.125801  0
 29.967466   -2.081456  -36.752331  0
  6.980396   -3.744248  -35.814049  0
  6.557159   -2.994955  -35.276680  0
  5.170423   -2.971698  -35.350300  0
 60.160137   -1.112559  -35.851028  0
 59.912811   -0.834046  -33.620842  0
 50.662998   -0.761041  -34.252041  0
 32.640579   -3.530451  -38.157291  0
 54.650276   -0.949356  -39.022331  0
 56.314922    0.628502  -37.802277  0
 56.695885   -0.832790  -39.353962  0
 46.596691   -1.411154  -36.343987  0
 33.791233   -3.208181  -39.748169  0
 12.036595   -4.181883  -38.546013  0
 59.833431   -0.427497  -38.182945  0
 58.139854   -0.179601  -38.756111  0
 52.646534   -0.153311  -39.011204  0
 49.371887   -5.041403  -43.783527  0
 49.532867   -4.021053  -42.559853  0
 34.293213   -2.534296  -40.855339  0
 48.637455   -5.611314  -46.527275  0
 32.226948   -1.449902  -40.877628  0
 32.223877   -1.425993  -41.840443  0
 31.808029   -1.622708  -42.666195  0
 31.236528   -2.008923  -43.226910  0
 17.192026   -4.756264  -44.252438  0
 49.373928   -5.463429  -48.839115  0
 40.767139   -3.986913  -49.058643  0
 29.798531   -2.246833  -44.362350  0
 28.846081   -2.506279  -44.645397  0
 27.974976   -2.578085  -44.526100  0
 22.722477   -2.072739  -41.371399  0
 21.178488   -2.512675  -42.303005  0
 17.295483   -4.589298  -46.209198  0
 49.723213   -5.369090  -51.170208  0
 43.932961   -3.528158  -51.929684  0
 27.272154   -1.636490  -43.297390  0
 26.640341   -0.970458  -42.541531  0
 25.872297   -1.286559  -41.365753  0
 23.931126   -1.546594  -41.188625  0
 17.463505   -4.722414  -48.821747  0
 49.670582   -5.384786  -53.052605  0
 39.550896   -2.681445  -50.831581  0
 18.284452   -4.923244  -51.161858  0
 48.591118   -6.256884  -54.322777  0
 45.569881   -5.443634  -54.792789  0
 39.905930   -3.464903  -51.894257  0
 32.668362   -3.875906  -51.434956  0
 32.137207   -3.307607  -50.943676  0
 31.104858   -3.157714  -50.864941  0
 29.655369   -4.287710  -51.887436  0
 19.559399   -5.099659  -53.447334  0
 31.156759   -4.337084  -53.181549  0
 29.389456   -5.112368  -53.843967  0
 28.565584   -6.717924  -55.396519  0
 28.418304   -5.750371  -55.508705  0
 22.720808   -6.208194  -55.903400  0
 29.581190   -4.085421  -55.017471  0
 27.977606   -5.823164  -56.381607  0
 28.766293   -4.075018  -56.612812  0
 25.900681   -5.158655  -56.689457  0
 28.836264   -3.299022  -58.110405  0
 30.587255   -3.720677  -59.962494  0
 35.908737   -3.126330  -58.644386  0
 37.922619   -2.952670  -57.311749  0
 32.705139   -4.407033  -60.253235  0
 50.817238   -7.220746  -58.564114  0
 50.802464   -6.032172  -59.048668  0
 52.177624   -6.356470  -58.254715  0
 49.814674   -7.213462  -58.873371  0
 49.467556   -5.602738  -59.694141  0
  4.156508   -2.245333   40.689957  0
 13.569442   -1.754455   40.688335  0
 12.753769   -1.454127   41.271542  0
  3.805106   -3.834946   39.304420  0
 21.723679   -2.318359   37.442192  0
 20.095581   -1.488364   37.648609  0
 17.227427   -1.305210   38.932663  0
 14.490854   -1.525735   39.398865  0
  2.996557   -4.298114   38.155052  0
  3.323245   -2.902931   38.960514  0
 23.760387   -4.774655   36.933163  0
 23.003372   -2.985297   37.703632  0
  2.686281   -4.002306   37.182495  0
  3.409871   -4.563440   35.015144  0
  7.501745   -4.997622   31.843863  0
  6.061730   -4.850639   31.902588  0
 23.755886   -5.455278   32.705254  0
 22.605692   -4.285048   30.037498  0
 11.301541   -3.747217   29.989840  0
 13.679470   -2.977631   27.273113  0
 42.151608   -0.422545   30.272333  0
 43.137440   -0.032718   29.988064  0
 44.584518   -0.455256   29.599464  0
 41.798717   -0.118283   28.297104  0
 46.976433   -1.203213   28.215776  0
 42.895321    0.370283   28.402245  0
 24.357090   -3.875646   27.561199  0
 48.162956   -1.436005   27.211346  0
 49.179646   -2.290245   25.958870  0
 41.853180    0.613603   26.158190  0
 40.476875   -0.206014   26.168499  0
 32.401920   -3.723401   24.672928  0
 31.942953   -4.871916   24.910095  0
 31.874599   -3.107738   23.087805  0
 27.870897   -5.247332   26.602320  0
 50.976746   -3.667162   23.640396  0
 50.240242   -0.289990   24.809441  0
 40.835323   -0.260535   24.163584  0
 51.325455   -3.818364   22.046942  0
 52.319511   -2.138632   21.666124  0
 15.277142   -2.465579   22.015144  0
 52.246166   -2.794529   20.797499  0
 39.851868   -1.859358   22.241825  0
 39.990982   -1.240658   22.361908  0
 29.787888   -1.798580   20.834045  0
 50.945702   -3.645536   17.580330  0
 52.711697   -1.946262   19.702852  0
 50.214504   -5.068869   16.653856  0
 51.671024   -2.379129   17.271400  0
 37.273010   -2.241220   22.091349  0
 51.009331   -4.388610   15.656649  0
 51.470562   -3.406204   15.305391  0
 13.698818   -2.045711   20.701391  0
 31.549318   -3.231412   20.147530  0
  8.885292   -2.031290   20.839642  0
  6.795913   -2.168804   20.447531  0
  5.399591   -2.509667   19.177444  0
  4.869353   -3.058939   17.424124  0
 50.166130   -4.108191   14.052913  0
 48.488598   -4.446563   13.181067  0
 46.675591   -4.084421   12.414558  0
 45.478474   -3.062557   12.073339  0
 29.835388   -1.815274   19.186848  0
  5.623673   -3.564537   14.213421  0
  4.611372   -3.136650   15.732687  0
 43.601341   -2.548858   11.579081  0
 39.654942   -1.040480   12.437916  0
 26.743195   -0.483062   18.391312  0
  5.197028   -2.966819   14.393808  0
 37.202839   -1.576207   11.084798  0
 37.563911   -0.972760   11.944549  0
  7.525256   -2.062325   12.723701  0
  6.326816   -2.919015   13.318338  0
 35.070732   -1.617304   10.567870  0
 54.394760    0.705713   10.898234  0
 31.230925   -0.971011    8.815332  0
  6.693860   -0.882668   11.763322  0
  5.539670   -1.335486   11.902073  0
  4.766957   -1.288353   11.294430  0
 52.832073    1.105647    9.745350  0
 51.785126    0.917212    8.777798  0
  5.804664   -1.266940    5.624582  0
 57.527969    1.300707    6.622593  0
 53.742413    1.403781    8.136619  0
 52.829330    0.949821    7.458961  0
 54.131424    1.390940    6.655978  0
 58.355598    0.313538    6.287778  0
 54.187164    1.002419    5.568600  0
 59.587944    1.125696    4.119109  0
 32.367214   -1.963373    7.623451  0
 54.471157    0.699278    3.302840  0
 53.357578   -0.458796    2.582617  0
 34.326004   -3.849169    6.865561  0
  5.570853   -2.093502    4.806968  0
  3.733891   -2.062403    2.927463  0
 60.315399    0.964236    2.442793  0
 54.479580    1.283137    0.628012  0
  2.853103   -1.578570    2.088430  0
 60.328911    0.518231    0.335738  0
 60.661057    2.511383   -0.347821  0
 53.644287    0.291966   -1.190032  0
 37.998085   -3.847116    2.815028  0
 38.321285   -3.923437    3.691355  0
 59.481777    0.386434   -2.031151  0
 60.518650    2.455826   -1.624738  0
 59.976601    1.938413   -2.165212  0
 53.943764    0.921295   -2.768265  0
 58.363358    1.993245   -2.624968  0
 41.286625   -3.474811    0.354175  0
 57.899754    1.548908   -3.345347  0
 55.040611    2.085927   -3.712017  0
 55.187244    1.811868   -4.689655  0
 54.255795    0.464727   -5.127184  0
 58.750515    1.316977   -3.386538  0
 59.479942    1.548865   -3.248853  0
 61.714531    1.654097   -5.071473  0
 55.041916    1.484811   -5.798897  0
 44.985844   -2.622857   -5.064628  0
 54.797112   -0.024231   -7.564697  0
 38.346313   -2.191392   -8.002103  0
 35.158218   -1.219881   -8.297883  0
 34.253246   -0.227778   -8.478704  0
 53.951950   -1.336266   -8.288745  0
 47.513935   -2.240788   -7.649625  0
 39.628628   -1.621621   -9.098125  0
  1.595174    1.109774   -6.441038  0
 63.632973    0.502852  -10.222065  0
 63.219139    0.173097  -11.162910  0
 62.475449   -0.335459  -13.053445  0
 55.157562   -0.094156   -9.438298  0
 56.587955    2.124725   -8.794854  0
 40.396492   -2.082708  -10.227951  0
 62.089733   -0.657921  -14.294899  0
 53.492188   -1.396470  -10.998575  0
 61.084148   -1.326427  -15.456162  0
 52.220848   -1.781587  -11.755695  0
 50.233822   -1.849601  -11.565104  0
 41.238026   -1.556940  -13.445975  0
 37.812157   -1.605005  -10.537208  0
 51.979668   -1.262527  -12.529067  0
 41.520542   -2.204546  -16.091789  0
 57.302261   -1.266070  -16.829773  0
 51.959576   -3.309966  -16.898388  0
 42.776642   -2.802607  -18.184534  0
 40.010399   -1.527687  -12.979147  0
 55.042850   -2.401899  -17.002550  0
 49.709595   -4.028226  -18.237309  0
 47.961891   -4.804256  -19.460108  0
 40.562080   -2.309021  -13.975213  0
 48.719223   -3.828949  -19.345791  0
 45.597836   -3.424590  -20.483101  0
 43.521420   -2.732163  -19.382204  0
  3.669455   -2.322866  -18.621634  0
 41.262398   -1.889942  -15.995500  0
 43.132771   -2.341046  -19.249043  0
 44.043667   -3.150553  -21.535706  0
 62.370403   -1.962947  -19.689552  0
 62.317905   -1.324851  -21.297091  0
 59.960522   -1.484165  -19.995462  0
 59.330406   -2.433616  -19.214701  0
 57.929344   -2.453475  -19.928387  0
 56.406479   -2.648553  -20.574657  0
 52.600628   -1.530528  -21.216335  0
 43.569378   -2.583236  -24.755079  0
 43.021980   -2.405287  -25.508255  0
  4.045897   -1.610561  -22.057640  0
  4.163607   -1.753413  -25.599611  0
 60.330391   -0.849422  -25.732145  0
 47.396049   -1.642774  -22.566263  0
 44.943493   -1.233801  -26.225821  0
 37.874275   -1.246090  -27.875822  0
 37.310329   -1.689602  -27.981657  0
 42.633076   -1.931524  -28.442883  0
 19.843880   -2.745263  -34.791195  0
 19.424517   -2.508496  -33.955063  0
  3.073485   -2.488587  -31.049381  0
 36.482719   -2.098958  -29.486994  0
 26.021452   -2.143698  -35.626385  0
 21.647381   -2.149337  -36.756371  0
  1.990565   -2.089163  -32.467731  0
 45.487980   -1.739206  -33.824673  0
 40.097412   -1.102466  -32.213627  0
 38.863422   -2.044592  -31.800604  0
 37.927193   -1.576494  -31.557596  0
 17.340654   -0.670027  -32.001785  0
 15.779022   -2.926752  -33.898750  0
 15.851561   -1.322385  -33.114056  0
  1.295496   -2.302115  -33.680061  0
 14.412269   -1.797431  -33.820923  0
 13.284243   -2.868582  -35.184849  0
  1.433472   -2.356391  -35.041912  0
 57.957600    0.686527  -28.775488  0
 44.076889   -1.618257  -35.548454  0
  8.562464   -2.700223  -35.351070  0
  2.994217   -2.521199  -35.735748  0
 59.969685    1.240966  -31.721493  0
 59.387650    0.466951  -30.391943  0
 59.948784    0.266136  -34.871483  0
 54.174225    0.499343  -29.779295  0
 52.314850    0.168910  -32.006630  0
 44.088741   -1.254234  -36.718285  0
 10.876376   -2.978769  -36.097218  0
 49.821438    1.099942  -35.259445  0
 48.396862    0.018555  -35.899605  0
 32.675587   -2.351064  -38.082706  0
 33.592857   -2.496149  -38.901505  0
 57.703899    1.261719  -36.475517  0
 54.623627    1.271477  -37.513969  0
 51.753361    0.727113  -39.504555  0
 34.689354   -3.044602  -40.279675  0
 50.137394   -2.490099  -41.742573  0
 50.394379   -4.127201  -43.301422  0
 51.379032   -5.338463  -45.378590  0
 52.541733   -4.578909  -44.422306  0
 35.110531   -2.771207  -41.099590  0
 50.155190   -5.488514  -47.019794  0
 34.086872   -0.997288  -41.896610  0
 32.426434   -0.098203  -41.669189  0
 40.067287   -2.709474  -49.315281  0
 31.726868    0.083271  -41.611568  0
 31.759064   -0.368986  -42.016792  0
 31.179642   -0.512313  -42.428444  0
 30.178686   -1.339532  -43.216293  0
 29.005136   -2.093240  -43.414883  0
 21.971886   -1.415590  -42.003380  0
 21.248915   -1.729309  -41.786678  0
 19.868940   -1.816940  -42.628983  0
 21.878447   -1.322445  -41.486061  0
 17.204889   -3.327973  -43.547825  0
 16.594128   -4.048255  -44.978626  0
 50.459263   -5.015592  -50.690174  0
 52.577080   -5.381834  -47.259392  0
 51.747738   -4.915654  -51.598801  0
 41.693378   -2.564677  -49.561382  0
 40.526917   -1.703943  -49.236305  0
 28.103956   -2.399947  -43.676777  0
 26.370077   -0.536835  -42.179352  0
 24.791506   -0.204977  -42.487312  0
 16.447020   -3.582105  -46.870651  0
 26.700348   -0.671571  -43.097816  0
 17.275370   -4.424920  -50.074646  0
 16.826693   -3.725986  -49.183098  0
 50.660561   -5.079408  -53.553402  0
 44.954521   -4.292864  -53.398602  0
 32.608490   -2.739073  -51.812199  0
 18.359436   -3.927877  -52.165775  0
 17.245150   -3.667794  -50.599121  0
 47.528828   -6.893807  -55.443199  0
 32.540951   -2.949779  -52.697803  0
 29.553400   -3.431874  -53.598213  0
 28.848583   -4.118864  -55.012737  0
 20.352915   -5.150905  -54.990940  0
 18.676125   -3.783590  -53.521027  0
 19.665136   -4.089285  -54.322971  0
 40.368664   -2.361239  -53.338116  0
 30.960188   -2.836879  -54.299427  0
 28.585127   -4.066988  -56.101128  0
 28.028288   -4.639171  -56.710251  0
 24.755058   -3.951370  -56.609238  0
 20.435488   -4.400293  -55.296867  0
 21.911173   -3.877475  -55.543571  0
 40.849415   -2.440556  -55.340855  0
 29.265499   -2.888512  -56.124619  0
 51.288158   -7.399893  -57.518032  0
 49.839989   -7.686181  -58.205723  0
 49.826538   -7.594067  -57.078339  0
 39.729382   -2.356847  -56.653091  0
 33.929989   -3.347369  -60.600300  0
 32.652966   -3.327083  -61.285500  0
 34.979603   -2.253909  -60.228306  0
  7.162616   -0.925328   41.469875  0
  4.960578   -1.171954   41.300713  0
 11.628993   -0.250772   40.903793  0
  9.693052   -0.256469   41.063129  0
  3.563489   -1.615892   39.507336  0
 22.251036   -1.617504   38.078083  0
 21.903034   -0.761714   38.698673  0
 22.480505   -1.630617   39.143677  0
 19.564650   -0.138238   38.514320  0
 18.169767   -0.376818   38.889633  0
 17.219612   -0.610466   39.763138  0
 14.996026   -0.803074   39.753460  0
 13.242373   -0.579308   40.569420  0
 10.496749    0.267114   39.449512  0
  6.957515   -0.174777   40.611668  0
  2.554947   -2.469635   37.647488  0
  2.539893   -1.088360   37.768917  0
 26.287226   -4.867022   37.968601  0
 28.156176   -4.462658   37.959652  0
 27.261347   -3.487067   38.678486  0
 25.391001   -3.944560   38.915436  0
 24.909933   -4.878419   37.872292  0
 24.684862   -2.539011   39.441689  0
 24.126192   -3.679632   38.652458  0
 23.228697   -2.134774   39.259312  0
 16.525875    0.230177   39.173714  0
 14.381290    0.113964   38.626896  0
 12.961668    0.231228   38.754772  0
  2.772614   -3.104735   35.879860  0
  2.741804   -1.877456   36.195641  0
 31.469900   -3.515453   37.105640  0
 30.159266   -4.148403   37.434052  0
 31.213676   -4.212489   36.002834  0
 29.324663   -5.000278   36.326626  0
 29.462463   -2.487676   38.024811  0
 27.254446   -5.447907   36.410671  0
 25.111605   -5.413035   35.872452  0
  4.177345   -4.206017   32.849163  0
  2.992362   -3.301082   33.650978  0
  2.917086   -2.619142   34.733078  0
 32.194759   -3.672401   34.964622  0
 31.645960   -4.252732   33.405499  0
 32.552116   -2.730456   36.178288  0
 32.733582   -2.679661   34.325272  0
 29.926403   -5.412527   33.646954  0
 28.166655   -5.609684   34.574165  0
 25.728472   -5.686912   34.401005  0
  7.958770   -4.359149   30.410517  0
  4.768653   -3.911441   30.446892  0
 31.414959   -5.015944   30.419380  0
 32.182213   -3.733407   31.010426  0
 32.594212   -2.796937   32.395641  0
 28.430862   -5.971303   32.837513  0
 26.477539   -5.963988   32.912678  0
 24.902092   -5.468638   32.441029  0
  9.490580   -3.937524   30.241812  0
  6.492347   -4.339624   29.753746  0
 32.036530   -4.130432   28.714918  0
 30.263231   -5.766800   29.368402  0
 28.661400   -5.964927   31.086151  0
 26.828907   -6.071354   31.516888  0
 25.386732   -5.421740   31.228653  0
 24.208599   -4.633958   30.691357  0
 10.018351   -3.435699   28.229029  0
 31.584646   -4.951622   28.050415  0
 32.192822   -2.343896   29.139774  0
 27.013842   -5.733511   30.184532  0
 28.345572   -5.939214   29.194534  0
 24.409956   -3.740415   28.617464  0
 25.489584   -4.545742   29.407694  0
 12.585083   -2.843386   27.473650  0
 32.227428   -4.022018   26.603071  0
 32.307953   -2.623315   27.338236  0
 30.732622   -5.347127   27.143299  0
 28.684324   -5.671683   27.253738  0
 31.511164   -4.962468   25.819788  0
 32.221390   -1.803498   25.443260  0
 45.216438    0.380571   28.993427  0
 43.796547    0.565690   29.061111  0
 32.059593   -2.422432   23.678482  0
 48.440594   -0.030412   26.646179  0
 46.518124    0.990626   28.081203  0
 44.908100    1.274372   28.692175  0
 43.757893    0.876017   27.909134  0
 43.055206    1.177179   26.549557  0
 44.194771    1.612376   27.842525  0
 31.155733   -1.891525   22.596085  0
 51.738262   -0.514841   22.663530  0
 43.482327    1.614749   26.420546  0
 41.940750    0.756318   25.223526  0
 52.783558    0.204408   20.745478  0
 28.249271   -1.370631   19.925734  0
 53.068787   -0.756364   18.637238  0
 26.794928   -0.176354   19.456980  0
 52.116776   -1.082302   16.927118  0
 39.508778   -0.940743   22.273720  0
 51.709076   -2.003403   16.155830  0
 30.420904   -2.074094   19.942791  0
  7.359846   -1.618131   20.572575  0
 50.627476   -2.679331   13.839472  0
 48.188992   -3.126072   12.849872  0
 43.987389   -1.742313   12.272515  0
 35.396774   -1.050193   11.402583  0
  5.737807   -1.962943   13.867724  0
  9.621653   -1.597810   12.132840  0
 32.153099   -1.051266    9.847026  0
  8.863234   -0.962620   11.442794  0
  4.252453   -1.319120    8.049296  0
 55.560104    1.238554    9.103990  0
  4.810244   -0.192047    6.250447  0
 55.734062    1.596758    6.519334  0
  6.407498   -0.700497    5.266588  0
 57.352798    1.872817    5.704093  0
 58.734192    2.110680    4.134808  0
 55.860523    1.730132    3.803293  0
 35.728531   -3.379549    7.468354  0
 33.868141   -2.436133    7.852205  0
 36.121750   -4.292734    6.825189  0
 55.584869    2.026426    1.274636  0
 36.861012   -4.289826    6.407661  0
 37.593395   -4.466761    4.760101  0
  4.427495   -1.359471    3.545046  0
 59.804459    2.989869    1.522653  0
 60.430622    3.597058   -1.401477  0
 56.171757    3.058853   -1.736895  0
  2.461791    1.270815    1.950124  0
 54.843193    2.114028   -1.953780  0
 39.829342   -3.121906    2.737157  0
 56.035442    2.901093   -3.137017  0
 41.293133   -2.813223    1.629527  0
  1.620464    1.182613   -1.803262  0
 59.779827    3.615478   -2.493909  0
 56.411613    2.367033   -3.682790  0
 57.238113    3.362049   -2.633420  0
 43.018883   -2.966908   -0.881025  0
 57.816578    2.342950   -3.121162  0
 58.490551    2.797670   -3.145194  0
 56.727692    3.057282   -3.814181  0
 56.387856    3.481898   -5.411087  0
 45.760895   -2.131496   -5.096004  0
 44.407295   -2.457445   -2.808779  0
 60.410496    2.531674   -4.211742  0
 37.060371   -1.414409   -7.509368  0
 63.155930    1.587656   -5.706061  0
 56.637043    3.126445   -7.385288  0
 38.836498   -1.051940   -8.463829  0
 63.653656    2.068462   -8.433638  0
 41.625439   -0.193388  -10.499000  0
 63.672890    1.740228   -9.524615  0
 63.224129    0.680548  -12.225862  0
 63.608177    2.033520  -10.966445  0
 57.341938    2.235303  -10.711361  0
 41.837029   -0.611016  -11.592872  0
 36.082985   -0.538334   -9.086242  0
 34.557594    0.316752   -8.868378  0
 63.474506    2.276470  -12.647375  0
 63.510361    1.084036  -13.230698  0
 63.077393    1.564490  -14.150887  0
 56.117577    0.830115  -12.539590  0
 57.602192    2.327753  -13.813778  0
 48.889385   -1.223799  -10.049631  0
 62.213619    0.786842  -15.604075  0
 36.942215   -0.408337  -10.014977  0
 61.159279    0.003522  -16.128866  0
 56.278996    0.963424  -14.204656  0
 54.741776   -0.015734  -13.419973  0
 56.441692    1.345601  -15.162249  0
 50.217171   -0.702476  -11.865358  0
 41.130909   -0.374218  -14.332269  0
 41.254902   -0.265220  -15.436038  0
 37.662495   -0.546912  -10.989006  0
 54.781303    0.482282  -14.529065  0
 51.757153   -0.553523  -13.086316  0
 41.498280   -0.978053  -16.384947  0
 38.324745   -0.405020  -11.870417  0
 42.179554   -1.769037  -16.998116  0
 39.418869   -0.732140  -12.842562  0
 59.457199    0.675415  -17.019341  0
 58.464897    0.510988  -17.022091  0
 57.475452   -0.840198  -17.530115  0
 54.813568   -2.108862  -17.898985  0
 51.040916   -2.678891  -18.457830  0
 40.727253   -0.796799  -14.598763  0
  2.573554   -1.101705  -15.690211  0
 56.921894   -0.595300  -18.415882  0
 54.120258   -1.322229  -18.820065  0
 47.434639   -2.958979  -20.159834  0
 44.438732   -1.978658  -19.766230  0
 45.999382   -2.138210  -20.417210  0
 42.048878   -0.726749  -17.725618  0
 42.960361   -0.715736  -19.632990  0
 43.216431   -1.977166  -21.436159  0
 43.424362   -2.185997  -22.996675  0
 61.478611   -1.116698  -20.272984  0
 57.820473   -1.118735  -20.688293  0
 55.255642   -1.442883  -21.227877  0
 61.884468   -0.783519  -22.419483  0
 41.879875   -2.285515  -26.032370  0
 61.322800   -0.482463  -24.477373  0
 58.676277   -0.743496  -26.478794  0
 46.458981   -1.255692  -23.145979  0
 53.734768    0.101070  -27.263227  0
 45.836361   -1.374222  -24.503052  0
 38.140682   -1.999327  -26.984200  0
 43.776836   -0.251696  -27.541237  0
  3.836820   -0.860795  -29.503365  0
 42.344807   -0.869236  -28.398026  0
 42.595860    0.116335  -28.569298  0
 42.546268   -0.275433  -29.817856  0
 36.547287   -1.172120  -30.056660  0
 37.093758   -0.711119  -28.673096  0
 42.027771   -1.374455  -30.012907  0
 19.385153   -2.220809  -36.401485  0
 18.399822   -2.125905  -35.007999  0
 18.281475   -1.433145  -33.791615  0
 20.395164   -2.085942  -31.241264  0
 41.803280   -0.623938  -30.871540  0
 37.378040   -0.383448  -31.650097  0
 24.806736   -1.468725  -36.578590  0
  3.321191   -1.291144  -31.501099  0
 41.022629   -0.745997  -31.401911  0
 39.006382   -0.710698  -32.777504  0
 38.179531   -0.131502  -32.656834  0
 12.417420   -1.300336  -33.892109  0
 11.404542   -1.998239  -34.495750  0
 59.447884    2.112693  -29.568630  0
 58.586266    3.314219  -28.982656  0
 59.350079    4.119973  -29.819899  0
 59.564358    3.936358  -30.809568  0
 57.250973    2.931870  -28.863878  0
 55.739853    2.340882  -29.149982  0
 54.083530    2.557172  -31.023407  0
 45.235847   -0.295678  -34.751984  0
  9.861548   -0.772962  -33.373722  0
  6.482853   -1.714644  -34.498642  0
 59.352623    2.784919  -32.627018  0
 52.005917    2.353272  -33.470825  0
  3.669541   -1.593898  -35.419468  0
 60.260593   -0.157971  -36.853790  0
 59.342976    0.959287  -35.740219  0
 58.968025    1.970215  -33.974880  0
 30.738419   -0.597392  -37.586510  0
  1.980344   -1.629057  -35.519402  0
 55.984024    2.170431  -36.253132  0
 56.833775    2.832482  -34.806419  0
 55.358891    3.650713  -35.757065  0
 54.226864    2.962875  -37.003635  0
 47.789078    0.879706  -36.639523  0
 52.651405    1.870843  -38.417030  0
 46.125366   -0.116354  -37.029129  0
 45.108177    1.010408  -37.846901  0
 34.798405   -1.913716  -39.797966  0
 36.478485   -1.803574  -40.913467  0
 36.779972   -1.628111  -41.437374  0
 50.432056   -2.927163  -42.487926  0
 35.170784   -1.414458  -42.070042  0
 53.153336   -2.820403  -43.326904  0
 55.367455   -4.304836  -45.997414  0
 55.994080   -3.033200  -45.549641  0
 53.780178   -5.024193  -45.819031  0
 56.548771   -3.808764  -47.650124  0
 56.630970   -1.888836  -46.378635  0
 55.265297   -5.307418  -47.818420  0
 54.562683   -5.496088  -49.744465  0
 31.023199    0.189225  -41.415466  0
 30.137541   -0.244495  -41.741623  0
 19.536617   -0.747968  -42.332573  0
 17.161671   -1.998995  -42.817921  0
 20.954178   -0.757078  -41.557354  0
 16.186071   -2.979573  -43.494621  0
 15.981223   -3.281618  -44.650269  0
 15.599208   -2.358348  -43.539642  0
 56.203045   -5.251750  -49.432083  0
 56.983269   -4.662583  -50.155838  0
 57.314686   -3.009455  -49.575714  0
 56.973114   -1.941514  -47.963425  0
 29.046318   -0.484470  -42.385715  0
 28.384144   -1.334504  -42.371773  0
 26.234934    0.438722  -43.240524  0
 22.203600   -0.221208  -41.856209  0
 15.307324   -2.591041  -45.585678  0
 55.739815   -5.425071  -51.184261  0
 57.147728   -3.791309  -51.442917  0
 39.662437   -1.153576  -50.200779  0
 27.539581   -1.005723  -42.882858  0
 15.569788   -2.177387  -48.416431  0
 56.624050   -4.888665  -52.218628  0
 54.144367   -5.165176  -53.289707  0
 39.775043   -0.666623  -52.809570  0
 30.108488   -2.606310  -52.086006  0
 16.974764   -2.207969  -51.192379  0
 51.562889   -5.382679  -54.436855  0
 44.891331   -2.786478  -53.510384  0
 32.898220   -1.709042  -52.725021  0
 32.541920   -0.644303  -52.618340  0
 31.875227   -0.599089  -52.341766  0
 30.996878   -1.135421  -52.353371  0
 17.873268   -2.291607  -53.093838  0
 55.748100   -4.559651  -53.965485  0
 53.379845   -5.886924  -55.253090  0
 50.597393   -6.770296  -55.749004  0
 54.986130   -5.039837  -55.151798  0
 46.451221   -6.173588  -56.618729  0
 45.297306   -5.258224  -56.185192  0
 44.946999   -3.879522  -55.316761  0
 32.117485   -1.534512  -54.035965  0
 29.577721   -3.048765  -54.779896  0
 19.015785   -3.267797  -55.135036  0
 20.550453   -2.666237  -55.556053  0
 53.153915   -6.223702  -57.173241  0
 54.008194   -4.832403  -57.423397  0
 48.271088   -7.066427  -57.603237  0
 47.636368   -5.727249  -58.958752  0
 45.455261   -4.462426  -58.963436  0
 30.144991   -1.556581  -55.388302  0
 27.590651   -3.525092  -57.269466  0
 22.940845   -2.366079  -56.084568  0
 28.814821   -1.826056  -57.209770  0
 26.356100   -2.155991  -57.750465  0
 27.718430   -1.930835  -57.990410  0
 52.854145   -4.493506  -59.073563  0
 29.114651   -2.210832  -59.511822  0
 51.776451   -4.780278  -59.494385  0
 50.836372   -4.772458  -59.981995  0
 38.280926   -1.335492  -58.052029  0
 36.610039   -1.351582  -59.300957  0
 31.197443   -2.266018  -61.398575  0
 33.418613   -2.003504  -61.367229  0
  4.122798   -0.555428   39.396435  0
 22.571074   -0.421671   39.635639  0
 20.916828    0.400517   39.139236  0
 19.246380    0.536644   39.155319  0
  7.785876    0.437893   39.479904  0
  5.530866    0.298983   39.449200  0
 27.719086   -1.135650   38.538826  0
 25.875269   -0.773672   39.275166  0
 15.832717    1.297010   37.473614  0
  6.813251    1.008267   38.975975  0
  4.131219    0.520518   38.757015  0
  2.908847   -0.184871   38.341385  0
  2.572891   -0.468245   35.715260  0
 32.059937   -0.575130   36.690338  0
 33.327751   -0.294582   35.561630  0
 15.545776    2.098979   36.311443  0
 14.071217    1.358007   37.254948  0
 11.508225    0.812585   37.921280  0
  9.539284    1.155019   38.322735  0
  2.557963   -1.971774   33.164749  0
  2.349278   -0.540046   33.597626  0
 12.376359    1.882890   37.248856  0
  3.348818   -2.978007   31.029648  0
  2.777914   -1.035160   31.388781  0
 32.729588   -1.447660   33.296276  0
 14.712296    2.532321   36.144733  0
 32.622013   -1.239697   31.127066  0
 25.891533   -5.580272   30.535168  0
  7.622242   -3.686989   27.946630  0
  5.370940   -3.149945   27.997139  0
  3.577008   -2.255707   29.282473  0
 31.857012   -0.826488   28.902348  0
 26.967285   -5.105755   28.248423  0
 13.452197   -2.595069   25.414169  0
 11.378696   -3.082701   26.191732  0
  9.810532   -3.244328   25.844456  0
 31.950035   -1.111196   26.679346  0
 12.286036   -2.733737   25.575638  0
 31.085165   -0.619817   24.540640  0
 30.764799   -0.218309   26.309311  0
 29.087776   -0.359496   22.844801  0
 29.101051    0.227542   24.580492  0
 49.437672    1.882674   25.317438  0
 47.732498    1.988545   27.051525  0
 45.349548    2.340398   27.999531  0
 51.051846    2.467104   22.926920  0
 46.211838    3.640930   27.493607  0
 44.478657    2.667419   27.400642  0
 27.199593   -0.172933   20.918591  0
 14.568414   -1.913402   21.777449  0
 52.033401    2.900145   20.776405  0
 52.945469    0.351344   18.590393  0
 35.689186   -2.336548   23.665970  0
 33.282871   -2.359259   23.339094  0
 32.398586   -2.726192   21.660263  0
 31.215027   -1.938007   21.162004  0
 10.470888   -1.156918   20.874565  0
  5.323483   -1.488734   20.156178  0
  3.805845   -1.971507   17.758034  0
 51.644344   -1.010516   15.417062  0
 50.486248   -1.669310   13.635623  0
 48.219898   -1.999148   12.786811  0
 28.911112   -0.121668   19.597466  0
 27.327799   -0.429570   18.520901  0
 41.515423   -0.856942   12.283149  0
  3.598268   -2.106159   14.517408  0
  7.173835   -0.188510   13.036991  0
  9.163112   -0.171702   12.148209  0
 33.818970   -0.640957   10.727880  0
  9.755801    0.431463   11.577290  0
 31.232098    0.035185    9.299375  0
 31.455774   -0.200229    8.070359  0
  5.915493    1.134015   11.308243  0
  4.910162    1.350893   10.491446  0
  4.281017    0.336166    8.708952  0
 32.274559   -0.158289    7.823714  0
  6.280672    0.014265    5.571530  0
 57.991829    2.658381    3.153569  0
 37.949787   -3.785767    7.252321  0
 36.751854   -2.459360    8.413382  0
 38.844887   -2.870449    8.135908  0
 39.099792   -3.916980    6.679051  0
 34.807629   -1.320685    8.401733  0
 56.989666    2.582481    2.355291  0
 38.344799   -4.431158    5.618560  0
 39.665592   -4.224240    5.025854  0
  5.919291   -0.442085    5.015449  0
  4.012685   -0.313770    3.342134  0
  3.237240    1.660887    2.933215  0
 57.756020    3.545239    0.458832  0
 58.906441    3.928887    0.076980  0
 39.921360   -3.418372    3.680235  0
 58.346977    4.106506   -2.150214  0
  1.841030    1.996068    0.258897  0
 42.648899   -2.845925    0.577674  0
 59.781826    4.169108   -1.807958  0
 46.413773   -1.870566   -4.637417  0
 59.698711    3.918053   -3.944133  0
 58.374977    4.166950   -3.809511  0
 57.797779    4.601403   -4.765624  0
 58.470280    5.313140   -6.496706  0
 35.178841   -0.733167   -8.196491  0
 60.934124    4.048136   -5.226671  0
 62.012905    3.608160   -6.047917  0
 59.013828    5.135709   -8.175303  0
 40.453571    0.353719   -9.745577  0
 38.161121   -0.129588   -9.247548  0
 36.100346    0.383581   -9.611426  0
 63.241669    2.721526   -7.172235  0
 58.215149    3.616900   -9.451660  0
 59.751980    4.574085  -10.399837  0
 48.379898   -1.360623   -7.088650  0
 58.800190    3.539489  -11.692922  0
 60.312923    3.998110  -12.642793  0
 33.651661    1.376764   -8.362169  0
 63.237007    3.555429   -9.558078  0
 62.872253    3.809702  -11.201530  0
 62.877464    3.183440  -13.055698  0
 59.098278    3.371078  -13.711740  0
 60.440643    3.312573  -14.682285  0
 49.262478   -0.608539   -9.388119  0
 41.867771    0.076556  -11.727765  0
 41.375229   -0.097331  -12.952618  0
 61.920853    3.319244  -13.608564  0
 61.760845    2.271306  -15.284929  0
 58.769218    2.727566  -15.870486  0
 60.339283    2.460037  -16.466482  0
 36.144302    0.768621  -10.325965  0
 59.326797    2.303969  -16.736954  0
 49.993832    0.046433  -11.026978  0
  2.308901    0.461317  -12.852622  0
 60.224957    1.706191  -16.918123  0
 57.735783    1.454624  -16.216908  0
 37.580074    0.933216  -10.942305  0
 54.756737    1.236840  -15.105633  0
 52.797195    1.249738  -14.220441  0
 42.890343   -0.839106  -18.230551  0
 37.983730    1.396344  -11.744718  0
 38.363140    0.326121  -12.895635  0
 58.303875    0.537596  -17.392597  0
 56.158108   -0.434648  -19.147064  0
 50.955414   -0.817744  -19.284006  0
 48.997425   -1.182148  -19.856173  0
 47.547192   -1.896628  -20.412031  0
 43.619595   -0.817743  -19.367647  0
 44.495487   -0.145845  -20.353661  0
 39.793446   -0.054971  -13.847075  0
 39.536167    0.742212  -14.591659  0
 55.455883    0.324119  -19.631739  0
 52.818893    0.201039  -19.478954  0
 46.641716   -0.874140  -20.878326  0
 41.085934    0.353991  -15.932388  0
 41.508961   -0.160412  -17.076487  0
 41.624943    0.548128  -17.374043  0
  2.925380    0.539424  -17.582407  0
  3.701935   -0.561016  -19.402515  0
 42.156357    0.473307  -18.461468  0
  3.524262    0.051004  -21.878971  0
 43.074581   -0.938345  -21.910549  0
 61.432411   -0.008369  -20.792212  0
 60.236965    0.200790  -20.462465  0
 42.690384   -0.768339  -23.786623  0
 56.276180    0.745875  -21.638142  0
 54.465267    0.381732  -21.803644  0
 41.876148   -0.547081  -25.710810  0
 52.213486    0.736776  -21.700312  0
 50.070190    0.923976  -21.799215  0
 60.145035    0.363055  -25.920986  0
 46.546322    0.546366  -22.197296  0
 40.291737   -0.477579  -26.628199  0
 38.855362   -1.492153  -26.729370  0
 56.608540    0.194606  -26.582392  0
 45.379986   -0.138943  -23.248369  0
 38.535770    0.104254  -27.647705  0
 51.522839   -0.268457  -28.075638  0
 50.049389   -0.333559  -29.489666  0
 44.721512    0.089042  -25.907612  0
 44.261677    0.657825  -27.242065  0
 48.801285    0.446406  -31.008520  0
 47.392494   -0.476720  -32.403259  0
 36.620216    0.225073  -30.012604  0
 19.687473   -0.984594  -30.906027  0
 19.065922   -0.284895  -30.550896  0
 17.822515   -0.279613  -32.877159  0
 19.876797   -1.647838  -37.465240  0
 21.140793   -1.108091  -38.062252  0
 36.808437    0.463909  -30.946148  0
 22.842640   -0.683947  -38.464348  0
 41.799591    1.040958  -31.638083  0
 40.853951    1.090034  -32.350883  0
 11.578515    0.199464  -33.432541  0
  7.786791    0.223690  -32.719921  0
  8.874546    0.676195  -32.732819  0
  3.490684   -0.840838  -32.401325  0
  1.929498   -1.345373  -33.995293  0
 56.921429    3.285807  -29.986614  0
 26.577381   -1.086778  -36.504726  0
 13.692788    0.095979  -33.533543  0
  6.286882   -0.129941  -32.908360  0
 55.480927    3.058112  -30.104580  0
 55.699883    3.902352  -31.620253  0
 38.628967    1.176182  -33.136719  0
  5.217982   -0.899444  -33.944519  0
 53.623898    3.889063  -33.304535  0
 52.200050    3.948580  -34.450508  0
 50.183128    2.535269  -35.682762  0
 57.830261    3.600563  -33.284054  0
 58.652458    4.334289  -31.302347  0
 56.182903    4.098007  -34.201469  0
 56.945225    4.263639  -32.574081  0
 54.871689    4.428450  -35.074505  0
 55.135967    4.400097  -33.797703  0
 28.844772    0.267523  -37.410480  0
 54.137810    3.657313  -35.900669  0
 32.520378    0.005574  -38.779140  0
 53.597969    3.258711  -36.837448  0
 44.072338    1.298389  -37.705875  0
 34.238686   -0.035581  -39.808750  0
 46.978298    2.323935  -38.104702  0
 36.402401   -0.329967  -41.174732  0
 51.442818   -1.025938  -41.851089  0
 51.820797    0.884806  -40.107185  0
 35.660641   -1.768861  -41.603031  0
 55.041161   -1.499081  -43.676949  0
 56.040905   -0.656899  -44.553040  0
 56.121925   -0.399941  -47.074883  0
 56.241001   -0.452873  -48.140190  0
 55.021809    0.454931  -48.406796  0
 54.478500    0.832308  -47.235241  0
 32.386261    1.259000  -43.619331  0
 34.839203    0.313063  -44.352863  0
 18.044302   -0.734981  -41.792446  0
 15.996139   -1.427726  -41.938271  0
 14.975082   -1.258915  -42.917706  0
 56.833763   -0.912128  -49.125549  0
 31.150888    1.086739  -42.246334  0
 30.182022    0.767864  -41.729176  0
 28.514238    0.150050  -41.604805  0
 23.072363    0.657844  -42.905857  0
 14.805036   -1.757663  -44.346554  0
 56.772205   -1.250170  -51.197590  0
 56.089478    0.397259  -49.859665  0
 41.319122   -0.507993  -50.054279  0
 42.744431   -1.319176  -50.828743  0
 27.105827   -0.057624  -42.169868  0
 24.439793    1.257880  -44.163029  0
 25.624134    1.629834  -44.508461  0
 14.747601   -1.818786  -46.697319  0
 56.619122   -2.887284  -52.873596  0
 44.288483   -1.206703  -52.500851  0
 30.494888   -1.097794  -53.091202  0
 30.042198   -1.459658  -54.645996  0
 17.033552   -1.270704  -52.006546  0
 54.969662   -3.216059  -56.105835  0
 44.971630   -1.700985  -54.464191  0
 40.400810   -0.666303  -55.767895  0
 32.852108   -0.185926  -54.069420  0
 29.003609   -2.661331  -55.421070  0
 28.775618   -1.542935  -56.599277  0
 17.710421   -2.200732  -55.392776  0
 18.484871   -2.282511  -55.826881  0
 44.395988   -3.778867  -57.453220  0
 31.432783    0.105477  -55.617535  0
 22.132082   -1.341694  -56.202557  0
 53.342640   -3.018459  -58.329128  0
 39.614292   -0.594289  -57.491936  0
 29.700169   -0.506415  -56.646229  0
 23.960094   -1.134247  -57.007812  0
 47.633816   -4.219363  -60.580776  0
 28.691084   -0.894442  -58.294498  0
 51.302231   -2.698030  -60.007233  0
 49.131161   -2.752653  -60.946686  0
 29.643940   -1.287911  -60.517086  0
 35.303677   -1.049677  -60.721607  0
 31.602556   -1.162969  -61.733093  0
 34.243855   -0.491164  -61.566631  0
 26.368484    0.559711   38.610222  0
 24.281940    1.389234   39.065609  0
 21.037220    0.710120   39.539051  0
 22.209934    1.038392   39.539936  0
 18.801807    1.291856   38.123360  0
  2.651720    0.368724   37.485619  0
 33.016853    1.346758   35.846157  0
 30.965117    2.738508   36.724785  0
 28.694117    1.354717   37.490540  0
 27.581526    1.425563   37.725651  0
 16.705435    2.598779   35.547676  0
  4.804266    1.214143   38.881771  0
  3.328418    0.955193   38.322166  0
  2.136932    1.482927   35.553150  0
  2.095933    1.030948   32.760754  0
 32.631756    0.411537   33.251076  0
 33.304855    1.347710   34.822243  0
 31.902102    0.185711   30.333862  0
  2.839902   -0.591952   29.910032  0
 16.811005    3.444648   34.541668  0
 14.924335    2.994830   35.612465  0
  3.669411   -1.379908   27.833372  0
 30.827801    0.302149   29.550720  0
 29.457058    0.742916   28.579023  0
  7.082195   -3.128868   26.255350  0
  5.745785   -2.049010   25.653919  0
  4.366143   -0.568474   25.931154  0
 28.098959    0.922885   26.979574  0
  8.318191   -2.925570   25.030107  0
  5.278745   -0.544943   24.782230  0
  7.446168   -1.953725   24.235462  0
 27.275557    0.818462   25.118340  0
 10.531090   -2.455095   23.937626  0
 27.726604    0.463361   23.831623  0
 26.061146    1.149896   23.412617  0
 13.072636   -2.000921   23.074217  0
 25.491135    1.113394   21.280682  0
 12.510473   -1.469723   21.861477  0
 47.392471    4.843455   26.498817  0
 45.047962    3.480952   27.456654  0
 44.188908    3.075308   26.797543  0
 42.680206    1.482287   26.131758  0
 52.102894    2.192764   19.255806  0
 51.194809    4.261907   20.892481  0
 40.714569   -0.088013   24.346972  0
 38.945007   -0.849808   23.025095  0
 37.929497   -1.441477   23.620720  0
 37.095783   -1.795370   24.530241  0
 34.535915   -1.881295   25.426304  0
 50.987942    2.597441   19.094568  0
 50.966076    3.765993   20.033205  0
 32.165379   -2.197126   22.500311  0
 31.595835   -1.055243   22.180714  0
 51.972786    0.662527   17.307945  0
 50.734962    2.132874   18.151356  0
 30.162022   -0.653365   20.190931  0
 51.102142    1.686215   16.602766  0
  7.577055   -1.221037   20.821634  0
  3.128346   -1.143903   19.038071  0
  2.629096   -1.127547   17.216230  0
 51.321960   -0.163303   14.345836  0
 26.852989    1.174758   19.594891  0
  2.753031   -1.498392   15.785915  0
 49.650490   -1.270294   12.847584  0
 44.161297   -1.058949   12.257400  0
  3.027287   -0.126604   13.895420  0
  5.694157   -0.125128   13.478444  0
  3.916775   -1.221333   13.914567  0
  3.878809   -0.081119   13.470417  0
  8.702176    2.585801   12.166838  0
 32.575672    0.103940   10.048273  0
  8.813002    0.840061   11.422343  0
  4.395165    1.498061    7.272021  0
  5.776220    1.925342    5.835679  0
 40.729294   -2.141334    8.501483  0
 40.814877   -3.158792    7.354498  0
 41.776005   -3.073802    7.160337  0
 42.799320   -2.262111    7.720800  0
 41.500774   -1.235751    8.860078  0
 39.166035   -1.715753    9.052178  0
 40.429420   -0.514010    9.161798  0
 37.301479   -1.293402    9.035852  0
 38.746098    0.147718    9.033225  0
 37.206989    2.010425    8.428231  0
 35.737720    0.413952    8.631113  0
 41.069511   -3.588823    5.387735  0
 42.279663   -2.765669    5.830089  0
 40.281418   -3.873093    6.482106  0
 33.163670    0.685696    7.951865  0
 41.505573   -2.945927    4.150322  0
 42.331894   -2.860767    4.576222  0
 42.563683   -2.422530    4.041147  0
 42.799629   -2.078730    2.898897  0
 45.138302   -2.048483    1.959797  0
 44.848686   -2.407545    0.940073  0
 46.490166   -2.384484   -0.235061  0
 46.894943   -1.917432   -3.030546  0
 47.795506   -1.905067   -1.184299  0
 58.883759    5.036471   -4.881720  0
 48.622551   -1.273238   -4.722905  0
 34.202209    0.819147   -8.659482  0
 34.843380    0.736257   -9.268329  0
 49.422993   -0.724995   -6.122738  0
 37.151333    0.593086  -10.174526  0
 60.445255    5.683366   -8.897969  0
 59.890774    5.723343   -7.185431  0
 41.485676    0.956684  -10.195679  0
 61.487862    4.569551  -11.348777  0
 42.128838    0.927694  -11.056237  0
 33.883350    1.948759   -8.631011  0
  2.060443    2.428557  -10.741082  0
 62.090351    4.879475   -9.774045  0
 41.350182    0.880685  -11.820225  0
 40.584705    0.395234  -13.526316  0
 34.847370    2.019330   -9.806757  0
 36.001312    1.679246  -10.716883  0
 40.552193    0.514246  -14.493360  0
