#!ascii file
11099  11653  11652  0
11095  11652  11654  0
11095  11654  11100  0
11100  11654  11106  0
11106  11654  11389  0
11390  11655  11102  0
11390  11389  11655  0
11102  11656  10808  0
11102  11655  11656  0
11104  11657  11650  0
11386  11658  11398  0
11386  11398  11097  0
11386  11649  11658  0
11651  11659  11384  0
11389  11654  11660  0
11389  11660  11661  0
11389  11661  11655  0
11656  11109  10808  0
11392  11662  11393  0
11391  11394  11395  0
11397  11657  11104  0
11397  11396  11663  0
11105  10824  11651  0
11664  11120  11113  0
11664  11665  11120  0
11666  11120  11665  0
11664  11113  11109  0
11664  11109  11656  0
11664  11656  11665  0
11400  11401  11667  0
11400  11667  11392  0
11392  11667  11662  0
11393  11662  11668  0
11393  11668  11394  0
11395  11669  11396  0
11670  11399  11398  0
11399  11670  11404  0
11399  11404  11119  0
11651  10824  11402  0
11651  11402  11407  0
11408  11120  11666  0
11408  11666  11671  0
11401  11403  11410  0
11401  11410  11667  0
11667  11668  11662  0
11667  11410  11672  0
11667  11672  11668  0
11673  11404  11670  0
11404  11673  11405  0
11674  11409  11408  0
11675  11409  11674  0
11410  11676  11672  0
11411  11121  11677  0
11121  11412  11677  0
11122  11413  11412  0
11678  11405  11673  0
11405  11678  11414  0
11415  11409  11675  0
11679  11680  11681  0
11679  11681  11682  0
11683  11680  11679  0
11680  11684  11681  0
11685  11680  11683  0
11680  11685  11684  0
11686  11684  11685  0
11410  11411  11676  0
11411  11677  11687  0
11413  11688  11412  0
11413  11416  11688  0
11416  11689  11688  0
11124  11133  11416  0
11690  11414  11678  0
11407  11406  11417  0
11418  11415  11691  0
11415  11692  11691  0
11693  11691  11692  0
11679  11682  11694  0
11695  11694  11682  0
11682  11681  11696  0
11697  11684  11686  0
11698  11689  11416  0
11416  11133  11698  0
11133  11419  11698  0
11414  11690  11139  0
11699  11139  11690  0
11139  11699  11144  0
11145  11144  11699  0
11699  11700  11145  0
11146  11145  11700  0
11700  11417  11146  0
11420  11418  11691  0
11420  11691  11693  0
11682  11696  11695  0
11701  11696  11681  0
11681  11684  11701  0
11697  11701  11684  0
11702  11419  11138  0
11138  11143  11702  0
11703  11702  11143  0
11704  11425  11421  0
11423  11705  11426  0
11706  11705  11423  0
11143  11427  11703  0
11707  11148  11424  0
11424  11425  11708  0
11424  11708  11707  0
11428  11704  11421  0
11421  11422  11428  0
11705  11706  11709  0
11705  11709  11426  0
11426  11709  11710  0
11426  11710  11430  0
11430  11710  11711  0
11430  11711  11435  0
11148  11707  11432  0
11428  11433  11712  0
11436  11435  11713  0
11436  11713  11439  0
11439  11713  11714  0
11440  11154  11432  0
11715  11712  11433  0
11433  11438  11715  0
11714  11716  11439  0
11439  11716  11437  0
11717  11427  11153  0
11718  11715  11438  0
11438  11437  11718  0
11716  11718  11437  0
11153  11442  11717  0
11441  11440  11719  0
11441  11719  11720  0
11441  11720  11157  0
11721  11717  11442  0
11157  11720  11158  0
11158  11720  11722  0
11158  11722  11443  0
11444  11721  11442  0
11443  11722  11723  0
11443  11723  11724  0
11443  11724  11166  0
11725  11165  11168  0
11165  11725  11445  0
11166  11724  11446  0
11726  11169  11167  0
11169  11726  11727  0
11169  11727  11168  0
11168  11727  11728  0
11168  11728  11725  0
11446  11724  11729  0
11446  11729  11172  0
11170  11730  11171  0
11167  11171  11731  0
11167  11731  11726  0
11172  11729  11447  0
11447  11732  11733  0
11447  11733  11448  0
11450  11176  11734  0
11175  11448  11735  0
11175  11735  11452  0
11176  11453  11736  0
11176  11736  11734  0
11174  10893  11737  0
11174  11737  11455  0
10893  11177  11737  0
11453  11738  11736  0
11451  11455  11739  0
11451  11739  11454  0
11177  11740  11737  0
11177  10899  11185  0
11177  11185  11740  0
11180  11456  11458  0
11741  11458  11456  0
11453  11196  11742  0
11179  11454  11461  0
11185  11462  11743  0
11185  11743  11740  0
11458  11741  11190  0
11201  11744  11196  0
11742  11196  11744  0
11465  11459  11745  0
11459  11460  11745  0
11462  11467  11743  0
11190  11741  11191  0
11464  11191  11741  0
11464  11746  11195  0
11471  11747  11472  0
11744  11201  11472  0
11474  11197  11748  0
11197  11465  11749  0
11197  11749  11748  0
11465  11745  11750  0
11465  11750  11749  0
11745  11460  11750  0
11460  11466  11750  0
11199  11461  11751  0
11461  11752  11751  0
11467  11468  11753  0
11468  11470  11754  0
11468  11754  11753  0
11755  11476  11195  0
11755  11195  11746  0
11756  11476  11755  0
11477  11757  11202  0
11471  11202  11757  0
11204  11473  11758  0
11204  11758  11203  0
11750  11478  11759  0
11750  11759  11749  0
11750  11466  11478  0
11199  11751  11209  0
11470  11479  11754  0
11476  11756  11481  0
11760  11481  11756  0
11211  11203  11761  0
11211  11761  11210  0
11203  11758  11761  0
11478  11484  11759  0
11751  11762  11209  0
11754  11479  11485  0
11485  11480  11763  0
11760  11763  11480  0
11480  11481  11760  0
11483  11210  11764  0
11761  11764  11210  0
11486  11765  11484  0
11759  11484  11765  0
11766  11488  11209  0
11209  11762  11766  0
11765  11218  11767  0
11218  11217  11767  0
11218  11765  11486  0
11217  11768  11767  0
11217  11220  11768  0
10933  11221  11769  0
10933  11769  11770  0
10933  11770  11771  0
11772  11769  11221  0
11221  10624  11772  0
10624  11222  11772  0
11222  10625  11773  0
11220  11774  11768  0
11220  11489  11774  0
11223  10933  11775  0
10625  11490  11773  0
11776  11490  10938  0
11226  11777  11489  0
11226  11489  10939  0
11778  11777  11226  0
11228  11491  11779  0
11775  11491  11223  0
10938  11492  11776  0
11226  11231  11778  0
11780  11778  11231  0
11232  11228  11494  0
11779  11494  11228  0
11492  11496  11776  0
11231  11230  11780  0
11781  11780  11230  0
11498  11496  11238  0
11230  11234  11781  0
11495  11781  11234  0
11498  10963  11782  0
11783  11782  10963  0
10953  11497  11499  0
11503  11500  11784  0
11784  11500  11785  0
11502  11785  11500  0
11784  11786  11503  0
10963  11241  11783  0
11505  11783  11241  0
10957  11499  11787  0
10957  11787  11242  0
11503  11786  11504  0
11788  11504  11786  0
11249  11789  11506  0
11243  11250  11790  0
11243  11790  11507  0
11251  11507  11791  0
11251  11791  11508  0
11508  11792  11501  0
11501  11792  11502  0
11504  11788  11509  0
11509  11793  11794  0
11509  11794  11512  0
11795  11510  11513  0
11795  11513  11796  0
11795  11797  11511  0
11795  11511  11510  0
11515  11512  11794  0
11515  11794  11798  0
11799  11800  11524  0
11799  11524  11523  0
11799  11801  11800  0
11799  11523  11802  0
11800  11526  11524  0
11531  11803  11532  0
11532  11796  11804  0
11532  11803  11795  0
11532  11795  11796  0
11796  11805  11804  0
11796  11513  11805  0
11513  11516  11806  0
11513  11806  11805  0
11261  10667  11807  0
11261  11807  11808  0
11261  11808  11262  0
10667  11517  11807  0
11514  11518  11517  0
11518  11263  11809  0
11263  11519  11810  0
11263  11810  11809  0
11519  11520  11810  0
11521  11258  11811  0
11258  11515  11811  0
11523  11538  11812  0
11523  11812  11802  0
11526  11540  11525  0
11526  11813  11540  0
11814  11540  11813  0
11530  11803  11531  0
11532  11804  11533  0
11804  11805  11815  0
11804  11815  11816  0
11804  11816  11533  0
11805  11806  11815  0
11806  11516  11817  0
11516  11534  11817  0
11265  11535  11818  0
11265  11818  11545  0
11538  11819  11812  0
11538  11547  11819  0
11540  11820  11541  0
11540  11814  11820  0
11543  11533  11821  0
11543  11821  11822  0
11533  11816  11821  0
11266  11823  11279  0
11268  11546  11824  0
11268  11824  11537  0
11262  11825  11270  0
11826  11270  11825  0
11270  11826  11272  0
11549  11272  11826  0
11547  11275  11551  0
11547  11551  11827  0
11547  11827  11828  0
11547  11828  11819  0
11548  11543  11822  0
11271  11553  11544  0
11279  11823  11555  0
11546  11280  11829  0
11546  11829  11824  0
11549  11830  11550  0
11831  11550  11830  0
11550  11831  11273  0
11557  11273  11831  0
11551  11274  11832  0
11278  11832  11274  0
11551  11832  11827  0
11832  11278  11552  0
11832  11552  11833  0
11834  11554  11555  0
11556  11829  11280  0
11835  11829  11556  0
11836  11560  11558  0
11554  11834  11837  0
11554  11837  10993  0
11556  11561  11835  0
11838  11835  11561  0
11839  11838  11561  0
11561  11562  11839  0
11836  11562  11560  0
11564  11289  11840  0
11841  11840  11289  0
11289  11563  11841  0
11842  11841  11563  0
11565  11842  11563  0
10993  11837  11003  0
11565  11291  11843  0
11566  11843  11291  0
11003  11837  11844  0
11003  11844  11568  0
11845  11846  11293  0
11564  11845  11293  0
11568  11844  11847  0
11568  11847  11569  0
11566  11302  11848  0
11571  11848  11302  0
11848  11571  11849  0
11572  11849  11571  0
11297  11569  11572  0
11572  11569  11850  0
11847  11850  11569  0
11574  11295  11298  0
11295  11851  11852  0
11295  11852  11570  0
11295  11574  11851  0
11853  11851  11574  0
11854  11301  11855  0
11293  11855  11301  0
11574  11304  11853  0
11856  11853  11304  0
11304  11299  11856  0
11575  11856  11299  0
11576  11301  11854  0
11021  11580  11857  0
11578  11858  11579  0
11580  11321  11859  0
11312  11579  11860  0
11312  11860  11314  0
11314  11860  11861  0
11314  11862  11581  0
11314  11581  11315  0
11314  11861  11862  0
11321  11582  11863  0
11582  11584  11864  0
11582  11864  11863  0
11320  11581  11583  0
11865  11327  11585  0
11586  11866  11584  0
11586  11867  11866  0
11330  11327  11865  0
11330  11865  11588  0
11586  11337  11868  0
11586  11868  11867  0
11588  11865  11869  0
11588  11869  11594  0
11589  11590  11595  0
11594  11870  11597  0
11871  11597  11870  0
11868  11872  11867  0
11590  11591  11873  0
11590  11873  11595  0
11591  11874  11873  0
11591  11592  11874  0
11597  11871  11598  0
11337  11599  11868  0
11868  11599  11872  0
11340  11596  11341  0
11874  11592  11875  0
11592  11598  11876  0
11592  11876  11875  0
11877  11598  11871  0
11599  11601  11872  0
11878  11341  11596  0
11875  11876  11879  0
11876  11598  11877  0
11341  11878  11600  0
11880  11600  11878  0
11606  11881  11601  0
11600  11880  11602  0
11608  11882  11883  0
11608  11603  11345  0
11603  11884  11604  0
11604  11605  11348  0
11885  11611  11886  0
11885  11887  11611  0
11888  11611  11887  0
11611  11888  11882  0
11883  11882  11888  0
11882  11608  11607  0
11882  11607  11611  0
11604  11889  11605  0
11890  11606  11065  0
11881  11606  11890  0
11602  11880  11609  0
11891  11609  11880  0
11886  11892  11885  0
11886  11611  11610  0
11605  11893  11612  0
11605  11612  11349  0
11605  11889  11893  0
11617  11890  11065  0
11886  11610  11892  0
11360  11892  11610  0
11612  11894  11067  0
11612  11893  11894  0
11892  11360  11895  0
11365  11895  11360  0
11614  11357  11615  0
11619  11615  11357  0
11615  11619  11616  0
11896  11616  11619  0
11616  11896  11618  0
11618  11897  11362  0
11073  11362  11897  0
11618  11896  11897  0
11898  11617  11359  0
11609  11891  11367  0
11899  11895  11365  0
11894  11623  11067  0
11619  11900  11901  0
11619  11901  11896  0
11619  11620  11900  0
11902  11900  11620  0
11897  11903  11073  0
11073  11903  11621  0
11621  11898  11359  0
11627  11626  11904  0
11905  11904  11626  0
11904  11906  11627  0
11631  11902  11620  0
11366  11907  11371  0
11628  11905  11626  0
11627  11906  11908  0
11627  11908  11629  0
11629  11908  11630  0
11899  11365  11909  0
11370  11909  11365  0
11371  11907  11910  0
11371  11910  11635  0
11905  11628  11911  0
11912  11911  11628  0
11628  11632  11912  0
11913  11912  11632  0
11631  11378  11914  0
11635  11910  11915  0
11632  11636  11913  0
11916  11913  11636  0
11630  11917  11638  0
11644  11909  11370  0
11370  11376  11644  0
11378  11640  11914  0
11918  11914  11640  0
11647  11916  11636  0
11636  11637  11647  0
11638  11917  11919  0
11638  11919  11642  0
11918  11640  11380  0
11920  11921  11647  0
11647  11648  11920  0
11648  11382  11920  0
11922  11645  11639  0
11645  11922  11646  0
11923  11646  11922  0
11646  11923  11380  0
11918  11380  11923  0
11641  11924  11093  0
11641  11093  11381  0
11382  11385  11920  0
11925  11642  11919  0
11642  11925  11649  0
11924  11387  11093  0
11385  11650  11926  0
11385  11926  11920  0
11643  11927  11928  0
11643  11384  11927  0
11384  11659  11927  0
11653  11387  11924  0
11929  11649  11925  0
11649  11929  11658  0
11930  11653  11931  0
11653  11930  11652  0
11932  11652  11930  0
11652  11932  11654  0
11660  11654  11932  0
11660  11933  11661  0
11661  11665  11655  0
11661  11933  11665  0
11666  11665  11933  0
11655  11665  11656  0
11934  11658  11929  0
11658  11934  11398  0
11659  11935  11936  0
11659  11936  11927  0
11659  11651  11935  0
11395  11394  11669  0
11396  11669  11663  0
11657  11397  11663  0
11937  11398  11934  0
11398  11937  11670  0
11938  11670  11937  0
11936  11935  11939  0
11651  11407  11935  0
11674  11408  11671  0
11675  11674  11671  0
11668  11940  11394  0
11670  11938  11673  0
11941  11673  11938  0
11935  11407  11942  0
11935  11942  11939  0
11672  11943  11668  0
11940  11668  11943  0
11672  11676  11943  0
11673  11941  11678  0
11944  11678  11941  0
11945  11678  11944  0
11942  11407  11417  0
11415  11675  11946  0
11415  11946  11692  0
11683  11947  11685  0
11948  11947  11683  0
11685  11676  11411  0
11685  11411  11686  0
11685  11947  11676  0
11943  11676  11947  0
11411  11687  11949  0
11412  11688  11950  0
11678  11945  11690  0
11699  11690  11951  0
11690  11945  11951  0
11951  11942  11699  0
11700  11699  11942  0
11942  11417  11700  0
11694  11948  11679  0
11679  11948  11683  0
11686  11411  11952  0
11686  11952  11697  0
11949  11952  11411  0
11688  11689  11953  0
11954  11953  11689  0
11689  11698  11954  0
11695  11696  11955  0
11956  11955  11696  0
11696  11701  11956  0
11698  11419  11957  0
11702  11957  11419  0
11693  11958  11420  0
11956  11701  11959  0
11701  11697  11959  0
11960  11961  11702  0
11702  11703  11960  0
11962  11960  11703  0
11963  11708  11425  0
11425  11704  11963  0
11710  11964  11711  0
11711  11965  11435  0
11435  11965  11966  0
11435  11966  11713  0
11703  11427  11962  0
11967  11707  11708  0
11968  11963  11704  0
11704  11428  11968  0
11428  11712  11968  0
11713  11966  11714  0
11717  11962  11427  0
11707  11967  11969  0
11707  11969  11432  0
11970  11968  11712  0
11712  11715  11970  0
11716  11971  11972  0
11716  11714  11971  0
11973  11971  11714  0
11432  11969  11719  0
11432  11719  11440  0
11718  11974  11715  0
11972  11718  11716  0
11975  11976  11717  0
11717  11721  11975  0
11977  11721  11444  0
11722  11978  11723  0
11445  11979  11444  0
11977  11444  11979  0
11445  11725  11980  0
11445  11980  11979  0
11981  11723  11978  0
11723  11981  11724  0
11982  11983  11984  0
11982  11985  11983  0
11986  11724  11981  0
11987  11982  11988  0
11982  11984  11988  0
11984  11983  11989  0
11726  11990  11727  0
11725  11728  11991  0
11724  11986  11729  0
11992  11729  11986  0
11992  11732  11447  0
11992  11447  11729  0
11987  11732  11992  0
11987  11988  11732  0
11988  11984  11993  0
11984  11994  11993  0
11984  11989  11994  0
11989  11995  11994  0
11996  11994  11995  0
11170  11449  11730  0
11171  11997  11731  0
11998  11726  11731  0
11990  11726  11998  0
11732  11988  11733  0
11988  11993  11733  0
11994  11996  11993  0
11449  11450  11999  0
12000  11733  11993  0
11734  12001  11450  0
11450  12001  11999  0
11448  11733  12000  0
11448  12000  11735  0
12001  11734  12002  0
12003  11452  11735  0
11734  11736  12002  0
11452  12003  11456  0
11737  11740  11455  0
12004  11456  12003  0
11456  12004  11741  0
11738  11453  12005  0
11454  12006  11461  0
11454  11739  12007  0
11454  12007  12008  0
11454  12008  12006  0
11455  11740  12009  0
11455  12009  11739  0
11741  12004  12010  0
11742  11744  12005  0
11742  12005  11453  0
11461  12006  11752  0
11741  12010  11464  0
11464  11755  11746  0
11464  12010  12011  0
11464  12011  11755  0
11747  11471  12012  0
11467  11753  11743  0
11755  12011  12013  0
11755  12013  11756  0
12014  11757  11477  0
12014  11477  12015  0
11758  11473  12016  0
11473  11474  12017  0
11473  12017  12016  0
11474  11748  12018  0
11474  12018  12017  0
11748  11749  12019  0
11748  12019  12018  0
11749  11759  12019  0
11751  12020  11762  0
11751  11752  12020  0
12015  11477  11482  0
11761  11758  12021  0
12016  12021  11758  0
12019  11759  11765  0
11762  12020  12022  0
11762  12022  11766  0
11754  11485  12023  0
12024  12023  11485  0
11763  12024  11485  0
12025  12015  11482  0
11482  11483  12025  0
11764  12025  11483  0
12021  11764  11761  0
12026  12019  11765  0
11487  11488  12027  0
12028  12027  11488  0
11488  11766  12028  0
11766  12022  12029  0
11767  12026  11765  0
12030  12026  11767  0
12027  12031  11487  0
11487  12031  12032  0
11487  12032  11216  0
12027  12028  12033  0
12034  12033  12028  0
12029  12034  12028  0
12028  11766  12029  0
12035  12036  12037  0
12038  12037  12036  0
12035  12039  12036  0
11774  12030  11768  0
11768  12030  11767  0
12040  11769  11772  0
11772  11222  12040  0
11773  12040  11222  0
12032  12041  11216  0
10933  11771  11775  0
11771  11770  12042  0
12043  11490  11776  0
11774  11489  11777  0
12044  11777  11778  0
11491  12045  11779  0
11491  11775  12045  0
12046  12043  11776  0
11778  11780  12044  0
12047  12044  11780  0
11776  11496  12046  0
11235  12048  12049  0
11780  11781  12047  0
12050  11495  11494  0
11496  11498  12046  0
11782  12046  11498  0
12051  11781  11495  0
11788  11786  11784  0
12052  11502  11792  0
11785  11502  12052  0
12053  12054  11788  0
11505  11511  12055  0
11505  12055  11783  0
12056  11242  11787  0
11242  12056  11249  0
11789  11249  12056  0
11790  11250  11506  0
11508  12057  11792  0
11792  12057  12058  0
12054  11793  11509  0
12054  11509  11788  0
12054  12053  11793  0
12059  11511  11797  0
12055  11511  12059  0
12057  11508  11791  0
11798  11794  11793  0
11798  11793  12060  0
11803  11797  11795  0
12059  11797  12061  0
11515  11798  12060  0
11515  12060  11811  0
12062  11799  11802  0
11799  12062  11801  0
12063  11800  11801  0
11800  12064  11813  0
11800  11813  11526  0
11800  12063  12064  0
12065  12064  12063  0
12066  11813  12064  0
11818  11535  12067  0
12067  11535  11536  0
12068  11262  11808  0
11807  11517  12069  0
11517  11518  12070  0
11518  12071  12070  0
11518  11809  12071  0
11809  11810  12072  0
11521  11811  12073  0
11521  12073  11520  0
12074  11802  11812  0
11813  12075  11814  0
11813  12066  12076  0
11813  12076  12075  0
12075  12076  12077  0
12078  11821  11816  0
12078  11816  12079  0
12078  12080  11821  0
11816  11815  12081  0
11816  12081  12079  0
11815  12082  12081  0
11815  11806  11817  0
11815  11817  12082  0
11817  11534  12083  0
11545  11818  12084  0
11545  12084  12085  0
11545  12085  12086  0
11545  12086  11266  0
11536  11537  12067  0
11537  12087  12067  0
11262  12068  11825  0
11810  11520  12088  0
11520  12073  12088  0
12074  11812  12089  0
11812  11819  12090  0
11812  12090  12089  0
12091  11819  11828  0
12080  12092  11822  0
11822  11821  12080  0
11264  11544  11534  0
11534  11544  12083  0
12093  12083  11544  0
12086  11823  11266  0
11537  11824  12087  0
12094  12087  11824  0
12095  12094  11824  0
11828  11827  12091  0
11832  12091  11827  0
12096  12091  11832  0
11832  11833  12096  0
11544  11553  12093  0
11823  12097  11555  0
11824  11829  12095  0
12098  12095  11829  0
11829  11835  12098  0
12099  12098  11835  0
11557  11831  12100  0
11557  12100  11558  0
11000  12101  11553  0
11835  11838  12099  0
11839  12099  11838  0
11558  12100  12102  0
11558  12102  11836  0
11834  12103  11837  0
12104  11839  11562  0
11562  11836  12104  0
12105  11285  11288  0
11292  12105  11288  0
11842  11565  12106  0
11843  12106  11565  0
12107  12105  11292  0
12108  11846  11845  0
11845  11564  12109  0
11840  12109  11564  0
12110  11844  11837  0
12111  11844  12110  0
11567  12107  11292  0
11293  11846  11855  0
11846  12108  11855  0
12112  11847  11844  0
11844  12111  12112  0
12113  11570  11852  0
11570  12113  11567  0
12114  11855  12108  0
11849  11572  11850  0
12112  11850  11847  0
11851  12115  11852  0
11851  11853  12115  0
12116  12115  11853  0
11854  11855  12114  0
12117  11854  12114  0
11853  11856  12118  0
11853  12118  12119  0
11853  12119  12116  0
11575  12120  11856  0
11575  11576  12120  0
11576  11854  12117  0
12121  11577  12122  0
12123  11577  12121  0
11577  12123  11578  0
11578  12123  11858  0
11857  11580  12124  0
11857  12124  12125  0
11580  11859  12126  0
11580  12126  12124  0
12127  12128  11579  0
12127  11579  11858  0
11579  12128  11860  0
11859  11321  11863  0
11859  11863  12126  0
12127  12129  12128  0
12128  12130  11860  0
11860  12130  11861  0
12131  12132  12133  0
11863  11864  12134  0
12128  12135  12130  0
12136  12130  12135  0
12130  12136  11861  0
12137  11861  12136  0
11861  12137  11862  0
12138  11862  12137  0
11862  12138  11581  0
12139  11581  12138  0
11581  12139  11583  0
12140  11583  12139  0
12133  12141  12142  0
12133  12132  12143  0
12132  12144  12143  0
11583  12140  11585  0
12141  12133  12145  0
12133  12143  12145  0
11864  11584  11866  0
11864  11866  12134  0
11585  12140  12146  0
11585  12146  12147  0
11585  12147  11865  0
12148  12141  12149  0
12148  12142  12141  0
12141  12145  12149  0
12145  12143  12150  0
12145  12150  12149  0
12143  12151  12150  0
11865  12147  12152  0
12148  12149  12153  0
12148  12153  12154  0
12149  12155  12153  0
12149  12150  12155  0
12151  12156  12150  0
11869  12157  11594  0
11865  12152  11869  0
12154  12158  12148  0
12150  12159  12155  0
11594  12157  12160  0
11594  12160  11870  0
12154  12161  12158  0
12154  12153  12161  0
12155  12161  12153  0
12159  12150  12156  0
12159  12156  12162  0
11867  11872  12163  0
12164  12163  11872  0
11596  11595  12165  0
12166  12165  11595  0
11595  11873  12166  0
11871  12167  11877  0
12168  12169  12164  0
11596  12165  11878  0
12170  12166  11873  0
11873  11874  12171  0
12172  12171  11874  0
11875  12172  11874  0
11876  11877  11879  0
12173  11879  11877  0
11877  12167  12174  0
11877  12174  12173  0
12164  11872  12175  0
11601  12175  11872  0
12164  12175  12168  0
11873  12171  12170  0
12176  12171  12172  0
12177  12172  11875  0
11875  11879  12177  0
12178  12177  11879  0
11879  12173  12178  0
12179  12173  12174  0
12175  11601  11881  0
12175  11881  12168  0
12180  11880  11878  0
12172  12177  12176  0
12177  12178  12181  0
12178  12173  12181  0
12182  12181  12173  0
12173  12179  12182  0
12168  11881  12183  0
12181  12182  12184  0
11608  11883  11603  0
11884  11603  11883  0
11884  12185  11604  0
11889  11604  12185  0
12183  11881  11890  0
12183  11890  12186  0
12187  12186  11890  0
12188  11880  12180  0
12189  11887  12190  0
11885  12190  11887  0
12189  12191  11887  0
11887  12191  11888  0
12192  11888  12191  0
11888  12192  11883  0
11884  11883  12192  0
12185  12193  11889  0
11880  12188  11891  0
12189  12190  12194  0
12195  12194  12190  0
12190  11885  12195  0
11892  12195  11885  0
12193  12196  11889  0
11893  11889  12196  0
12187  11890  12197  0
11617  12197  11890  0
12187  12197  12198  0
11891  12188  12199  0
12195  11892  12200  0
12200  11892  11895  0
12201  12200  11895  0
12196  12202  11893  0
12203  11893  12202  0
11894  11893  12203  0
11897  11896  11901  0
11617  11898  12197  0
11891  12199  11367  0
12204  11367  12199  0
11901  12205  11897  0
11901  11900  12206  0
11901  12206  12205  0
11897  12205  11903  0
11621  11903  12205  0
11367  12204  11366  0
11907  11366  12204  0
11905  12207  11904  0
11905  11911  12207  0
11906  11904  12207  0
11895  11899  12208  0
11895  12208  12201  0
12203  12209  11894  0
11894  12209  11623  0
11902  12206  11900  0
11902  11631  12210  0
11902  12210  12206  0
11906  12211  11908  0
12212  11908  12211  0
11908  12213  12214  0
11908  12214  11630  0
11908  12212  12213  0
11623  12209  11624  0
11631  11914  12210  0
11907  12215  11910  0
11911  11912  12216  0
11912  11913  12217  0
11912  12217  12216  0
12214  11917  11630  0
12214  12213  12218  0
12208  11899  12219  0
11899  11909  12219  0
11624  12209  12220  0
11913  11916  12221  0
11913  12221  12217  0
11917  12214  12218  0
11909  11644  12219  0
11377  12222  11634  0
11377  11624  12222  0
11916  11647  11921  0
11917  12223  11919  0
12219  11644  12224  0
11634  12222  11639  0
11635  11915  12225  0
11639  12226  11922  0
11923  12227  11918  0
11641  11635  12228  0
11641  12228  11924  0
11921  11920  12229  0
11919  12230  11925  0
12224  11644  12231  0
12224  12231  12232  0
11644  11643  11928  0
11644  11928  12231  0
12226  12233  11922  0
11922  12233  11923  0
11920  11926  12234  0
11924  12235  11931  0
11924  11931  11653  0
11925  12230  12236  0
11925  12236  11929  0
11927  12231  11928  0
12237  11930  11931  0
11930  12237  12238  0
11930  12238  11932  0
12239  11932  12238  0
12240  11932  12239  0
11932  12240  11660  0
11660  12240  11933  0
11666  11933  12240  0
12241  11926  11650  0
11650  11657  12241  0
12242  12241  11657  0
11929  12236  11934  0
12243  11934  12236  0
11934  12243  11937  0
12244  11937  12243  0
12231  11927  12245  0
11936  12245  11927  0
12238  12246  12239  0
12247  12239  12246  0
12239  12247  12240  0
11671  12240  12247  0
12240  11671  11666  0
12242  11657  11663  0
11937  12244  11938  0
11941  11938  12244  0
12244  12248  11941  0
12245  11936  12249  0
12245  12249  12250  0
12251  12249  11936  0
11936  11939  12251  0
12247  11675  11671  0
12247  12252  11675  0
11394  11940  12253  0
11394  12253  11669  0
12254  11669  12253  0
11669  12254  11663  0
12242  11663  12254  0
12248  12249  11941  0
11944  11941  12249  0
12248  12250  12249  0
12249  12251  11944  0
11942  12251  11939  0
12252  11946  11675  0
12255  11940  11943  0
11940  12255  12253  0
11944  12251  11945  0
11951  11945  12251  0
12251  11942  11951  0
12256  11692  11946  0
12257  11947  12258  0
11947  11948  12258  0
12259  12258  11948  0
11947  12257  11943  0
12260  11949  11687  0
12261  11687  11677  0
11677  11412  12261  0
11412  11950  12261  0
12256  12262  11692  0
11693  11692  12262  0
12256  12263  12262  0
11694  12264  11948  0
12259  11948  12264  0
11694  11695  12264  0
12265  12264  11695  0
11687  12261  12260  0
11950  11688  12266  0
11688  11953  12266  0
11954  11698  11957  0
12262  11958  11693  0
11695  11955  12265  0
11954  11957  12267  0
11957  11702  11961  0
11958  11423  11420  0
11955  11956  11959  0
11955  11959  12268  0
11955  12268  12269  0
11955  12269  12265  0
11697  11952  12270  0
12271  11697  12270  0
11961  11960  12272  0
11958  12273  11423  0
12274  11423  12273  0
11423  12274  11706  0
12268  11959  12275  0
12268  12275  12276  0
12268  12276  12277  0
12268  12277  12269  0
11959  11697  12278  0
11959  12278  12275  0
11697  12271  12278  0
12279  12278  12271  0
12274  12280  11706  0
11706  12280  11709  0
11709  12280  12281  0
11709  12281  11710  0
11710  12281  12282  0
11710  12282  11964  0
11711  11964  12283  0
11711  12283  11965  0
11965  12283  12284  0
11965  12284  11966  0
12285  12276  12286  0
12285  12277  12276  0
12276  12275  12287  0
12275  12278  12287  0
12278  12279  12287  0
11963  11968  12288  0
12286  12276  12289  0
12276  12287  12289  0
12287  12290  12289  0
12287  12279  12290  0
12291  12292  12293  0
12291  12293  12294  0
12291  12295  12296  0
12291  12296  12292  0
12292  12296  12297  0
12292  12298  12293  0
12292  12297  12298  0
12298  12299  12293  0
12298  12297  12300  0
12298  12300  12301  0
12298  12301  12302  0
12298  12302  12299  0
11963  12288  12303  0
11963  12303  11708  0
11968  12304  12288  0
11968  11970  12304  0
11970  11715  11974  0
11971  11973  11972  0
12286  12289  12305  0
12286  12305  12306  0
12286  12306  12307  0
12286  12307  12285  0
12290  12279  12308  0
12290  12308  12309  0
12309  12294  12310  0
12309  12308  12291  0
12309  12291  12294  0
12294  12311  12310  0
12294  12293  12312  0
12294  12312  12311  0
12293  12313  12312  0
12293  12299  12313  0
11717  11976  11962  0
11967  11708  12303  0
11967  12314  11969  0
11970  11974  12315  0
11974  11718  12316  0
11718  11972  12316  0
12289  12290  12317  0
12289  12317  12305  0
12290  12309  12318  0
12290  12318  12317  0
12309  12310  12319  0
12309  12319  12318  0
12310  12311  12319  0
12311  12312  12320  0
12311  12320  12321  0
12312  12313  12322  0
12312  12322  12320  0
12313  12323  12322  0
12313  12299  12323  0
11719  11969  12324  0
12305  12317  12325  0
12317  12318  12326  0
12318  12319  12327  0
12321  12327  12319  0
12319  12311  12321  0
11719  12324  11720  0
12328  12306  12305  0
12305  12325  12328  0
12325  12317  12329  0
11976  11975  12330  0
11722  11720  12331  0
11720  12324  12331  0
12332  11975  11721  0
11978  11722  12331  0
12331  12333  11978  0
11721  11977  12332  0
11978  12334  11981  0
11986  11981  12334  0
11987  12335  12336  0
12336  11982  11987  0
12337  11982  12336  0
11982  12337  11985  0
12338  11983  11985  0
12339  11983  12338  0
11983  12339  11989  0
12340  11980  11725  0
11986  12334  11992  0
11987  11992  12335  0
11992  12341  12335  0
11989  12339  11995  0
12342  11995  12339  0
11728  11727  11991  0
12340  11725  11991  0
11995  12342  11996  0
12343  11996  12342  0
12344  11171  11730  0
11171  12344  11997  0
12345  11731  11997  0
11731  12345  11998  0
11990  12346  11727  0
11727  12346  11991  0
11993  11996  12347  0
12348  12347  11996  0
11996  12343  12348  0
11449  11999  11730  0
12344  11730  11999  0
11993  12347  12000  0
11999  12001  12349  0
12002  12349  12001  0
12350  12349  12002  0
12002  12351  12350  0
12352  12353  12351  0
12351  12353  12350  0
12354  12003  11735  0
12002  11736  12351  0
12355  12351  11736  0
12351  12355  12352  0
12356  12352  12355  0
12003  12354  12004  0
11736  11738  12355  0
12357  12355  11738  0
12355  12357  12356  0
12358  12356  12357  0
12359  12004  12354  0
11738  12005  12357  0
12357  12005  12358  0
12360  12358  12005  0
12361  12007  11739  0
11739  12009  12361  0
12362  12009  11740  0
12004  12359  12010  0
11744  12363  12005  0
12005  12363  12360  0
12007  12364  12008  0
12365  12008  12364  0
11740  11743  12362  0
12010  12366  12011  0
12012  12367  11747  0
11747  12367  11472  0
12368  11472  12367  0
11472  12368  11744  0
11744  12368  12363  0
12006  12008  11752  0
12008  12365  11752  0
11743  12369  12362  0
12011  12366  12370  0
12011  12370  12013  0
12014  12371  12372  0
12014  12372  11757  0
12014  12015  12371  0
11757  12372  12373  0
11757  12373  11471  0
11471  12373  12012  0
11752  12365  12020  0
11753  11754  12023  0
11753  12023  12369  0
11753  12369  11743  0
12013  12370  11756  0
12015  12025  12374  0
12021  12016  12375  0
12016  12017  12376  0
12016  12376  12375  0
12017  12018  12376  0
12018  12019  12376  0
12020  12365  12377  0
12020  12377  12022  0
12369  12023  12378  0
12023  12024  12378  0
12024  11763  12379  0
11763  11760  12379  0
11760  12380  12379  0
11760  11756  12380  0
12025  11764  12381  0
12025  12381  12374  0
11764  12021  12382  0
11764  12382  12381  0
12021  12375  12382  0
12376  12026  12383  0
12376  12383  12384  0
12376  12384  12375  0
12376  12019  12026  0
12022  12377  12037  0
12022  12037  12029  0
12377  12035  12037  0
12377  12365  12385  0
12377  12385  12035  0
12383  12026  12030  0
12027  12033  12386  0
12027  12386  12387  0
12027  12387  12031  0
12033  12034  12388  0
12033  12388  12386  0
12029  12389  12034  0
12029  12037  12038  0
12029  12038  12389  0
12035  12385  12039  0
12039  12385  12390  0
12039  12390  12036  0
12030  12391  12383  0
12030  11774  12392  0
12030  12392  12391  0
11769  12040  12393  0
12041  12032  12394  0
12034  12395  12388  0
12034  12389  12395  0
12038  12036  12396  0
12038  12396  12389  0
12036  12390  12397  0
11774  12398  12392  0
11769  12393  11770  0
12399  12393  12040  0
12040  11773  12399  0
12400  12399  11773  0
11773  11490  12400  0
12401  12402  12395  0
12395  12389  12401  0
12403  12401  12389  0
12389  12396  12403  0
12396  12036  12403  0
12397  12403  12036  0
12045  11775  12404  0
11771  12404  11775  0
11490  12043  12400  0
12405  12406  12044  0
11494  11779  12050  0
12404  11779  12045  0
12049  12407  11235  0
12408  11235  12407  0
12044  12047  12405  0
12409  12405  12047  0
12047  11781  12409  0
12051  12409  11781  0
12050  12051  11495  0
12046  11782  12043  0
12410  12043  11782  0
12411  11235  12408  0
11782  11783  12410  0
12412  12410  11783  0
11235  12411  11497  0
12413  11784  11785  0
11784  12413  11788  0
12414  12412  11783  0
11499  11497  11787  0
12415  11787  11497  0
12056  11787  12415  0
11788  12413  12053  0
11783  12055  12414  0
12416  11506  11789  0
11506  12416  11790  0
11791  11507  11790  0
12417  12052  11792  0
12418  11793  12053  0
12055  12059  12061  0
12418  12060  11793  0
12419  12065  12063  0
12420  12065  12419  0
12065  12421  12064  0
12066  12064  12421  0
12065  12420  12421  0
12422  12066  12421  0
12423  12066  12422  0
12424  11797  11803  0
12424  12425  11797  0
12061  11797  12425  0
11802  12426  12062  0
12427  12062  12426  0
11802  12074  12426  0
12428  12426  12074  0
12062  12427  11801  0
12063  11801  12427  0
12066  12423  12076  0
12077  12076  12423  0
12429  12430  12084  0
12084  12430  12085  0
12084  11818  12429  0
11818  12067  12429  0
12431  12429  12067  0
12067  12432  12431  0
12432  12067  12087  0
12432  12087  12433  0
12069  11808  11807  0
12069  11517  12434  0
12070  12434  11517  0
12074  12089  12428  0
12435  12092  12080  0
12435  12436  12092  0
12435  12080  12078  0
12078  12079  12435  0
12079  12081  12437  0
12081  12082  12437  0
12082  11817  12438  0
11817  12083  12439  0
11817  12439  12438  0
12087  12094  12433  0
11810  12088  12440  0
12089  12090  12441  0
11819  12091  12442  0
11819  12442  12090  0
12443  12092  12436  0
12083  12093  12444  0
12083  12444  12439  0
11823  12086  12097  0
12094  12095  12433  0
11825  12445  11549  0
11825  11549  11826  0
12091  12096  12442  0
12095  12098  12446  0
12098  12447  12446  0
11553  12448  12093  0
11553  12101  12448  0
11555  12097  12449  0
11555  12449  11834  0
11830  12450  11831  0
11831  12450  12451  0
11831  12451  12100  0
11834  12449  12103  0
12099  11839  12452  0
12100  12451  12102  0
11285  12105  12453  0
11285  12101  11000  0
12104  11836  12454  0
11836  12102  12454  0
11840  11841  12455  0
11840  12455  12109  0
11841  11842  12456  0
11841  12456  12455  0
11842  12106  12456  0
11843  11566  12457  0
11837  12458  12110  0
11837  12103  12458  0
12107  12459  12460  0
12107  12460  12105  0
11845  12109  12461  0
11845  12461  12108  0
12462  11567  12113  0
11567  12462  12107  0
12461  12463  12108  0
11566  11848  12464  0
12465  12464  11848  0
12466  11852  12115  0
11852  12466  12113  0
12108  12463  12114  0
11848  11849  12465  0
12467  12465  11849  0
11849  11850  12467  0
12468  12467  11850  0
11850  12112  12468  0
12115  12116  12469  0
12463  12117  12114  0
12118  12116  12119  0
12470  12120  11576  0
11576  12117  12470  0
12120  12118  11856  0
12121  12471  12123  0
12472  12123  12471  0
11858  12123  12472  0
12125  12124  12473  0
12474  12473  12124  0
12471  12475  12472  0
12472  12127  11858  0
12124  12126  12474  0
12476  12474  12126  0
12472  12477  12478  0
12478  12129  12127  0
12478  12127  12472  0
12479  12480  12144  0
12481  12144  12480  0
12126  11863  12476  0
12482  12476  11863  0
12483  12129  12478  0
12129  12483  12128  0
12135  12128  12483  0
12484  12132  12131  0
12132  12484  12144  0
12479  12144  12484  0
11863  12134  12482  0
12136  12485  12137  0
12486  12137  12485  0
12137  12486  12138  0
12146  12140  12139  0
12133  12142  12131  0
12144  12481  12143  0
12487  12143  12481  0
12482  12134  12488  0
12478  12489  12483  0
12490  12483  12489  0
12491  12483  12490  0
12483  12491  12135  0
12492  12135  12491  0
12135  12492  12136  0
12136  12492  12485  0
12493  12485  12492  0
12485  12494  12486  0
12495  12486  12494  0
12485  12493  12494  0
12143  12487  12151  0
12496  12151  12487  0
12146  12497  12147  0
12148  12498  12142  0
12488  12134  12499  0
12488  12499  12500  0
12488  12500  12501  0
12134  11866  11867  0
12134  11867  12499  0
12490  12502  12491  0
12493  12492  12503  0
12504  12505  12506  0
12504  12148  12507  0
12504  12506  12498  0
12504  12498  12148  0
12151  12496  12508  0
12151  12508  12156  0
12500  12509  12501  0
11869  12510  12511  0
11869  12511  12157  0
11869  12152  12510  0
12512  12513  12514  0
12512  12514  12515  0
12512  12516  12513  0
12512  12515  12517  0
12512  12517  12516  0
12516  12517  12504  0
12504  12507  12516  0
12507  12148  12158  0
12508  12509  12518  0
12508  12518  12156  0
12500  12499  12509  0
12499  11867  12163  0
12157  12511  12519  0
12157  12519  12160  0
12520  12513  12521  0
12520  12514  12513  0
12520  12522  12514  0
12513  12523  12521  0
12516  12524  12513  0
12516  12507  12525  0
12516  12525  12524  0
12507  12158  12525  0
12158  12526  12525  0
12158  12161  12526  0
12156  12518  12162  0
12509  12499  12169  0
12499  12163  12169  0
12521  12527  12520  0
12513  12524  12528  0
12513  12528  12523  0
12524  12525  12529  0
12524  12529  12528  0
12525  12526  12530  0
12525  12530  12529  0
12526  12531  12530  0
12526  12161  12532  0
12526  12532  12531  0
12161  12155  12533  0
12161  12533  12532  0
12155  12159  12533  0
12159  12162  12533  0
12162  12534  12533  0
12162  12535  12534  0
12162  12518  12535  0
12518  12509  12536  0
12518  12536  12535  0
12509  12169  12536  0
11870  12160  12537  0
11870  12537  11871  0
12521  12523  12538  0
12521  12538  12539  0
12523  12528  12540  0
12523  12540  12538  0
12169  12163  12164  0
11871  12537  12167  0
12528  12529  12541  0
12528  12541  12540  0
12529  12530  12542  0
12529  12542  12543  0
12529  12543  12541  0
12532  12533  12531  0
12533  12534  12544  0
12535  12536  12545  0
12536  12169  12168  0
12536  12168  12545  0
12170  12165  12166  0
12167  12546  12174  0
12540  12541  12547  0
12548  12544  12534  0
12534  12535  12548  0
12545  12548  12535  0
12549  11878  12165  0
12165  12170  12549  0
12550  12170  12171  0
12171  12176  12550  0
12174  12546  12179  0
12551  12547  12541  0
12545  12168  12183  0
11878  12549  12180  0
12552  12549  12170  0
12170  12550  12552  0
12181  12176  12177  0
12179  12546  12553  0
12179  12553  12182  0
12548  12545  12554  0
12186  12554  12545  0
12545  12183  12186  0
12555  12180  12549  0
12549  12552  12555  0
12552  12550  12556  0
12550  12176  12557  0
12550  12557  12556  0
12176  12181  12557  0
12184  12557  12181  0
12182  12553  12558  0
12559  12558  12553  0
12187  12554  12186  0
12180  12555  12188  0
12556  12555  12552  0
12560  12556  12557  0
12557  12184  12561  0
12562  12561  12184  0
12184  12182  12562  0
12558  12562  12182  0
12563  12191  12189  0
12564  12189  12194  0
12565  12191  12563  0
12191  12565  12192  0
12566  12192  12565  0
12192  12566  11884  0
11884  12566  12185  0
12567  12185  12566  0
12185  12567  12193  0
12554  12187  12568  0
12198  12568  12187  0
12557  12561  12560  0
12569  12560  12561  0
12561  12562  12569  0
12570  12569  12562  0
12562  12558  12571  0
12572  12571  12558  0
12562  12571  12570  0
12573  12570  12571  0
12558  12559  12572  0
12574  12194  12575  0
12195  12575  12194  0
12564  12194  12574  0
12565  12576  12566  0
12196  12193  12567  0
12188  12577  12199  0
12560  12569  12578  0
12579  12560  12578  0
12580  12570  12573  0
12575  12195  12581  0
12200  12581  12195  0
12582  12575  12581  0
12566  12583  12567  0
12584  12567  12583  0
12567  12585  12196  0
12202  12196  12585  0
12199  12577  12586  0
12587  12569  12570  0
12570  12580  12587  0
12588  12587  12580  0
12201  12581  12200  0
12567  12589  12585  0
12567  12584  12589  0
12590  12197  11898  0
12199  12586  12204  0
12591  12204  12586  0
12578  12569  12592  0
12593  12592  12569  0
12578  12592  12579  0
12569  12587  12593  0
12201  12594  12581  0
12581  12594  12582  0
12595  12589  12584  0
12205  12596  11621  0
11621  12596  11898  0
12590  11898  12596  0
12204  12591  11907  0
12592  12593  12597  0
12593  12587  12597  0
12207  11911  12216  0
12207  12216  12211  0
12207  12211  11906  0
12594  12598  12582  0
12599  12589  12595  0
12589  12599  12600  0
12589  12600  12585  0
12585  12600  12202  0
12202  12600  12601  0
12202  12601  12203  0
12206  12602  12205  0
12596  12205  12602  0
11907  12591  12603  0
11907  12603  12215  0
12591  12604  12603  0
12216  12605  12211  0
12211  12605  12606  0
12211  12606  12212  0
12212  12607  12213  0
12608  12213  12607  0
12212  12606  12607  0
12213  12609  12218  0
12213  12608  12609  0
12610  12609  12608  0
12611  12609  12610  0
12598  12594  12612  0
12598  12612  12611  0
12594  12201  12613  0
12201  12208  12613  0
12601  12614  12203  0
12203  12614  12209  0
12210  12615  12602  0
12210  12602  12206  0
12216  12217  12605  0
12605  12616  12606  0
12609  12612  12617  0
12609  12617  12218  0
12609  12611  12612  0
12600  12599  12618  0
12600  12618  12601  0
12614  12619  12209  0
12209  12619  12220  0
12210  11914  12620  0
12210  12620  12615  0
12215  12603  12621  0
12215  12621  11910  0
12217  12622  12616  0
12217  12616  12605  0
12217  12221  12622  0
12218  12617  12223  0
12218  12223  11917  0
12612  12594  12623  0
12612  12623  12617  0
12594  12613  12624  0
12594  12624  12623  0
12208  12219  12613  0
12618  12625  12601  0
12601  12625  12614  0
12614  12625  12619  0
11624  12220  12222  0
11910  12621  12626  0
11910  12626  11915  0
12221  11916  12627  0
12221  12627  12622  0
12617  12623  12628  0
12617  12628  12223  0
12219  12224  12613  0
12222  12220  12629  0
11914  11918  12630  0
11914  12630  12620  0
12225  11915  12626  0
11916  11921  12631  0
11916  12631  12627  0
12223  12628  12230  0
12223  12230  11919  0
12623  12624  12632  0
12623  12632  12628  0
12613  12224  12624  0
12633  12624  12224  0
12232  12633  12224  0
12629  12634  12222  0
12222  12634  11639  0
12226  11639  12634  0
11918  12227  12630  0
12228  11635  12635  0
12225  12635  11635  0
12229  12631  11921  0
12628  12632  12230  0
12624  12633  12632  0
12634  12629  12636  0
12634  12636  12637  0
12634  12637  12226  0
12226  12637  12233  0
12233  12638  11923  0
11923  12638  12227  0
11924  12228  12639  0
11924  12639  12235  0
11920  12234  12229  0
12236  12230  12632  0
12640  12236  12632  0
12632  12633  12640  0
12641  12640  12633  0
12633  12232  12641  0
12232  12231  12641  0
12642  12234  11926  0
12243  12236  12640  0
12640  12641  12243  0
12643  12243  12641  0
12641  12231  12643  0
12245  12643  12231  0
11931  12235  12644  0
11931  12644  12237  0
11926  12241  12642  0
12243  12643  12244  0
12248  12244  12643  0
12643  12245  12248  0
12250  12248  12245  0
12238  12237  12246  0
12645  12246  12237  0
12252  12247  12246  0
12646  12246  12645  0
12246  12646  12252  0
12254  12647  12242  0
12646  11946  12252  0
11943  12257  12255  0
12648  12255  12257  0
12649  12255  12648  0
12255  12649  12253  0
12650  12253  12649  0
12253  12650  12254  0
12256  11946  12263  0
12646  12263  11946  0
12258  12651  12257  0
12652  12257  12651  0
12258  12259  12651  0
12648  12257  12652  0
12262  12263  12653  0
12653  12263  12654  0
12264  12655  12259  0
12656  12259  12655  0
12264  12265  12655  0
12657  12655  12265  0
12651  12259  12656  0
11949  12260  11952  0
12261  11950  12658  0
11950  12266  12658  0
12659  12658  12266  0
12266  11953  12659  0
11953  12660  12659  0
12653  11958  12262  0
12265  12661  12657  0
11952  12662  12270  0
11952  12260  12662  0
11953  11954  12660  0
11954  12267  12660  0
12267  11957  11961  0
12267  11961  12663  0
12653  12664  11958  0
12273  11958  12664  0
12265  12269  12661  0
12270  12665  12271  0
12270  12662  12665  0
12662  12666  12665  0
12667  12665  12666  0
11961  12272  12668  0
11961  12668  12663  0
12282  12669  11964  0
12282  12670  12669  0
12671  12669  12670  0
12669  12283  11964  0
12669  12671  12283  0
12672  12283  12671  0
12283  12672  12284  0
12672  12673  12284  0
12674  12284  12673  0
12269  12277  12675  0
12269  12675  12661  0
12271  12665  12676  0
12271  12676  12279  0
12665  12667  12676  0
12274  12677  12280  0
12284  12678  11966  0
12284  12674  12678  0
12285  12679  12277  0
12277  12679  12680  0
12277  12680  12675  0
12279  12676  12295  0
12279  12295  12308  0
12676  12296  12295  0
12676  12667  12296  0
12681  12296  12667  0
12296  12681  12297  0
12682  12297  12681  0
12297  12682  12300  0
12300  12682  12683  0
12683  12301  12300  0
12272  11960  11962  0
12272  11962  12684  0
12272  12684  12685  0
12272  12685  12668  0
12678  11973  11714  0
12678  11714  11966  0
12678  12686  11973  0
12679  12687  12680  0
12308  12295  12291  0
12301  12683  12688  0
12301  12689  12302  0
12301  12688  12690  0
12301  12690  12689  0
12689  12691  12302  0
12304  12315  12288  0
12304  11970  12315  0
12316  11972  12692  0
11972  12693  12692  0
11972  11973  12686  0
11972  12686  12693  0
12285  12307  12679  0
12679  12694  12687  0
12302  12695  12299  0
12302  12696  12695  0
12302  12691  12696  0
12684  12697  12685  0
12684  11962  11976  0
12684  11976  12330  0
12303  12288  12698  0
12288  12315  12698  0
12315  12699  12698  0
12315  11974  12699  0
11974  12316  12692  0
11974  12692  12699  0
12307  12694  12679  0
12320  12700  12701  0
12320  12701  12321  0
12320  12322  12700  0
12323  12299  12702  0
12299  12695  12702  0
12695  12696  12702  0
12703  12702  12696  0
12684  12330  12697  0
11969  12314  12324  0
12704  12324  12314  0
12303  12314  11967  0
12307  12306  12705  0
12706  12705  12306  0
12318  12327  12326  0
12707  12326  12327  0
12701  12327  12321  0
12697  12330  12708  0
12331  12324  12704  0
12306  12328  12706  0
12317  12326  12329  0
12709  12329  12326  0
12326  12707  12709  0
12330  11975  12710  0
12331  12704  12333  0
12329  12328  12325  0
12333  12711  11978  0
12334  11978  12711  0
12334  12711  12712  0
12712  12713  12341  0
12341  12714  12335  0
12336  12335  12714  0
12341  12713  12714  0
12714  12337  12336  0
11985  12337  12715  0
12337  12714  12715  0
11985  12715  12716  0
11985  12716  12338  0
12338  12717  12339  0
12718  12339  12717  0
12338  12716  12717  0
12719  11977  11979  0
11992  12334  12712  0
12712  12341  11992  0
12339  12718  12720  0
12721  12339  12720  0
11980  12719  11979  0
11980  12340  12719  0
12339  12721  12342  0
12722  12342  12721  0
12342  12722  12343  0
12723  12343  12722  0
11997  12344  12345  0
11990  11998  12346  0
12724  12346  11998  0
12346  12725  11991  0
11991  12725  12340  0
12343  12723  12348  0
12726  12348  12723  0
12349  12344  11999  0
12350  12344  12349  0
12344  12727  12345  0
12728  12345  12727  0
12345  12728  11998  0
12724  11998  12728  0
12729  12000  12347  0
12347  12348  12729  0
12726  12729  12348  0
