#!ascii file
6461  6462  6463  0
6168  6461  6464  0
6168  6464  6160  0
6160  6464  6465  0
6160  6465  6161  0
6161  6465  6466  0
6161  6466  6467  0
5542  5556  6468  0
6458  5861  6469  0
5861  6163  6470  0
5861  6470  6469  0
6163  6471  6470  0
6158  6472  6164  0
6158  6460  6472  0
6472  6174  6164  0
6472  6167  6174  0
6472  6460  6462  0
6472  6462  6167  0
6167  6166  6174  0
6162  6161  6467  0
6162  6467  6473  0
5556  5869  6468  0
6474  6468  5869  0
6163  6169  6475  0
6163  6475  6471  0
6169  6171  6475  0
6476  6475  6171  0
6473  6477  6176  0
6176  6162  6473  0
6478  6474  5869  0
6171  6178  6476  0
6479  6476  6178  0
6178  6179  6479  0
6480  6479  6179  0
6477  6480  6179  0
6179  6176  6477  0
5869  6182  6478  0
6481  6478  6182  0
5549  6482  5562  0
6185  6177  6181  0
6483  6177  6185  0
6177  6483  6180  0
6180  6484  5872  0
6182  5872  6484  0
6483  6185  6485  0
6486  6485  6185  0
6486  6185  6184  0
6183  6186  5873  0
6487  6184  6187  0
6487  6187  6190  0
6188  6488  5877  0
6489  6190  6195  0
6490  6190  6489  0
6491  6489  6195  0
6190  6490  6487  0
6492  5877  6493  0
5877  6492  5885  0
5880  6198  6197  0
6494  6191  6197  0
6191  6494  6192  0
6192  6494  6193  0
6199  6193  6494  0
6199  6495  6195  0
6195  6495  6491  0
6200  6496  6201  0
6497  6201  6496  0
6201  6202  5889  0
5897  5902  6498  0
5897  6498  6203  0
6499  6197  6198  0
6198  6196  6500  0
6197  6499  6494  0
6494  6501  6199  0
6502  6204  6206  0
6502  6503  6504  0
6502  6504  6204  0
6502  6206  6505  0
6201  6497  6506  0
6201  6506  6202  0
6202  6506  6507  0
6202  6507  5893  0
5893  6507  5896  0
6498  5902  6211  0
6498  6508  6203  0
6498  6211  6508  0
6203  6508  6500  0
6203  6500  6196  0
6206  6208  6505  0
6208  6209  6215  0
6208  6215  6509  0
5898  5899  6510  0
5899  6511  6510  0
5899  6210  6511  0
5900  6512  6210  0
5900  5901  6512  0
5896  6507  6513  0
6211  5594  6220  0
6211  6220  6508  0
6514  6214  6204  0
6215  6217  6515  0
6215  6515  6509  0
6217  6216  6224  0
6217  6224  6516  0
6217  6516  6515  0
6511  6210  6517  0
6512  5901  6513  0
5901  5896  6513  0
5912  6221  6518  0
5912  6518  6220  0
6214  6226  6212  0
6214  6514  6519  0
6214  6519  6226  0
6224  5910  6520  0
5910  6521  6520  0
5910  6218  6521  0
5600  6522  6219  0
5898  6510  5922  0
6510  6232  5922  0
6222  6225  6523  0
6222  6523  6221  0
6227  6524  6231  0
6524  6519  6525  0
6524  6525  6231  0
6524  6227  6226  0
6524  6226  6519  0
5600  6526  6522  0
5932  6527  6228  0
6225  6223  6523  0
6230  6523  6223  0
6231  6230  6229  0
6236  6526  5600  0
6528  5931  6233  0
6529  5932  5940  0
6234  6228  6527  0
6530  5935  6237  0
5935  6530  5936  0
6238  6531  6239  0
6239  6532  5939  0
6240  5939  6532  0
6249  5940  5947  0
5940  6249  6529  0
6533  6529  6249  0
6534  6235  6234  0
6235  6534  6241  0
6535  6236  6242  0
6536  6256  6243  0
6244  6536  6243  0
6244  6245  6537  0
6247  6537  6245  0
6538  6240  6532  0
6240  6539  6248  0
6540  6248  6539  0
6240  6538  6539  0
6249  6250  6533  0
6541  6533  6250  0
6250  6251  6541  0
6542  6541  6251  0
6241  6543  5941  0
6544  5941  6543  0
5941  6544  5951  0
6253  6545  6252  0
6254  6262  6546  0
6546  6262  6547  0
6255  6547  6262  0
6548  6547  6255  0
6255  6256  6548  0
6549  6537  6247  0
6247  6257  6549  0
6550  6257  6248  0
6248  6540  6551  0
6248  6551  6550  0
6258  6552  6251  0
6251  6552  6542  0
6553  6542  6552  0
6554  5951  6544  0
5951  6554  6259  0
6259  6264  5958  0
6259  6554  6264  0
6555  6264  6554  0
6265  6556  6557  0
6265  6555  6556  0
6266  6265  6557  0
6557  6267  6266  0
6268  6267  6558  0
6559  6268  6558  0
6260  6560  6242  0
6258  6263  6273  0
6258  6273  6561  0
6258  6561  6552  0
6264  6555  6265  0
6268  6559  6562  0
6268  6562  6269  0
6269  6563  6270  0
6269  6562  6563  0
6270  6274  5963  0
6271  6564  6560  0
6271  6560  6260  0
5641  6261  6275  0
6563  6565  6270  0
6270  6565  6274  0
5964  6274  6566  0
5964  6566  6271  0
6273  6567  6561  0
6273  6277  6567  0
6277  6278  6568  0
6277  6568  6567  0
6275  6569  5659  0
5659  6569  6570  0
6278  6280  6571  0
6280  6282  6571  0
6284  6283  6572  0
5659  6570  5972  0
5972  6570  5973  0
5973  6573  5974  0
5974  6573  6286  0
6282  6281  6574  0
6281  5975  6291  0
6281  6291  6575  0
6281  6575  6574  0
6291  5975  6289  0
6291  6576  6575  0
6291  6293  6577  0
6291  6577  6576  0
6293  6294  6578  0
6293  6578  6577  0
6294  6579  6580  0
6294  6580  6578  0
6579  6294  6581  0
5976  6582  6287  0
5976  5662  6583  0
5976  6583  6582  0
5662  5664  6583  0
6288  6584  5666  0
6294  6292  6581  0
6298  6581  6292  0
6585  6581  6298  0
6298  6303  6295  0
5979  6295  6303  0
6298  6295  6585  0
6586  6585  6295  0
6295  6287  6586  0
6583  6287  6582  0
6583  5664  6587  0
6588  6587  5664  0
5664  5990  6588  0
5971  6284  5991  0
6589  5666  6584  0
5666  6589  6296  0
6590  6297  6296  0
6591  6592  5985  0
5985  6301  6591  0
6306  6301  5680  0
6301  6306  6593  0
6594  6593  6306  0
6595  6297  6590  0
6297  6595  6302  0
6596  6302  6595  0
5990  6310  6588  0
6597  6588  6310  0
6598  5676  5991  0
5996  5676  6598  0
6599  6305  6300  0
6306  6307  6594  0
6600  6307  6308  0
6601  6309  6302  0
6302  6596  6601  0
5995  6602  6310  0
6597  6310  6602  0
5995  6311  6602  0
6603  6602  6311  0
6305  6599  6313  0
6604  6313  6599  0
6308  6314  6600  0
6605  6600  6314  0
6314  6309  6605  0
6606  6605  6309  0
6309  6601  6606  0
6607  6601  6596  0
5997  6608  6311  0
6603  6311  6608  0
5997  6317  6608  0
6609  6000  5996  0
6610  6312  6315  0
6313  6604  6316  0
6606  6601  6611  0
6607  6611  6601  0
6319  6317  6007  0
6319  6608  6317  0
6612  6001  6000  0
6613  6315  6002  0
6614  6318  6004  0
6004  6005  6614  0
6615  6614  6005  0
6005  6006  6615  0
6616  6615  6006  0
6006  6316  6616  0
6319  6320  6617  0
6612  6320  6001  0
6002  6321  6613  0
6003  6318  6322  0
6618  6614  6615  0
6619  6318  6614  0
6615  6616  6618  0
6318  6619  6620  0
6318  6620  6322  0
6621  6322  6620  0
6010  6325  6323  0
6324  6322  6621  0
6324  6621  6009  0
6331  6333  6622  0
6331  6622  6332  0
6332  6622  6623  0
6332  6623  6328  0
6328  6623  6624  0
6328  6624  6625  0
6328  6625  6329  0
6329  6625  6626  0
6329  6626  6334  0
6333  6335  6627  0
6622  6628  6623  0
6623  6628  6629  0
6623  6629  6624  0
6624  6630  6625  0
6337  6334  6626  0
6348  6631  6632  0
6348  6632  6345  0
6348  6351  6631  0
6345  6632  6633  0
6345  6633  6346  0
6346  6633  6634  0
6336  6635  6627  0
6336  6627  6335  0
6336  6341  6635  0
6337  6626  6636  0
6340  6343  6637  0
6346  6634  6638  0
6346  6638  6347  0
6341  6639  6635  0
6342  6031  6640  0
6031  6337  6641  0
6031  6641  6640  0
6337  6636  6641  0
6343  6350  6637  0
6351  6347  6642  0
6351  6642  6643  0
6347  6638  6642  0
6349  6639  6341  0
6342  6640  6354  0
6352  6036  6644  0
5729  6645  6350  0
6646  6359  6357  0
6646  6357  6647  0
6646  6647  6648  0
6356  6649  6644  0
6356  6644  6036  0
6356  6043  6649  0
6650  6649  6043  0
5729  5733  6645  0
6651  6645  5733  0
6044  6358  6357  0
6652  6357  6358  0
6357  6652  6647  0
6048  6359  6653  0
6048  6653  6360  0
6360  6653  6650  0
6360  6650  6043  0
6654  6361  6355  0
6355  6353  6654  0
6362  6654  6353  0
6353  6041  6362  0
5445  6354  5748  0
6655  5748  6354  0
6656  5733  5743  0
5733  6656  6651  0
6363  6657  6364  0
6368  6367  6658  0
6658  6659  6368  0
6658  6660  6659  0
6661  6659  6660  0
6369  6368  6659  0
6662  6659  6661  0
6659  6371  6369  0
6659  6662  6371  0
6663  6371  6662  0
6358  6664  6652  0
6358  6365  6664  0
6665  6664  6365  0
6654  6366  6361  0
5743  6374  6656  0
6371  6663  6370  0
6372  6370  6663  0
6365  6376  6665  0
6654  6373  6366  0
6654  6362  6666  0
6362  6053  6667  0
6063  6387  6053  0
6053  6387  6667  0
5748  6655  5768  0
6668  6372  6669  0
6375  6372  6668  0
6376  6377  6665  0
6670  6665  6377  0
6377  6381  6670  0
6671  6670  6381  0
6378  6373  6383  0
6666  6383  6373  0
6373  6654  6666  0
6672  5768  6655  0
5452  6379  6374  0
6381  6382  6671  0
6673  6671  6382  0
6062  6383  6384  0
6383  6666  6674  0
6675  6674  6666  0
6383  6674  6384  0
5768  6672  6081  0
6669  6676  6677  0
6669  6677  6668  0
6669  6678  6676  0
6679  6676  6678  0
6668  6677  6386  0
6668  6386  6375  0
6382  6089  6397  0
6382  6397  6673  0
6384  6398  6079  0
6387  6080  6680  0
6081  6672  6681  0
5774  6064  6390  0
6064  6380  6682  0
6064  6682  6390  0
6380  6385  6682  0
6385  6389  6682  0
6683  6684  6685  0
6683  6685  6676  0
6683  6676  6679  0
6683  6679  6686  0
6683  6686  6684  0
6676  6685  6395  0
6676  6395  6677  0
6677  6395  6393  0
6677  6393  6386  0
6073  5773  6687  0
6682  6389  6688  0
6684  6406  6685  0
6080  6400  6680  0
6081  6681  6085  0
5773  5785  6687  0
6391  6689  5801  0
6688  6389  6392  0
6688  6392  6690  0
6685  6406  6401  0
6685  6401  6395  0
6403  6691  6396  0
6403  6396  6088  0
6399  6398  6404  0
6084  6414  6400  0
5801  6689  6692  0
6392  6405  6690  0
6684  6693  6408  0
6684  6408  6406  0
6410  6694  6411  0
6098  6411  6691  0
6098  6691  6403  0
6404  6695  6412  0
5785  6104  6687  0
6690  6405  6696  0
6697  6410  6103  0
6412  6695  6417  0
6698  6413  6100  0
5801  6692  6105  0
6696  6405  6419  0
6699  6408  6693  0
6415  6408  6699  0
6700  6416  6420  0
6416  6700  6421  0
6422  6107  6421  0
6103  6109  6697  0
6701  6697  6109  0
6702  6110  6113  0
6113  6417  6702  0
6100  6423  6698  0
6692  6703  6105  0
6105  6703  6114  0
6419  6427  6696  0
6415  6704  6420  0
6424  6422  6421  0
6109  6425  6701  0
6705  6701  6425  0
6432  6706  6427  0
6696  6427  6706  0
6425  6429  6705  0
6707  6705  6429  0
6120  6426  6430  0
6708  6423  6431  0
6706  6432  6709  0
6136  6434  6439  0
6710  6439  6434  0
6434  6128  6711  0
6712  6711  6128  0
6128  6129  6712  0
6713  6712  6129  0
6129  6428  6713  0
6429  6435  6707  0
6714  6707  6435  0
6715  6430  6716  0
6708  6431  6436  0
6114  6717  5832  0
6444  6134  6438  0
6444  6438  6718  0
6719  6718  6438  0
6720  6444  6718  0
6438  6439  6719  0
6710  6719  6439  0
6435  6440  6721  0
6435  6721  6714  0
6430  6715  6441  0
6143  6722  6436  0
6143  6144  6722  0
5832  6717  6442  0
6437  6723  6433  0
6445  6444  6720  0
6445  6720  6724  0
6441  6715  6725  0
6441  6725  6726  0
5847  6727  6728  0
5847  6728  6144  0
5847  6449  6727  0
6437  6133  6729  0
6437  6729  6723  0
6443  6445  6450  0
6443  6450  6133  0
6445  6724  6450  0
6141  6446  6440  0
6442  6730  5851  0
6729  6133  6151  0
6729  6151  6150  0
6729  6150  6456  0
6450  6724  6451  0
6446  6452  6731  0
6446  6731  6440  0
6448  6441  6732  0
6448  6732  6733  0
6148  6453  6449  0
6454  6734  6453  0
6454  6149  6734  0
6149  6735  6734  0
6149  5850  6735  0
5851  6730  6736  0
6451  6724  6737  0
6452  6738  6739  0
6452  6739  6731  0
6452  6447  6738  0
6447  6448  6738  0
6736  5860  5851  0
6451  6737  6740  0
6451  6740  6457  0
6741  6742  6464  0
6741  6464  6461  0
6741  6461  6463  0
6741  6463  6743  0
6742  6465  6464  0
6465  6742  6744  0
6465  6744  6466  0
6466  6744  6745  0
6466  6745  6746  0
6738  6448  6747  0
6455  5542  6468  0
6456  6458  6748  0
6469  6748  6458  0
6457  6749  6459  0
6459  6750  6460  0
6459  6749  6751  0
6459  6751  6750  0
6750  6752  6460  0
6750  6751  6752  0
6752  6753  6462  0
6752  6462  6460  0
6752  6751  6753  0
6753  6463  6462  0
6753  6754  6463  0
6466  6746  6467  0
6755  6739  6738  0
6747  6755  6738  0
6473  6756  6477  0
6756  6473  6757  0
6758  6757  6473  0
6473  6467  6758  0
6759  6758  6467  0
6467  6746  6759  0
5860  6760  5549  0
6471  6475  6761  0
6762  6761  6475  0
6475  6476  6762  0
6763  6762  6476  0
6480  6477  6756  0
5549  6760  6482  0
6479  6763  6476  0
6479  6480  6764  0
6483  6485  6180  0
6180  6485  6484  0
6765  6484  6485  0
6484  6765  6182  0
6766  6182  6765  0
6182  6766  6481  0
6183  5562  6482  0
6767  6485  6486  0
6485  6767  6765  0
6482  6768  6183  0
6186  6183  6768  0
6769  6767  6486  0
6770  6767  6769  0
6767  6770  6765  0
6771  6186  6768  0
6188  6186  6771  0
6184  6769  6486  0
6184  6487  6769  0
6490  6769  6487  0
6769  6772  6770  0
6773  6770  6772  0
6774  6188  6771  0
6488  6188  6774  0
6488  6493  5877  0
6489  6491  6775  0
6489  6775  6490  0
6772  6776  6777  0
5885  6492  6200  0
6491  6778  6775  0
6775  6778  6503  0
6503  6776  6775  0
6503  6502  6777  0
6503  6777  6776  0
6777  6502  6779  0
6492  6493  6780  0
6492  6780  6200  0
6200  6780  6496  0
6198  6500  6781  0
6198  6781  6499  0
6499  6781  6782  0
6499  6782  6494  0
6494  6782  6501  0
6501  6783  6199  0
6199  6783  6495  0
6495  6783  6491  0
6491  6783  6778  0
6778  6784  6504  0
6778  6504  6503  0
6502  6505  6779  0
6506  6497  6785  0
6508  6786  6500  0
6500  6786  6787  0
6500  6787  6781  0
6781  6788  6782  0
6781  6787  6788  0
6501  6782  6789  0
6501  6789  6783  0
6208  6509  6505  0
6506  6785  6790  0
6506  6790  6507  0
6507  6790  6791  0
6507  6791  6513  0
6508  6220  6786  0
6786  6220  6518  0
6786  6518  6787  0
6204  6504  6792  0
6204  6792  6514  0
6509  6515  6793  0
6515  6516  6794  0
6515  6794  6793  0
6516  6224  6795  0
6516  6795  6794  0
6510  6511  6232  0
6210  6512  6517  0
6512  6513  6796  0
6513  6791  6796  0
6518  6221  6523  0
6518  6523  6797  0
6518  6797  6798  0
6518  6798  6787  0
6792  6525  6514  0
6519  6514  6525  0
6224  6520  6795  0
6520  6521  6799  0
6521  6218  6799  0
6218  6219  6799  0
6523  6800  6797  0
6230  6800  6523  0
6801  6797  6800  0
6802  6801  6800  0
6800  6230  6525  0
6231  6525  6230  0
6800  6525  6802  0
6792  6802  6525  0
6522  6526  6803  0
6526  6236  6804  0
6237  5931  6528  0
5932  6529  6527  0
6805  6234  6527  0
6806  6527  6529  0
6534  6234  6805  0
6807  6237  6528  0
6237  6807  6530  0
6808  5936  6530  0
5936  6808  6238  0
6238  6808  6531  0
6532  6239  6531  0
6529  6533  6806  0
6809  6806  6533  0
6534  6543  6241  0
6544  6543  6810  0
6543  6534  6810  0
6811  6810  6534  0
6810  6812  6544  0
6810  6811  6812  0
6813  6812  6811  0
6814  6812  6813  0
6815  6814  6813  0
6536  6548  6256  0
6816  6536  6244  0
6537  6816  6244  0
6531  6817  6532  0
6818  6532  6817  0
6532  6818  6538  0
6819  6538  6818  0
6538  6819  6539  0
6820  6539  6819  0
6539  6820  6540  0
6821  6540  6820  0
6533  6541  6809  0
6822  6809  6541  0
6544  6812  6554  0
6812  6814  6554  0
6555  6554  6814  0
6814  6815  6555  0
6556  6555  6815  0
6815  6823  6556  0
6556  6267  6557  0
6556  6823  6267  0
6824  6267  6823  0
6558  6267  6824  0
6242  6560  6535  0
6546  6547  6825  0
6548  6825  6547  0
6816  6537  6826  0
6549  6257  6827  0
6549  6827  6828  0
6549  6828  6829  0
6549  6829  6537  0
6257  6550  6827  0
6540  6821  6551  0
6541  6542  6822  0
6542  6553  6830  0
6542  6830  6822  0
6558  6831  6559  0
6558  6824  6831  0
6252  6545  6261  0
6827  6550  6832  0
6827  6832  6828  0
6833  6550  6551  0
6553  6552  6561  0
6553  6561  6834  0
6831  6835  6836  0
6831  6824  6835  0
6831  6836  6559  0
6564  6271  6566  0
6832  6550  6833  0
6835  6837  6838  0
6835  6838  6836  0
6559  6836  6839  0
6559  6839  6562  0
6562  6839  6563  0
6563  6839  6565  0
6565  6840  6841  0
6565  6841  6274  0
6565  6842  6840  0
6274  6841  6843  0
6274  6843  6844  0
6274  6844  6566  0
6261  6569  6275  0
6261  6845  6569  0
6561  6567  6846  0
6839  6842  6565  0
6567  6568  6847  0
6568  6278  6571  0
6568  6571  6848  0
6568  6848  6849  0
6568  6849  6847  0
6848  6571  6849  0
6569  6850  6570  0
6571  6282  6851  0
6574  6851  6282  0
6571  6851  6852  0
6571  6852  6849  0
6575  6851  6574  0
6851  6853  6852  0
6851  6575  6853  0
6576  6853  6575  0
6580  6854  6578  0
6572  6855  6856  0
6572  6856  6284  0
6283  6285  6572  0
6299  6572  6285  0
5973  6570  6857  0
6573  6858  6859  0
6573  6859  6286  0
6286  6859  6860  0
6585  6579  6581  0
6286  6860  6288  0
6861  6288  6860  0
6288  6861  6584  0
6862  6586  6287  0
6287  6583  6862  0
6863  6862  6583  0
6583  6587  6863  0
6587  6588  6863  0
6864  5991  6284  0
6590  6296  6589  0
6864  6598  5991  0
6592  6865  5985  0
5985  6865  6300  0
6866  6300  6865  0
6867  6591  6301  0
6301  6593  6867  0
6868  6593  6594  0
6589  6869  6590  0
6299  6304  6870  0
6871  6870  6304  0
6599  6300  6866  0
6594  6307  6868  0
6872  6868  6307  0
6307  6600  6872  0
6873  6872  6600  0
6602  6603  6597  0
6304  6312  6871  0
6874  6871  6312  0
6600  6605  6873  0
6875  6873  6605  0
6605  6606  6876  0
6611  6876  6606  0
6605  6876  6875  0
6596  6877  6607  0
5996  6878  6609  0
6312  6610  6874  0
6879  6316  6604  0
6880  6876  6611  0
6611  6607  6880  0
6877  6880  6607  0
6000  6609  6612  0
6315  6613  6610  0
6881  6610  6613  0
6610  6881  6882  0
6883  6316  6879  0
6884  6617  6320  0
6320  6612  6884  0
6885  6884  6612  0
6614  6618  6619  0
6618  6616  6886  0
6616  6316  6883  0
6616  6883  6886  0
6321  6323  6613  0
6613  6323  6887  0
6613  6887  6881  0
6618  6886  6888  0
6618  6888  6619  0
6889  6619  6888  0
6323  6325  6890  0
6323  6890  6887  0
6325  6891  6890  0
6325  6009  6891  0
6009  6621  6892  0
6009  6892  6891  0
6620  6619  6889  0
6620  6889  6621  0
6893  6894  6633  0
6893  6633  6632  0
6893  6632  6895  0
6893  6895  6896  0
6894  6897  6633  0
6333  6627  6898  0
6333  6898  6622  0
6622  6898  6899  0
6622  6899  6628  0
6625  6630  6900  0
6625  6900  6626  0
6631  6901  6895  0
6631  6895  6632  0
6631  6351  6902  0
6631  6902  6901  0
6633  6897  6634  0
6897  6903  6634  0
6898  6904  6899  0
6628  6899  6905  0
6628  6905  6629  0
6629  6905  6906  0
6629  6906  6624  0
6624  6906  6630  0
6626  6907  6636  0
6626  6900  6907  0
6351  6643  6908  0
6351  6908  6902  0
6634  6903  6909  0
6635  6639  6910  0
6635  6898  6627  0
6635  6910  6898  0
6636  6911  6641  0
6636  6907  6911  0
6637  6350  6912  0
6643  6642  6913  0
6638  6634  6909  0
6638  6909  6914  0
6638  6914  6642  0
6641  6911  6915  0
6641  6915  6640  0
6911  6916  6915  0
6911  6907  6917  0
6911  6917  6916  0
6642  6914  6913  0
6352  6644  6349  0
6918  6354  6640  0
6640  6915  6918  0
6652  6648  6647  0
6646  6648  6919  0
6646  6919  6920  0
6646  6920  6359  0
6649  6650  6644  0
6921  6644  6650  0
6644  6921  6349  0
6354  6918  6922  0
6661  6660  6923  0
6924  6661  6923  0
6359  6920  6653  0
6925  6653  6920  0
6653  6925  6650  0
6926  6650  6925  0
6650  6926  6921  0
6354  6922  6655  0
6927  6651  6656  0
6363  6928  6657  0
6367  6364  6657  0
6929  6657  6928  0
6657  6658  6367  0
6657  6929  6658  0
6660  6658  6929  0
6661  6924  6662  0
6930  6662  6924  0
6662  6930  6663  0
6931  6652  6664  0
6932  6664  6665  0
6678  6930  6933  0
6933  6930  6934  0
6930  6678  6663  0
6372  6663  6678  0
6935  6932  6665  0
6666  6362  6675  0
6667  6675  6362  0
6936  6656  6374  0
6686  6937  6938  0
6937  6686  6933  0
6679  6933  6686  0
6933  6679  6678  0
6669  6372  6678  0
6665  6670  6935  0
6670  6671  6939  0
6670  6939  6935  0
6940  6672  6655  0
6671  6673  6941  0
6671  6941  6939  0
6673  6942  6941  0
6379  6936  6374  0
6938  6943  6686  0
6384  6674  6944  0
6384  6944  6398  0
6943  6684  6686  0
6398  6944  6945  0
6672  6946  6681  0
6684  6943  6947  0
6681  6946  6948  0
6391  6390  6949  0
6391  6949  6689  0
6684  6947  6693  0
6398  6945  6404  0
6413  6400  6414  0
6681  6948  6085  0
6390  6682  6949  0
6950  6949  6682  0
6682  6688  6950  0
6690  6950  6688  0
6947  6951  6693  0
6694  6952  6411  0
6411  6952  6691  0
6404  6945  6953  0
6404  6953  6695  0
6692  6689  6954  0
6696  6950  6690  0
6410  6955  6694  0
6410  6697  6955  0
6701  6955  6697  0
6956  6417  6695  0
6085  6948  5811  0
6951  6699  6693  0
6704  6415  6699  0
6957  6111  6110  0
6110  6702  6957  0
6958  6957  6702  0
6702  6417  6958  0
6417  6956  6958  0
6948  6418  5811  0
5816  5811  6418  0
6706  6959  6696  0
6704  6960  6420  0
6420  6960  6700  0
6961  6421  6700  0
6421  6961  6424  0
6428  6424  6961  0
6701  6705  6962  0
6963  6962  6705  0
6426  6111  6716  0
6957  6716  6111  0
6717  6114  6703  0
6959  6706  6964  0
6709  6964  6706  0
6705  6707  6965  0
6705  6965  6963  0
6426  6716  6430  0
6709  6432  6433  0
6709  6433  6966  0
6434  6711  6967  0
6434  6967  6710  0
6711  6712  6968  0
6707  6714  6969  0
6707  6969  6965  0
6716  6970  6715  0
6718  6719  6971  0
6718  6971  6720  0
6719  6710  6971  0
6714  6721  6969  0
6715  6970  6725  0
6972  6725  6970  0
6973  6722  6144  0
6973  6144  6728  0
6966  6433  6723  0
6725  6972  6726  0
6442  6717  6730  0
6723  6729  6974  0
6440  6975  6721  0
6726  6732  6441  0
6726  6976  6732  0
6449  6977  6727  0
6729  6456  6974  0
6440  6731  6978  0
6440  6978  6975  0
6453  6979  6449  0
6453  6734  6980  0
6453  6980  6979  0
6734  6735  6981  0
6734  6981  6980  0
6735  5850  6455  0
6456  6982  6974  0
6724  6983  6737  0
6733  6984  6448  0
6733  6732  6985  0
6733  6985  6984  0
6456  6748  6982  0
6986  6982  6748  0
6737  6983  6740  0
6740  6749  6457  0
6740  6983  6987  0
6740  6987  6749  0
6988  6743  6463  0
6988  6463  6754  0
6988  6989  6743  0
6990  6988  6754  0
6742  6741  6991  0
6742  6991  6744  0
6745  6992  6746  0
6745  6744  6993  0
6745  6993  6992  0
6448  6984  6747  0
6984  6994  6747  0
6469  6986  6748  0
6749  6987  6751  0
6751  6990  6753  0
6753  6990  6754  0
6759  6746  6995  0
6996  6995  6746  0
6746  6992  6996  0
5860  6736  6760  0
6997  6986  6469  0
6469  6470  6997  0
6761  6997  6470  0
6470  6471  6761  0
6998  6999  6756  0
6756  6757  6998  0
7000  6998  6757  0
6757  6758  7000  0
7001  7000  6758  0
6758  6759  7001  0
6761  6762  7002  0
7003  7002  6762  0
6762  6763  7003  0
7004  7003  6763  0
6999  6764  6480  0
6480  6756  6999  0
6474  6478  7005  0
7006  7004  6763  0
6763  6479  7006  0
6764  7006  6479  0
6760  7007  6482  0
7008  6478  6481  0
6482  7009  6768  0
7010  7011  7012  0
7013  7012  7011  0
7012  7013  7014  0
7015  6481  6766  0
7016  7017  7018  0
7017  7019  7018  0
7018  7010  7016  0
7020  7016  7010  0
7010  7012  7020  0
7021  7020  7012  0
7012  7014  7021  0
6765  6770  6766  0
7022  6766  6770  0
7017  7016  7023  0
7024  7021  7014  0
6770  6773  7022  0
7025  6771  7026  0
6771  7025  6774  0
7016  7020  7027  0
7016  7027  7023  0
7020  7021  7024  0
7020  7024  7027  0
6490  6776  6769  0
6769  6776  6772  0
7025  7028  6774  0
6774  7028  6488  0
6490  6775  6776  0
6488  7028  7029  0
6488  7029  7030  0
6488  7030  6493  0
6777  6773  6772  0
6780  7031  7032  0
6780  7032  6496  0
6496  7032  7033  0
6496  7033  6497  0
6497  7033  7034  0
6497  7034  6785  0
6782  6788  7035  0
6782  7035  6789  0
6783  6789  6778  0
6505  6509  7036  0
6787  6798  6788  0
6504  6784  7037  0
6504  7037  6792  0
6509  6793  7036  0
6511  6517  7038  0
6517  6512  7039  0
6512  6796  7040  0
6512  7040  7039  0
6791  7041  6796  0
6798  6797  6788  0
6801  6788  6797  0
6802  7037  7035  0
6802  6792  7037  0
7042  6795  6520  0
6520  6799  7042  0
7043  7042  6799  0
7044  7043  6799  0
6799  6219  7044  0
6522  7044  6219  0
6511  7038  6232  0
6517  7039  7038  0
7045  7038  7039  0
7040  7045  7039  0
6801  6802  6788  0
7035  6788  6802  0
6804  6803  6526  0
6232  7038  6233  0
6233  7038  7045  0
7046  6804  6236  0
6233  7045  6528  0
7047  6528  7045  0
6527  6806  6805  0
7048  6805  6806  0
7049  6805  7048  0
6805  7050  6534  0
6805  7049  7050  0
6811  6534  7050  0
7050  7051  6811  0
7052  6811  7051  0
7053  7046  6236  0
6528  7047  6807  0
6530  6807  6808  0
7054  6808  6807  0
6808  6817  6531  0
6808  7054  6817  0
6806  6809  7048  0
7055  7048  6809  0
6811  7052  6813  0
6813  7052  6815  0
7056  6815  7052  0
7053  6236  6535  0
6825  6548  7057  0
6548  6536  7057  0
6816  7057  6536  0
7058  6820  6819  0
6820  7059  6821  0
7060  6821  7059  0
6820  7058  7059  0
7061  7060  7059  0
6809  6822  7055  0
6815  7056  6823  0
7062  6823  7056  0
6823  7062  6824  0
7063  6545  6253  0
6253  6254  7063  0
6825  7063  6254  0
6254  6546  6825  0
6816  6826  7064  0
7065  7064  6826  0
6826  6537  6829  0
6826  6829  7065  0
6821  7060  7066  0
6821  7066  6551  0
7060  7061  7067  0
7060  7067  7066  0
6822  7068  7055  0
6822  6830  7068  0
7062  6835  6824  0
6535  6560  7069  0
6560  6564  7070  0
6560  7070  7069  0
6545  7071  6261  0
6829  6828  7072  0
6829  7072  7073  0
6829  7073  7065  0
6551  7066  6833  0
7074  7066  7067  0
6830  6553  6834  0
6830  6834  7075  0
6830  7075  7076  0
6837  7062  7077  0
7062  6837  6835  0
7070  6564  7078  0
6564  6566  7079  0
6564  7079  7078  0
7072  6828  7080  0
7072  7081  7073  0
6828  6832  7082  0
6828  7082  7080  0
6832  6833  7083  0
6832  7083  7082  0
6833  7066  7074  0
6833  7074  7083  0
6834  6561  6846  0
6834  6846  7084  0
6834  7084  7075  0
7077  7085  6837  0
6841  6840  6843  0
6844  7079  6566  0
6845  6850  6569  0
7072  7080  7086  0
7072  7086  7081  0
7082  7083  7087  0
7082  7087  7080  0
6846  6567  6847  0
6846  6847  7088  0
6846  7088  7089  0
6846  7089  7084  0
7085  7077  7090  0
6847  6849  7088  0
6849  7091  7088  0
6570  6850  6857  0
6849  6852  7091  0
6852  6853  7092  0
6852  7092  7091  0
6853  6576  7093  0
6577  7093  6576  0
6853  7093  7092  0
7093  6577  7094  0
6577  6578  7094  0
6578  6854  7094  0
6854  6580  7095  0
6580  6579  7095  0
7096  7095  6579  0
5973  6857  6573  0
6573  6857  6858  0
6579  6585  7096  0
7096  6585  6586  0
6859  7097  6860  0
7098  7096  6586  0
6586  6862  7098  0
6863  7098  6862  0
6284  6856  6864  0
6870  6572  6299  0
6584  6861  6589  0
6869  6589  6861  0
7099  6863  6588  0
6588  6597  7099  0
6598  6864  7100  0
7101  6866  6865  0
6592  6591  7102  0
7103  7102  6591  0
6591  6867  7103  0
6867  6593  7104  0
6868  7104  6593  0
7105  6590  6869  0
6590  7105  6595  0
6595  7105  6596  0
7106  6596  7105  0
7107  7099  6597  0
5996  6598  6878  0
7108  6598  7100  0
7101  7109  6866  0
7110  6866  7109  0
7111  7104  6868  0
6868  6872  7111  0
7112  6872  6873  0
6596  7106  6877  0
7113  6877  7106  0
6597  6603  7107  0
7114  7107  6603  0
7115  6878  6598  0
6598  7108  7115  0
7116  7115  7108  0
6866  7110  6599  0
6604  6599  7110  0
6873  6875  7112  0
7117  7112  6875  0
6875  6876  7117  0
7118  7117  6876  0
7119  6877  7113  0
6608  6319  6603  0
6617  6603  6319  0
6603  6617  7114  0
7120  7114  6617  0
6878  7115  6609  0
7121  6609  7115  0
7122  6874  6610  0
7123  6604  7110  0
6876  6880  7118  0
7124  7118  6880  0
6880  6877  7124  0
7119  7124  6877  0
6617  6884  7120  0
7125  7120  6884  0
6612  6609  6885  0
7121  6885  6609  0
7122  6610  6882  0
6604  7123  6879  0
6884  6885  7125  0
6882  6881  7126  0
6882  7126  7127  0
6881  6887  7126  0
6886  6883  6889  0
6886  6889  6888  0
6887  6890  7128  0
6892  6621  7129  0
6621  6889  7130  0
6621  7130  7129  0
7131  7132  7133  0
7131  7133  7134  0
7132  7135  7136  0
7132  7136  7133  0
7136  7135  7137  0
7136  7138  7133  0
7135  7139  7137  0
6896  7140  7141  0
6896  7141  6893  0
6896  6895  7142  0
6896  7142  7140  0
6893  7141  7143  0
6893  7143  6894  0
6894  7143  7144  0
6894  7144  6897  0
6901  7142  6895  0
6901  6902  6908  0
6897  7144  7145  0
6897  7145  6903  0
6898  7146  6904  0
6906  7147  6630  0
6630  7147  7148  0
6630  7148  6900  0
6903  7145  7149  0
6903  7149  6909  0
6898  6910  7150  0
6898  7150  7146  0
6906  6905  7147  0
7148  7147  7151  0
7148  7151  7152  0
7148  7152  6900  0
6900  7152  7153  0
6900  7153  6907  0
6909  7149  7154  0
6909  7154  6914  0
6639  7150  6910  0
6917  6907  7155  0
6917  7155  6916  0
6643  6913  7156  0
6643  7156  6908  0
6913  6914  7156  0
7157  7156  6914  0
7154  7157  6914  0
7158  6639  6349  0
6639  7158  7150  0
7159  7150  7158  0
7160  6915  6916  0
6916  7161  7160  0
6916  7155  7161  0
6648  6652  6919  0
7162  6919  6652  0
6919  7163  6920  0
6919  7164  7163  0
7165  7163  7164  0
7163  7165  6920  0
7166  6920  7165  0
7158  6349  6921  0
6918  6915  7167  0
6915  7160  7167  0
7168  7160  7161  0
7169  6929  6928  0
7170  6929  7169  0
7171  6929  7170  0
6929  7171  6660  0
7172  6660  7171  0
6660  7172  6923  0
6924  6923  7172  0
7162  6652  6931  0
6920  7166  6925  0
7173  6925  7166  0
6925  7173  6926  0
7158  6921  6926  0
6918  7167  6922  0
7174  6922  7167  0
7175  7167  7160  0
7176  7177  6927  0
6924  6934  6930  0
6924  7178  6934  0
6664  6932  6931  0
6931  6932  7179  0
7180  7179  6932  0
6922  7174  7181  0
6656  7176  6927  0
6933  7182  6937  0
7183  6937  7182  0
6933  6934  7182  0
6940  6655  6922  0
6922  7181  6940  0
6656  6936  7176  0
7184  7176  6936  0
6938  6937  7185  0
7183  7185  6937  0
6939  6941  7186  0
7187  6672  6940  0
7185  7188  6938  0
7185  7189  7188  0
7190  7188  7189  0
6942  6673  7191  0
7191  7192  6942  0
6675  6667  7193  0
6675  7193  6674  0
6667  6387  7193  0
6672  7187  6946  0
7188  6943  6938  0
6673  6397  7191  0
6379  7184  6936  0
6674  7193  7194  0
6674  7194  6944  0
7193  6387  6680  0
6073  7195  6379  0
7188  7196  6947  0
7188  6947  6943  0
6397  6396  7191  0
6944  7197  6945  0
6944  7194  7197  0
6691  7198  7199  0
6691  7199  6396  0
6945  7197  6953  0
6400  6413  6680  0
7196  7200  6947  0
6947  7200  6951  0
6694  7201  6952  0
6694  6955  7202  0
6694  7202  7201  0
6952  7198  6691  0
6689  6949  6954  0
6949  6950  6959  0
6949  6959  6954  0
6950  6696  6959  0
7200  7203  6951  0
6695  6953  6698  0
6695  6698  6956  0
6418  6948  6104  0
6954  6703  6692  0
6951  7203  6699  0
6701  6962  6955  0
7204  6956  6698  0
6964  6954  6959  0
6704  6699  7205  0
6704  7206  6960  0
7207  6700  6960  0
6700  7207  6961  0
7208  6961  7207  0
6961  7208  6428  0
7209  6428  7208  0
7210  6716  6957  0
6957  6958  7211  0
7212  7211  6958  0
6958  6956  7212  0
7204  7212  6956  0
6964  6709  7213  0
6968  6712  6428  0
6713  6428  6712  0
7209  6968  6428  0
7214  6963  6965  0
6716  7210  6970  0
7215  6970  7210  0
7216  6717  6703  0
7213  6709  7217  0
6709  6966  7217  0
7218  6710  6967  0
6968  6967  6711  0
6965  6969  7214  0
6972  6970  7215  0
6436  6722  7219  0
7219  6708  6436  0
6966  7220  7217  0
6971  6710  7218  0
6969  7221  7214  0
6728  7222  6973  0
7223  6973  7222  0
6973  7223  6722  0
7219  6722  7223  0
6966  6723  7220  0
6720  6971  7224  0
6969  6721  7225  0
6969  7225  7221  0
6972  7226  6726  0
6723  6974  7227  0
6723  7227  7220  0
7228  6720  7224  0
6721  6975  7225  0
6726  7226  6976  0
6727  6977  6728  0
6977  6449  6979  0
6977  6979  7229  0
6979  7230  7229  0
6730  6717  7231  0
6974  7232  7227  0
7228  6724  6720  0
6975  6978  7233  0
6975  7233  7225  0
6976  7234  6985  0
6976  6985  6732  0
6979  6980  7230  0
6980  7235  7230  0
6980  6981  7235  0
6981  7236  7235  0
6981  6735  7237  0
6981  7237  7236  0
6735  6455  7237  0
7232  6974  6982  0
7232  6982  7238  0
6724  7228  6983  0
6983  7228  7239  0
7240  7241  6741  0
7240  6741  6743  0
7240  7242  7243  0
7240  7243  7241  0
7240  6743  6989  0
7240  6989  7242  0
7241  7244  6991  0
7241  6991  6741  0
7241  7243  7245  0
7241  7245  7244  0
7244  7246  6744  0
7244  6744  6991  0
7244  7245  7247  0
7244  7247  7246  0
7246  7248  6993  0
7246  6993  6744  0
7246  7247  7249  0
7246  7249  7248  0
6985  7250  7251  0
6985  7251  6984  0
6985  7234  7252  0
6985  7252  7250  0
7238  6982  6986  0
6987  6983  7253  0
6987  7253  7254  0
7254  6751  6987  0
7254  6990  6751  0
7254  7253  6990  0
6990  7255  6988  0
6988  7255  7256  0
6988  7256  6989  0
6993  7248  7257  0
6993  7257  6992  0
6731  6739  7258  0
6731  7258  6978  0
6984  7251  6994  0
7251  7250  7259  0
7251  7259  6994  0
6455  6468  7260  0
6474  7260  6468  0
7238  6986  7261  0
7262  7000  7263  0
7001  7263  7000  0
7264  7262  7263  0
7263  7001  6995  0
6759  6995  7001  0
7263  6995  7264  0
7265  7264  6995  0
6995  6996  7265  0
6996  6992  7265  0
7257  7265  6992  0
7266  7258  6739  0
6739  6755  7266  0
7267  7266  6755  0
6755  6747  7267  0
6986  6997  7261  0
7268  7261  6997  0
6997  6761  7269  0
6997  7269  7268  0
7002  7269  6761  0
7270  7271  6999  0
6999  6998  7270  0
7272  7270  6998  0
6998  7000  7272  0
7262  7272  7000  0
7273  7268  7269  0
7269  7002  7274  0
7269  7274  7273  0
7275  7274  7002  0
7002  7003  7275  0
7004  7275  7003  0
6764  7276  7006  0
7276  6764  7277  0
7271  7277  6764  0
6764  6999  7271  0
7275  7273  7274  0
7275  7004  7278  0
7006  7278  7004  0
7279  7005  6478  0
7009  6482  7007  0
7013  7011  7280  0
7280  7011  7281  0
7282  7281  7011  0
7280  7281  7013  0
7283  7013  7281  0
7013  7283  7284  0
7285  7019  7286  0
7287  7286  7019  0
7019  7010  7018  0
7019  7285  7010  0
7282  7010  7285  0
7010  7282  7011  0
7013  7284  7014  0
7288  7014  7284  0
7284  7289  7288  0
7290  7288  7289  0
7289  7291  7290  0
6481  7015  7008  0
7017  7292  7019  0
7287  7019  7292  0
7014  7288  7024  0
7293  7024  7288  0
7294  7288  7290  0
6766  7022  7015  0
6768  7026  6771  0
7017  7023  7292  0
7024  7293  7295  0
7296  7024  7295  0
7294  7293  7288  0
7297  7298  7299  0
7300  7299  7298  0
7299  7301  7302  0
7299  7300  7301  0
7301  7303  7302  0
7301  7304  7303  0
7023  7027  7305  0
7023  7305  7292  0
7027  7024  7306  0
7027  7306  7305  0
7024  7296  7306  0
7025  7307  7028  0
7297  7299  7308  0
7302  7309  7299  0
7303  7304  7310  0
7028  7307  7029  0
7303  7310  7302  0
6777  7311  6773  0
6777  6779  7311  0
7030  7312  6493  0
6493  7312  6780  0
6780  7312  7031  0
6778  6789  6784  0
6785  7034  7313  0
6785  7313  6790  0
6790  7313  7314  0
6790  7314  6791  0
6789  7035  7037  0
6789  7037  6784  0
6793  6794  7315  0
6793  7315  7036  0
6794  6795  7315  0
6791  7314  7041  0
6795  7042  7316  0
6795  7316  7315  0
7042  7043  7316  0
6522  6803  7317  0
7045  7040  7318  0
7040  6796  7319  0
7040  7319  7318  0
6796  7041  7319  0
7045  7318  7047  0
7320  7049  7048  0
7049  7320  7050  0
7050  7320  7051  0
7321  6807  7047  0
7322  6807  7321  0
6807  7322  7054  0
7323  7054  7322  0
7054  7323  6817  0
7048  7324  7320  0
7048  7055  7324  0
7051  7320  7052  0
7325  7052  7320  0
7056  7052  7325  0
7063  6825  7326  0
7057  7326  6825  0
7057  6816  7327  0
7328  7327  6816  0
7329  6818  6817  0
6818  7329  6819  0
7330  6819  7329  0
6819  7330  7058  0
7331  7059  7058  0
7059  7331  7061  0
7332  7061  7331  0
7333  7061  7332  0
7055  7068  7324  0
7334  7324  7068  0
7335  7324  7334  0
7336  7324  7335  0
7337  7325  7336  0
7325  7337  7056  0
7062  7056  7337  0
6545  7063  7071  0
6816  7064  7328  0
7061  7333  7067  0
7338  7067  7333  0
7068  6830  7076  0
7068  7076  7334  0
7334  7076  7339  0
7334  7339  7335  0
7335  7339  7340  0
7335  7340  7341  0
7335  7341  7336  0
7336  7341  7337  0
7337  7341  7077  0
7337  7077  7062  0
7064  7065  7073  0
7064  7073  7342  0
7064  7342  7343  0
7067  7338  7074  0
7076  7075  7084  0
7076  7084  7339  0
7341  7340  7344  0
7341  7344  7077  0
7079  6844  7345  0
7079  7345  7078  0
6261  7071  6845  0
7071  7346  6845  0
7073  7081  7347  0
7348  7086  7080  0
7348  7080  7349  0
7348  7350  7086  0
7349  7080  7087  0
7087  7083  7074  0
7087  7074  7351  0
7087  7351  7349  0
7084  7089  7339  0
7339  7352  7340  0
7339  7089  7353  0
7339  7353  7352  0
7344  7340  7354  0
7355  6838  6837  0
6840  6842  7356  0
6840  7356  7357  0
6840  7357  6843  0
6843  7357  7345  0
6843  7345  6844  0
6845  7346  6850  0
7081  7086  7347  0
7089  7088  7353  0
7344  7354  7358  0
7344  7358  7077  0
7077  7358  7090  0
7085  7090  7359  0
7085  7359  6837  0
6837  7359  7355  0
6836  6838  7360  0
6836  7360  6839  0
6839  7360  6842  0
6850  7346  7361  0
7088  7362  7353  0
7088  7091  7363  0
7088  7363  7362  0
6850  7361  6857  0
6857  7361  7364  0
7091  7365  7363  0
7091  7092  7365  0
7092  7093  7366  0
7092  7366  7365  0
7093  7094  7366  0
7094  7367  7366  0
7094  6854  7367  0
6854  7095  7368  0
6854  7368  7367  0
7095  7096  7369  0
7095  7369  7368  0
6857  7364  7370  0
6857  7370  6858  0
6858  7371  6859  0
7096  7372  7369  0
7373  7369  7372  0
7374  6856  6855  0
6855  7375  7376  0
6855  7376  7374  0
6572  6870  7375  0
6861  6860  7097  0
7096  7098  7372  0
7377  7372  7098  0
7098  6863  7378  0
7379  7378  6863  0
7098  7378  7380  0
7098  7380  7377  0
7381  7379  6863  0
7382  7381  6863  0
6856  7374  6864  0
7383  7375  6870  0
6861  7097  7384  0
6861  7384  6869  0
6869  7384  7385  0
7386  7373  7372  0
7372  7377  7386  0
6863  7099  7382  0
6864  7374  7387  0
6864  7387  7100  0
6865  6592  7101  0
7102  7101  6592  0
7388  7389  7102  0
7102  7103  7388  0
7104  7103  6867  0
6869  7390  7105  0
6869  7385  7390  0
7099  7107  7382  0
7114  7382  7107  0
7387  7108  7100  0
7391  6870  6871  0
6870  7391  7383  0
7103  7104  7388  0
7392  7388  7104  0
7104  7111  7392  0
7111  6872  7393  0
7112  7393  6872  0
7394  7111  7393  0
7395  7105  7390  0
7105  7395  7106  0
7396  7113  7106  0
7397  7116  7108  0
6871  6874  7391  0
7398  7391  6874  0
7109  7399  7110  0
7109  7400  7399  0
7393  7112  7394  0
7401  7112  7117  0
7117  7118  7401  0
7402  7401  7118  0
7113  7396  7119  0
7403  7119  7396  0
7115  7116  7121  0
7404  7121  7116  0
7116  7397  7404  0
7399  7405  7110  0
7123  7110  7405  0
7406  7402  7118  0
7407  7124  7119  0
7119  7403  7407  0
7408  7407  7403  0
7409  7120  7125  0
7125  6885  7409  0
7410  7409  6885  0
6885  7121  7410  0
7411  7410  7121  0
7121  7404  7411  0
6882  7127  7122  0
7122  7412  6874  0
7398  6874  7412  0
7413  7123  7405  0
7123  7414  6879  0
6883  6879  7414  0
7118  7124  7406  0
7415  7406  7124  0
7124  7407  7415  0
7408  7415  7407  0
7123  7413  7414  0
7414  6889  6883  0
7130  6889  7414  0
6887  7128  7416  0
6887  7416  7417  0
6887  7417  7126  0
7128  6890  7418  0
7128  7418  7416  0
7417  7416  7418  0
6890  6891  7418  0
6891  6892  7419  0
6891  7419  7418  0
6892  7129  7419  0
7129  7130  7420  0
7421  7422  7423  0
7422  7424  7423  0
7422  7425  7426  0
7422  7421  7425  0
7425  7427  7131  0
7425  7131  7426  0
7428  7131  7427  0
7422  7426  7429  0
7422  7429  7430  0
7426  7131  7134  0
7426  7134  7429  0
7131  7428  7132  0
7431  7132  7428  0
7432  7132  7431  0
7132  7432  7135  0
7433  7135  7432  0
7135  7433  7139  0
7134  7133  7434  0
7134  7434  7435  0
7134  7435  7429  0
7133  7138  7434  0
7139  7436  7137  0
7139  7433  7437  0
7139  7438  7436  0
7139  7437  7438  0
7138  7136  7439  0
7138  7440  7434  0
7136  7137  7441  0
7136  7441  7439  0
7137  7436  7442  0
7137  7442  7441  0
7436  7438  7443  0
7444  7143  7141  0
7444  7141  7445  0
7446  7447  7448  0
7446  7448  7449  0
7140  7450  7445  0
7140  7445  7141  0
7140  7142  7451  0
7140  7451  7450  0
7143  7452  7144  0
7452  7453  7144  0
7447  7454  7455  0
7142  6901  7456  0
7142  7456  7451  0
7144  7453  7145  0
6908  7457  7456  0
6908  7456  6901  0
7145  7458  7149  0
7459  6904  7146  0
6904  7459  6899  0
6899  7459  7460  0
6899  7460  6905  0
6905  7460  7147  0
7156  7457  6908  0
7457  7156  7461  0
7462  7461  7156  0
7149  7458  7463  0
7149  7463  7154  0
7464  7146  7150  0
7465  7147  7466  0
7147  7465  7151  0
7152  7467  7153  0
7155  6907  7153  0
7171  7170  7468  0
7468  7469  7171  0
7171  7469  7172  0
7156  7157  7462  0
7470  7462  7157  0
7157  7154  7470  0
7463  7470  7154  0
7471  7150  7159  0
7150  7471  7464  0
7151  7465  7152  0
7467  7152  7465  0
7472  7153  7467  0
7153  7472  7155  0
7473  7155  7472  0
7155  7473  7161  0
7474  7161  7473  0
7161  7474  7168  0
7475  7168  7474  0
7172  7476  6924  0
7477  6924  7476  0
7478  7164  6919  0
7479  6919  7162  0
7164  7478  7165  0
7173  7166  7165  0
7158  7480  7159  0
7481  7159  7480  0
7465  7482  7467  0
7160  7168  7175  0
7168  7475  7175  0
6924  7477  7178  0
6931  7179  7162  0
7162  7179  7479  0
7480  6926  7173  0
6926  7480  7158  0
7167  7175  7174  0
7483  7174  7175  0
7177  7176  7484  0
6934  7178  7182  0
7179  7180  7485  0
7179  7485  7479  0
7176  7486  7484  0
7189  7185  7183  0
6932  6935  7180  0
7180  6935  7487  0
7180  7487  7485  0
7176  7184  7488  0
6935  6939  7489  0
6935  7489  7487  0
6939  7186  7490  0
6939  7490  7489  0
7186  6941  7491  0
7491  6941  6942  0
7181  7492  6940  0
7189  7493  7190  0
6942  7192  7491  0
6940  7492  7187  0
7192  7191  7494  0
7184  6379  7195  0
7190  7495  7196  0
7190  7196  7188  0
7190  7496  7495  0
7191  6396  7497  0
7193  6680  7194  0
6946  7187  6948  0
7195  6073  6687  0
7195  6687  7498  0
7195  7498  7499  0
7199  7497  6396  0
7194  6680  6413  0
7187  7498  6948  0
7500  7201  7202  0
7197  7194  6413  0
7197  6413  6953  0
6104  6948  7498  0
7498  6687  6104  0
7501  7500  7202  0
6953  6413  6698  0
7203  7205  6699  0
7206  7502  6960  0
7206  7503  7502  0
7502  7504  6960  0
7207  6960  7504  0
7504  7502  7505  0
7504  7505  7207  0
7207  7506  7208  0
7207  7505  7507  0
7207  7507  7506  0
6955  6962  7202  0
7508  7202  6962  0
7202  7508  7501  0
7509  7501  7508  0
6708  7204  6698  0
6423  6708  6698  0
6703  6954  7510  0
6954  6964  7510  0
7213  7510  6964  0
6704  7205  7206  0
7208  7506  7209  0
6962  6963  7508  0
7511  7508  6963  0
7508  7511  7509  0
7512  7509  7511  0
7513  7210  6957  0
6957  7211  7513  0
7514  7513  7211  0
7211  7212  7514  0
7515  7514  7212  0
7212  7204  7515  0
6708  7515  7204  0
7216  6703  7510  0
7516  7517  6968  0
7518  7516  6968  0
6968  7209  7518  0
6963  7214  7511  0
7215  7210  7513  0
7513  7514  7215  0
7519  7215  7514  0
7514  7515  7519  0
7223  7519  7515  0
7219  7223  7515  0
7515  6708  7219  0
6967  7517  7218  0
6967  6968  7517  0
7214  7520  7511  0
7511  7520  7521  0
7511  7521  7512  0
7519  7223  7222  0
7217  7220  7522  0
7217  7522  7213  0
7214  7221  7520  0
7520  7221  7521  0
7523  6717  7216  0
7224  6971  7524  0
7221  7225  7525  0
7222  6728  6977  0
7222  6977  7526  0
7222  7526  7527  0
7526  6977  7229  0
7526  7229  7528  0
7231  6717  7523  0
7225  7529  7525  0
7229  7230  7528  0
7230  7530  7528  0
7530  7230  7235  0
7530  7235  7236  0
7225  7233  7531  0
7225  7531  7529  0
7532  6976  7226  0
6976  7532  7234  0
7237  6455  7533  0
7228  7224  7239  0
7256  7242  6989  0
7256  7255  7242  0
7242  7534  7243  0
7243  7534  7535  0
7243  7535  7245  0
7245  7535  7536  0
7245  7536  7247  0
7247  7536  7537  0
7247  7537  7249  0
7249  7537  7248  0
7233  6978  7538  0
7233  7538  7531  0
6455  7260  7533  0
6983  7239  7253  0
7253  7539  6990  0
6990  7539  7255  0
7248  7537  7257  0
6978  7258  7538  0
7540  7538  7258  0
7541  7259  7250  0
7542  7541  7250  0
7250  7252  7543  0
7250  7543  7542  0
6730  7231  7544  0
6730  7544  6736  0
7238  7261  7545  0
7546  7545  7261  0
7547  7272  7262  0
7548  7547  7262  0
7262  7264  7548  0
7549  7548  7264  0
7264  7265  7549  0
7550  7549  7265  0
7551  7550  7265  0
7265  7257  7551  0
7258  7266  7540  0
7552  7540  7266  0
7266  7267  7552  0
6994  7267  6747  0
6994  7259  7553  0
7259  7541  7554  0
7259  7554  7553  0
6474  7005  7260  0
7555  7260  7005  0
6736  7544  7556  0
7261  7557  7546  0
7558  7546  7557  0
7261  7268  7557  0
7559  7276  7277  0
7559  7277  7560  0
7561  7560  7277  0
7562  7561  7277  0
7277  7271  7562  0
7563  7562  7271  0
7271  7270  7563  0
7564  7563  7270  0
7270  7272  7564  0
7547  7564  7272  0
7553  7267  6994  0
6736  7556  7007  0
6736  7007  6760  0
7273  7558  7557  0
7557  7268  7273  0
7006  7565  7278  0
7559  7566  7565  0
7565  7006  7276  0
7565  7276  7559  0
7567  7568  7273  0
7273  7275  7567  0
7275  7278  7567  0
7565  7567  7278  0
7569  7570  7571  0
7572  7571  7570  0
7570  7569  7285  0
7573  7285  7569  0
7574  7281  7575  0
7281  7574  7283  0
7576  7283  7574  0
7574  7577  7576  0
7570  7285  7286  0
7570  7286  7572  0
7578  7572  7286  0
7282  7285  7573  0
7573  7281  7282  0
7573  7575  7281  0
7283  7576  7284  0
7289  7284  7576  0
7576  7579  7289  0
7291  7289  7579  0
7580  7291  7579  0
7291  7580  7581  0
6478  7008  7279  0
7286  7287  7578  0
7291  7581  7290  0
7582  7581  7580  0
7009  7026  6768  0
7287  7292  7583  0
7287  7583  7584  0
7287  7584  7578  0
7290  7581  7582  0
7290  7582  7294  0
7298  7585  7300  0
7583  7292  7305  0
7583  7305  7586  0
7583  7586  7587  0
7583  7587  7584  0
7586  7305  7588  0
7586  7588  7587  0
7293  7294  7589  0
7293  7589  7295  0
7294  7590  7589  0
7026  7591  7025  0
7298  7297  7592  0
7300  7593  7301  0
7594  7301  7593  0
7301  7594  7304  0
7305  7306  7595  0
7305  7595  7596  0
7305  7596  7588  0
7306  7296  7597  0
7306  7597  7598  0
7306  7598  7595  0
7296  7295  7599  0
7296  7599  7597  0
7295  7589  7599  0
7022  6773  7600  0
7022  7600  7015  0
7591  7601  7025  0
7602  7025  7601  0
7025  7602  7307  0
7297  7308  7603  0
7297  7603  7592  0
7308  7299  7309  0
7308  7604  7603  0
7605  7304  7594  0
7304  7605  7606  0
7304  7606  7310  0
7595  7598  7596  0
7307  7607  7029  0
7307  7602  7607  0
7308  7309  7604  0
7302  7310  7608  0
7302  7608  7609  0
7302  7609  7309  0
7606  7610  7310  0
7311  7611  6773  0
7029  7607  7030  0
7608  7310  7612  0
7608  7612  7609  0
7310  7610  7612  0
7030  7607  7613  0
6779  6505  7614  0
7030  7613  7615  0
7030  7615  7312  0
7312  7615  7031  0
7033  7616  7034  0
7034  7616  7617  0
7034  7617  7313  0
6505  7036  7614  0
7618  7614  7036  0
7036  7315  7618  0
7044  6522  7317  0
7041  7314  7619  0
7315  7316  7620  0
7621  7620  7316  0
7316  7043  7621  0
7318  7319  7622  0
7319  7041  7619  0
7623  6803  6804  0
7046  7623  6804  0
7318  7622  7047  0
7624  7331  7625  0
7331  7624  7332  0
7626  7332  7624  0
7332  7626  7627  0
7336  7320  7324  0
7320  7336  7325  0
6535  7628  7053  0
7063  7326  7629  0
7063  7629  7071  0
7630  7326  7057  0
7631  7630  7057  0
7057  7327  7631  0
7632  6817  7323  0
6817  7632  7329  0
7633  7058  7330  0
7058  7633  7331  0
7625  7331  7633  0
7332  7627  7333  0
7634  7333  7627  0
6535  7069  7628  0
7328  7064  7343  0
7333  7634  7635  0
7333  7635  7338  0
7351  7338  7635  0
7069  7636  7628  0
7637  7350  7348  0
7637  7638  7639  0
7637  7639  7350  0
7637  7348  7349  0
7637  7349  7640  0
7637  7640  7641  0
7637  7641  7638  0
7640  7349  7351  0
7351  7074  7338  0
7078  7642  7070  0
7078  7345  7642  0
7070  7642  7069  0
7636  7069  7642  0
7342  7643  7343  0
7342  7073  7347  0
7342  7347  7643  0
7350  7644  7086  0
7352  7353  7645  0
7352  7645  7354  0
7352  7354  7340  0
7355  7646  6838  0
7646  7360  6838  0
7356  6842  7360  0
7357  7356  7647  0
7357  7648  7345  0
7642  7345  7648  0
7347  7086  7649  0
7353  7362  7645  0
7645  7650  7354  0
7651  7354  7650  0
7645  7362  7652  0
7645  7652  7650  0
7354  7651  7358  0
7346  7653  7361  0
7361  7653  7364  0
7363  7365  7654  0
7363  7654  7362  0
7365  7655  7654  0
7365  7366  7655  0
7366  7656  7655  0
7366  7367  7656  0
7367  7657  7656  0
7367  7368  7658  0
7367  7658  7657  0
7368  7369  7658  0
6855  6572  7375  0
7370  7371  6858  0
7369  7373  7659  0
6859  7371  7660  0
7661  7662  7659  0
7661  7659  7373  0
7378  7379  7380  0
7379  7381  7663  0
7664  7663  7381  0
7664  7381  7382  0
7376  7665  7374  0
7666  7375  7383  0
6859  7660  7097  0
7384  7097  7667  0
7097  7660  7667  0
7668  7661  7373  0
7373  7386  7668  0
7669  7664  7382  0
7374  7670  7387  0
7101  7102  7671  0
7389  7671  7102  0
7389  7388  7672  0
7384  7667  7385  0
