#!ascii file
2700  2692  2469  0
2469  2475  2700  0
2701  2700  2475  0
2475  2693  2701  0
2274  2696  2279  0
2696  2697  2702  0
2696  2702  2279  0
2480  2703  2283  0
2283  2703  2481  0
2482  2704  2483  0
2483  2704  2705  0
2483  2705  2484  0
2484  2705  2698  0
2484  2698  2477  0
2485  2474  2468  0
2485  2468  2706  0
2279  2702  2487  0
2480  2495  2707  0
2292  2486  2493  0
2486  2485  2708  0
2486  2708  2493  0
2485  2706  2708  0
2293  2709  2710  0
2487  2711  2494  0
2487  2702  2711  0
2495  2488  2712  0
2489  2490  2496  0
2490  2491  2713  0
2491  2497  2714  0
2491  2714  2713  0
2497  2492  2715  0
2497  2715  2714  0
2492  2493  2716  0
2492  2716  2715  0
2717  2718  2719  0
2717  2719  2711  0
2711  2719  2494  0
2488  2496  2720  0
2488  2720  2712  0
2496  2490  2721  0
2496  2721  2720  0
2490  2713  2722  0
2490  2722  2721  0
2498  2723  2293  0
2719  2500  2295  0
2719  2295  2494  0
2498  2296  2724  0
2296  2498  2094  0
2725  2719  2718  0
2719  2725  2500  0
2500  2725  2502  0
2726  2502  2725  0
2499  2724  2296  0
2502  2726  2503  0
2727  2503  2726  0
2728  2302  2504  0
2302  2728  2303  0
2303  2728  2505  0
2729  2299  2501  0
2299  2729  2499  0
2504  2730  2728  0
2728  2730  2731  0
2728  2731  2505  0
2503  2727  2732  0
2503  2732  2512  0
2733  2309  2513  0
2309  2733  2734  0
2309  2734  2507  0
2507  2734  2735  0
2507  2735  2310  0
2310  2735  2508  0
2510  2512  2516  0
2736  2516  2512  0
2512  2732  2737  0
2512  2737  2736  0
2513  2515  2738  0
2513  2738  2733  0
2739  2311  2514  0
2514  2516  2739  0
2740  2739  2516  0
2516  2736  2740  0
2736  2737  2741  0
2736  2741  2740  0
2742  2517  2519  0
2316  2519  2517  0
2742  2519  2743  0
2744  2743  2519  0
2517  2742  2518  0
2739  2740  2745  0
2520  2519  2315  0
2519  2520  2744  0
2746  2744  2520  0
2318  2314  2522  0
2118  2311  2747  0
2311  2739  2747  0
2520  2521  2748  0
2520  2748  2746  0
2320  2116  2749  0
2116  2318  2749  0
2521  2524  2750  0
2521  2750  2748  0
2524  2525  2750  0
2526  2320  2749  0
2522  2527  2751  0
2523  2752  2529  0
2530  2529  2533  0
2326  2532  2753  0
2326  2753  2528  0
2754  2752  2755  0
2752  2754  2529  0
2529  2754  2756  0
2529  2756  2533  0
2533  2329  2531  0
2532  2757  2753  0
2532  2758  2757  0
2532  2328  2758  0
2756  2759  2533  0
2533  2759  2329  0
2329  2759  2534  0
2760  2761  2762  0
2761  2760  2538  0
2328  2131  2758  0
2763  2764  2756  0
2756  2764  2759  0
2759  2765  2534  0
2766  2767  2761  0
2768  2767  2766  0
2761  2538  2535  0
2761  2535  2766  0
2539  2769  2770  0
2539  2770  2540  0
2540  2770  2771  0
2540  2771  2772  0
2540  2773  2542  0
2774  2542  2773  0
2540  2772  2773  0
2773  2772  2775  0
2773  2775  2774  0
2764  2776  2759  0
2777  2759  2776  0
2759  2777  2765  0
2543  2534  2765  0
2778  2768  2766  0
2766  2535  2778  0
2779  2778  2535  0
2535  2544  2779  0
2780  2779  2544  0
2544  2542  2781  0
2782  2781  2542  0
2542  2774  2782  0
2543  2765  2777  0
2778  2779  2783  0
2784  2783  2779  0
2779  2780  2784  0
2549  2333  2336  0
2546  2138  2547  0
2776  2551  2777  0
2335  2777  2551  0
2777  2335  2543  0
2337  2334  2785  0
2334  2546  2785  0
2547  2136  2786  0
2787  2786  2136  0
2136  2345  2787  0
2550  2551  2788  0
2337  2785  2789  0
2337  2789  2554  0
2345  2556  2787  0
2550  2790  2341  0
2146  2791  2339  0
2146  2347  2791  0
2556  2555  2792  0
2341  2790  2340  0
2793  2552  2343  0
2553  2794  2344  0
2344  2794  2347  0
2555  2348  2792  0
2559  2558  2557  0
2554  2795  2561  0
2554  2561  2147  0
2348  2796  2792  0
2348  2351  2796  0
2559  2797  2562  0
2798  2561  2795  0
2561  2798  2799  0
2561  2799  2353  0
2566  2353  2799  0
2351  2563  2796  0
2563  2564  2800  0
2564  2562  2800  0
2568  2801  2569  0
2569  2801  2572  0
2570  2572  2802  0
2570  2802  2573  0
2573  2802  2803  0
2573  2803  2576  0
2576  2803  2804  0
2576  2804  2577  0
2577  2804  2356  0
2356  2804  2560  0
2356  2560  2154  0
2565  2805  2357  0
2357  2578  2359  0
2357  2805  2578  0
2568  2567  2806  0
2579  2806  2567  0
2568  2806  2807  0
2578  2808  2580  0
2581  2809  2362  0
2362  2809  2582  0
2583  2806  2579  0
2585  2370  2587  0
2370  2586  2587  0
2582  2809  2810  0
2582  2810  2592  0
2806  2583  2378  0
2806  2378  2811  0
2806  2811  2812  0
2369  2813  2590  0
2369  2585  2813  0
2375  2376  2589  0
2375  2589  2814  0
2375  2814  2815  0
2375  2815  2588  0
2592  2377  2582  0
2592  2810  2816  0
2378  2817  2811  0
2595  2818  2819  0
2595  2819  2594  0
2820  2594  2819  0
2595  2821  2818  0
2821  2595  2596  0
2590  2599  2374  0
2589  2591  2814  0
2591  2592  2816  0
2817  2378  2822  0
2378  2593  2822  0
2387  2386  2594  0
2387  2594  2820  0
2387  2820  2823  0
2596  2597  2824  0
2590  2825  2599  0
2598  2599  2826  0
2598  2826  2384  0
2384  2826  2827  0
2384  2827  2385  0
2600  2387  2823  0
2597  1998  2389  0
2599  2828  2826  0
2829  2826  2828  0
2826  2829  2827  0
2830  2827  2829  0
2827  2830  2385  0
2385  2830  2602  0
2603  2602  2830  0
2597  2389  2608  0
2603  2831  2606  0
2832  2606  2831  0
2609  2607  2604  0
2604  2606  2609  0
2833  2609  2606  0
2606  2832  2833  0
2834  2833  2832  0
2614  2608  2394  0
2614  2835  2608  0
2609  2833  2616  0
2617  2616  2833  0
2833  2834  2617  0
2836  2617  2834  0
2611  2612  2837  0
2838  2837  2612  0
2611  2837  2613  0
2839  2613  2837  0
2613  2839  2614  0
2617  2836  2615  0
2612  2618  2838  0
2621  2840  2841  0
2621  2841  2619  0
2622  2840  2621  0
2842  2629  2843  0
2844  2842  2843  0
2631  2843  2629  0
2845  2844  2843  0
2843  2631  2846  0
2632  2846  2631  0
2843  2846  2845  0
2846  2632  2847  0
2633  2847  2632  0
2847  2633  2623  0
2413  2623  2633  0
2848  2847  2623  0
2623  2615  2848  0
2849  2848  2615  0
2624  2850  2618  0
2618  2850  2838  0
2619  2841  2851  0
2619  2851  2620  0
2852  2622  2411  0
2411  2625  2852  0
2627  2852  2625  0
2627  2626  2853  0
2854  2853  2626  0
2626  2629  2854  0
2842  2854  2629  0
2850  2624  2855  0
2624  2634  2855  0
2416  2638  2856  0
2422  2421  2857  0
2422  2857  2858  0
2421  2620  2851  0
2421  2851  2857  0
2636  2637  2859  0
2637  2416  2860  0
2416  2856  2860  0
2638  2417  2856  0
2417  2422  2858  0
2417  2858  2856  0
2640  2861  2862  0
2640  2863  2861  0
2862  2641  2640  0
2863  2640  2639  0
2863  2639  2864  0
2641  2865  2643  0
2864  2639  2642  0
2864  2642  2866  0
2643  2867  2426  0
2426  2867  2427  0
2645  2427  2867  0
2866  2642  2868  0
2642  2644  2868  0
2646  2869  2870  0
2870  2647  2646  0
2644  2871  2868  0
2872  2428  2645  0
2432  2433  2869  0
2432  2869  2646  0
2644  2434  2871  0
2428  2872  2648  0
2433  2873  2869  0
2433  2435  2874  0
2433  2874  2873  0
2434  2653  2871  0
2875  2871  2653  0
2876  2429  2648  0
2874  2435  2650  0
2649  2877  2651  0
2878  2651  2877  0
2879  2875  2653  0
2876  2657  2429  0
2654  2880  2650  0
2881  2880  2654  0
2442  2651  2882  0
2878  2882  2651  0
2442  2882  2655  0
2879  2653  2656  0
2883  2658  2657  0
2663  2662  2884  0
2663  2885  2664  0
2886  2664  2885  0
2663  2884  2885  0
2887  2885  2884  0
2888  2886  2885  0
2889  2885  2887  0
2885  2889  2888  0
2890  2660  2659  0
2660  2891  2654  0
2881  2654  2891  0
2661  2655  2670  0
2882  2670  2655  0
2662  2671  2884  0
2664  2886  2665  0
2892  2665  2886  0
2886  2888  2892  0
2893  2892  2888  0
2888  2889  2893  0
2668  2894  2666  0
2895  2666  2894  0
2666  2890  2659  0
2670  2896  2669  0
2656  2460  2897  0
2665  2892  2676  0
2892  2893  2898  0
2899  2898  2893  0
2892  2898  2900  0
2893  2901  2899  0
2899  2901  2902  0
2899  2902  2903  0
2904  2905  2906  0
2907  2906  2905  0
2904  2894  2905  0
2908  2905  2894  0
2904  2895  2894  0
2894  2668  2908  0
2673  2908  2668  0
2669  2896  2909  0
2669  2909  2674  0
2455  2883  2910  0
2671  2675  2911  0
2677  2676  2678  0
2912  2678  2676  0
2676  2892  2900  0
2898  2899  2682  0
2898  2682  2463  0
2898  2463  2912  0
2899  2903  2682  0
2903  2913  2464  0
2903  2464  2682  0
2903  2902  2913  0
2905  2914  2907  0
2905  2908  2914  0
2908  2673  2915  0
2908  2915  2916  0
2908  2916  2914  0
2673  2672  2679  0
2673  2679  2915  0
2674  2909  2917  0
2674  2917  2680  0
2918  2460  2461  0
2918  2461  2688  0
2918  2688  2919  0
2455  2910  2920  0
2455  2920  2456  0
2678  2912  2685  0
2678  2685  2681  0
2463  2685  2912  0
2464  2913  2683  0
2683  2913  2691  0
2683  2691  2467  0
2915  2921  2916  0
2915  2679  2922  0
2915  2922  2921  0
2679  2923  2922  0
2679  2451  2684  0
2679  2684  2924  0
2679  2924  2923  0
2680  2917  2687  0
2925  2687  2917  0
2920  2926  2456  0
2456  2926  2675  0
2927  2681  2685  0
2684  2686  2924  0
2688  2470  2928  0
2681  2927  2689  0
2929  2689  2927  0
2685  2478  2695  0
2685  2695  2927  0
2924  2686  2699  0
2468  2687  2930  0
2687  2925  2930  0
2470  2692  2928  0
2931  2928  2692  0
2471  2694  2267  0
2929  2932  2689  0
2689  2932  2694  0
2933  2697  2690  0
2698  2934  2699  0
2935  2934  2698  0
2936  2931  2692  0
2692  2700  2936  0
2700  2701  2937  0
2938  2937  2701  0
2701  2693  2938  0
2694  2693  2267  0
2695  2479  2929  0
2710  2929  2479  0
2481  2703  2939  0
2481  2939  2482  0
2482  2939  2940  0
2482  2940  2704  0
2704  2940  2941  0
2704  2941  2705  0
2705  2941  2935  0
2705  2935  2698  0
2468  2930  2942  0
2468  2942  2706  0
2937  2936  2700  0
2293  2710  2479  0
2697  2943  2702  0
2480  2707  2703  0
2708  2706  2944  0
2945  2946  2717  0
2945  2717  2711  0
2945  2711  2702  0
2945  2702  2947  0
2707  2495  2712  0
2707  2712  2948  0
2713  2714  2949  0
2713  2949  2722  0
2716  2950  2715  0
2493  2708  2951  0
2493  2951  2716  0
2708  2944  2951  0
2717  2952  2718  0
2717  2946  2952  0
2948  2712  2953  0
2712  2720  2954  0
2712  2954  2953  0
2720  2721  2955  0
2720  2955  2956  0
2720  2956  2954  0
2721  2957  2955  0
2722  2949  2958  0
2949  2714  2959  0
2949  2959  2958  0
2714  2715  2950  0
2714  2950  2959  0
2723  2709  2293  0
2952  2960  2961  0
2952  2962  2960  0
2952  2961  2718  0
2955  2957  2956  0
2718  2961  2726  0
2718  2726  2725  0
2499  2729  2724  0
2961  2963  2726  0
2726  2963  2727  0
2960  2964  2961  0
2963  2961  2964  0
2505  2731  2501  0
2965  2501  2731  0
2501  2965  2729  0
2964  2960  2966  0
2727  2967  2732  0
2968  2732  2967  0
2969  2508  2735  0
2508  2969  2509  0
2509  2970  2504  0
2730  2504  2970  0
2732  2968  2737  0
2971  2737  2968  0
2742  2743  2972  0
2973  2972  2743  0
2972  2974  2742  0
2515  2975  2976  0
2515  2976  2738  0
2738  2976  2733  0
2737  2977  2741  0
2978  2741  2977  0
2737  2971  2977  0
2744  2973  2743  0
2742  2974  2518  0
2518  2974  2975  0
2518  2975  2515  0
2979  2745  2740  0
2740  2741  2979  0
2980  2979  2741  0
2741  2978  2980  0
2981  2973  2744  0
2744  2746  2981  0
2118  2747  2523  0
2745  2747  2739  0
2745  2979  2982  0
2983  2746  2748  0
2748  2750  2983  0
2984  2983  2750  0
2749  2318  2985  0
2318  2522  2986  0
2522  2751  2986  0
2523  2747  2752  0
2747  2745  2987  0
2745  2982  2987  0
2750  2525  2988  0
2750  2988  2984  0
2525  2526  2989  0
2525  2989  2988  0
2526  2749  2985  0
2526  2985  2989  0
2527  2528  2990  0
2528  2753  2991  0
2992  2993  2762  0
2992  2762  2994  0
2993  2995  2762  0
2528  2991  2990  0
2991  2753  2996  0
2755  2763  2754  0
2754  2763  2756  0
2997  2998  2999  0
2998  2994  2767  0
2998  2997  2994  0
2992  2994  2997  0
2994  2762  2761  0
2994  2761  2767  0
2762  2995  2760  0
3000  2760  2995  0
2760  3000  2539  0
2760  2539  2538  0
3000  2769  2539  0
2771  3001  2772  0
2771  3002  3001  0
3003  3002  2771  0
3004  3001  3002  0
3001  3005  2775  0
3001  2775  2772  0
3001  3004  3005  0
3006  3005  3004  0
3005  2996  3007  0
3005  3007  2775  0
3005  3006  2996  0
2990  2996  3006  0
2996  3008  3007  0
2991  2996  2990  0
2996  2753  3008  0
2753  2757  3009  0
2753  3009  3008  0
3010  2763  2755  0
3011  2999  2998  0
2998  2767  2768  0
2998  2768  3011  0
2769  3012  2770  0
3003  2770  3012  0
2770  3003  2771  0
2775  3007  2774  0
3013  2774  3007  0
3007  3008  3013  0
3009  3013  3008  0
2758  2131  2545  0
2764  2763  3010  0
2768  2778  3014  0
3015  3014  2778  0
2778  2783  3015  0
2544  2781  2780  0
2781  2782  3016  0
2781  3016  3017  0
2782  2774  3018  0
3019  3018  2774  0
2774  3013  3019  0
3020  3019  3013  0
3010  3021  2764  0
2764  3021  2776  0
3015  2783  2784  0
3022  2784  2780  0
2780  2781  3022  0
2781  3017  3022  0
2782  3018  3016  0
2333  2549  3023  0
2333  3023  2545  0
2786  2546  2547  0
3021  2788  2551  0
3021  2551  2776  0
2546  2786  2785  0
2788  3024  2550  0
2548  3025  3026  0
2548  3026  2549  0
2550  3024  2790  0
2552  2793  2553  0
2791  3025  2339  0
2339  3025  2548  0
2556  3027  2787  0
2556  2792  3027  0
2340  2790  3028  0
2340  3028  2349  0
2793  3029  2553  0
2793  2343  3030  0
2793  3030  3029  0
2553  3029  3031  0
2553  3031  2794  0
2794  3032  2347  0
2789  3033  2554  0
2349  3028  2557  0
3034  2557  3028  0
2557  3034  2559  0
2797  2559  3034  0
2343  2346  2560  0
2343  2560  3030  0
2554  3033  2795  0
2563  2800  3035  0
2562  3035  2800  0
2798  3036  2799  0
3037  2799  3036  0
2799  3037  2566  0
2565  2566  3037  0
3038  2568  2807  0
2568  3038  2801  0
3039  2801  3038  0
2801  3039  2572  0
2572  3040  2802  0
2802  3040  2803  0
2565  3037  2805  0
3041  2805  3037  0
2807  2806  3042  0
2812  3042  2806  0
2805  3041  2578  0
2808  2578  3041  0
2580  3043  2581  0
3044  2581  3043  0
2581  3044  2809  0
3045  2809  3044  0
3046  2809  3045  0
2809  3046  2810  0
2812  2811  3047  0
2813  2585  3048  0
3049  3048  2585  0
2585  2587  3049  0
3050  3049  2587  0
3051  3050  2587  0
2587  2588  3051  0
2588  2815  3051  0
2810  3046  3052  0
2810  3052  2816  0
2818  2821  3053  0
3054  3053  2821  0
2821  2596  3054  0
3055  3054  2596  0
2596  2824  3055  0
3056  3055  2824  0
2813  3057  2825  0
2813  2825  2590  0
2815  2814  3058  0
2814  2591  3059  0
2814  3059  3058  0
2591  2816  3052  0
2591  3052  3059  0
2817  2822  3060  0
2817  3060  2811  0
2822  2593  2600  0
2822  2600  2823  0
2822  2823  3061  0
2822  3061  3060  0
2823  2820  3061  0
2825  3062  2599  0
2825  3057  3062  0
2599  3062  2828  0
2829  2828  3063  0
2830  2829  2831  0
2830  2831  2603  0
3064  2829  3063  0
2829  3064  2831  0
3065  2831  3064  0
2831  3065  2832  0
2597  2608  2835  0
3065  3066  2832  0
2834  2832  3066  0
2839  3067  2614  0
2835  2614  3067  0
3068  2836  2834  0
3069  2837  3070  0
2837  2838  3071  0
2837  3071  3070  0
2837  3069  2839  0
2844  2845  3072  0
2844  3072  3073  0
2845  2846  3074  0
2845  3074  3072  0
3074  2846  3075  0
2847  3075  2846  0
3074  3075  3076  0
3075  2847  3077  0
2848  3077  2847  0
3075  3077  3078  0
3075  3078  3076  0
3077  2848  2836  0
2849  2836  2848  0
2615  2836  2849  0
2836  3068  3077  0
2840  3079  2841  0
3080  2841  3079  0
2840  2622  3079  0
3081  3079  2622  0
2852  3081  2622  0
2842  2844  3082  0
3073  3082  2844  0
3083  2842  3082  0
3084  2857  2841  0
2851  2841  2857  0
3080  3084  2841  0
2852  2627  3085  0
3086  3085  2627  0
2627  2853  3086  0
3083  2853  2854  0
2854  2842  3083  0
2634  2635  3087  0
3088  3087  2635  0
2635  2636  3088  0
2859  3088  2636  0
2857  3089  2858  0
2859  2637  3090  0
2637  2860  3090  0
3091  2860  2856  0
3089  3091  2856  0
2856  2858  3089  0
3092  2861  3093  0
2863  3093  2861  0
2861  3092  3094  0
2861  3094  2862  0
2862  3094  2641  0
3093  2863  3095  0
2864  3095  2863  0
3095  2864  3096  0
2866  3096  2864  0
2643  2865  2867  0
3097  2870  2869  0
3097  2869  2873  0
3097  2873  3098  0
2868  2871  3099  0
2873  3100  3098  0
2647  3101  2649  0
2877  2649  3101  0
3102  2648  2872  0
2873  2874  3103  0
2873  3103  3100  0
2871  2875  3099  0
2648  3102  2876  0
2650  2880  2874  0
2880  2881  3104  0
2880  3104  3105  0
2880  3105  2874  0
2882  2878  3106  0
2656  3107  2879  0
3108  2883  2657  0
2884  3109  2887  0
2660  2890  2891  0
2670  2882  3110  0
3111  2670  3110  0
2656  2897  3107  0
3112  2883  3108  0
2884  2671  3113  0
2884  3113  3109  0
2889  2901  2893  0
3114  2666  2895  0
2666  3114  2890  0
3115  2890  3114  0
2890  3115  2891  0
2881  2891  3115  0
2670  3111  2896  0
3116  2896  3111  0
3112  3117  2883  0
2910  2883  3117  0
2901  3118  2902  0
2906  3119  3120  0
2906  3120  2904  0
2904  3120  2895  0
2895  3120  3114  0
3121  2909  2896  0
3121  2896  3116  0
2460  2918  2897  0
2897  2918  3122  0
2671  2911  3113  0
2676  2900  2912  0
2900  2898  2912  0
2902  3123  2913  0
2906  2907  3124  0
3125  3124  2907  0
2907  2914  3125  0
3126  3125  2914  0
2916  3126  2914  0
2909  3121  2917  0
2918  2919  3122  0
3127  3122  2919  0
2913  3123  2691  0
3126  2916  3128  0
2921  3128  2916  0
2921  2922  3129  0
2926  3130  2675  0
2675  3130  2911  0
2691  3123  2933  0
2691  2933  2690  0
2922  2923  3131  0
2923  2924  2699  0
2923  2699  3132  0
2923  3132  3131  0
2688  2928  2919  0
2927  2695  2929  0
2699  2934  3132  0
2928  2931  3133  0
2934  2935  3132  0
3134  2930  2925  0
2931  2936  3135  0
2693  3136  2938  0
2693  2694  3136  0
2694  2932  3137  0
2929  2710  2709  0
2929  2709  2932  0
2697  2933  2943  0
2940  3138  2941  0
2941  3139  2935  0
3140  2935  3139  0
3132  2935  3140  0
2930  3134  2942  0
3141  2942  3134  0
2936  2937  3142  0
2936  3142  3135  0
2937  2938  3142  0
3137  2932  2709  0
2702  2943  2947  0
2707  3143  2703  0
3144  2703  3143  0
3145  3143  2707  0
2703  3144  2939  0
3146  2939  3144  0
2939  3146  2940  0
3138  2940  3146  0
2706  2942  2944  0
3147  2944  2942  0
2942  3141  3147  0
2945  2947  3148  0
2945  3148  2946  0
2707  2948  3145  0
3149  3145  2948  0
2951  2944  3150  0
3151  3150  2944  0
2944  3147  3151  0
2946  2962  2952  0
2948  2953  3149  0
3152  2953  2954  0
2721  2722  2957  0
3153  2957  2722  0
2722  2958  3153  0
3154  3153  2958  0
2958  2959  3155  0
2958  3155  3154  0
2959  2950  3156  0
3157  3156  2950  0
2950  2716  3157  0
2951  3157  2716  0
2954  2956  3152  0
3158  3152  2956  0
2956  2957  3158  0
3159  3158  2957  0
2957  3153  3159  0
3160  3159  3153  0
3153  3154  3160  0
3155  3160  3154  0
3161  2723  2498  0
2962  3162  2960  0
2724  3161  2498  0
2966  2960  3162  0
2729  3163  2724  0
2724  3163  3161  0
2963  2964  3164  0
2963  3164  2967  0
2963  2967  2727  0
2729  2965  3163  0
2966  3165  2964  0
2964  3166  3164  0
2734  2733  3167  0
2734  3167  2735  0
2509  2969  3168  0
2509  3168  2970  0
2730  3169  2731  0
3170  2731  3169  0
2731  3170  2965  0
2968  3171  2971  0
2968  2967  3171  0
3172  2971  3171  0
3173  2972  3174  0
2972  3175  3174  0
2972  3173  2974  0
3176  2974  3173  0
2974  3176  2975  0
3177  2975  3176  0
2976  2975  3177  0
2976  3167  2733  0
3167  3178  2735  0
2969  2735  3178  0
3165  2966  3179  0
2971  3172  2977  0
2972  2973  3175  0
2981  3175  2973  0
2977  3172  2978  0
3180  2978  3172  0
2981  2746  3181  0
2983  3181  2746  0
3182  2982  2979  0
2979  2980  3182  0
2980  2978  3182  0
3180  3182  2978  0
2318  2986  2985  0
2987  3183  2747  0
2987  2982  3184  0
2982  3182  3185  0
2982  3185  3184  0
2747  3183  2752  0
3184  3183  2987  0
2990  2751  2527  0
2752  3186  2755  0
3187  2997  2999  0
3187  2999  3188  0
3189  3188  2999  0
2997  3187  3190  0
2997  3190  2992  0
2992  3190  3191  0
2992  3191  2993  0
2993  3191  3192  0
2993  3192  2995  0
3006  2751  2990  0
2999  3193  3189  0
2995  3192  3000  0
3000  3192  3194  0
3000  3194  2769  0
2769  3194  3195  0
2769  3195  3012  0
3003  3196  3002  0
3002  3196  3197  0
3002  3197  3004  0
3004  3197  3198  0
3004  3198  3006  0
2999  3011  3199  0
2999  3199  3193  0
3011  2768  3014  0
3011  3014  3200  0
3011  3200  3201  0
3011  3201  3199  0
3013  3009  3020  0
3009  2757  3023  0
2757  2758  2545  0
2757  2545  3023  0
3014  3015  3200  0
3015  3202  3203  0
3015  3203  3200  0
3019  3020  3204  0
3019  3204  3205  0
3015  2784  3202  0
3017  3016  3206  0
3017  3206  3022  0
3016  3018  3205  0
3016  3205  3206  0
3018  3019  3205  0
3010  2788  3021  0
2785  2786  3207  0
2787  3207  2786  0
3027  3208  2787  0
3207  2789  2785  0
3207  2787  3209  0
3208  3209  2787  0
2789  3207  3033  0
3207  3209  3033  0
3027  2792  3210  0
3211  3210  2792  0
3024  3212  2790  0
2790  3212  3028  0
3034  3028  3213  0
3028  3212  3213  0
3213  3214  3034  0
3029  3215  3031  0
2794  3031  3032  0
2347  3032  2791  0
3034  3214  3216  0
3034  3216  2797  0
2796  3217  2792  0
2797  3218  2562  0
3219  3030  2560  0
2795  3033  2798  0
2798  3033  3220  0
3217  2796  3221  0
2796  2563  3222  0
2796  3222  3221  0
2563  3035  3222  0
3035  3223  3222  0
3035  2562  3224  0
3035  3224  3223  0
2562  3218  3224  0
2798  3220  3036  0
3037  3036  3225  0
2807  3042  3226  0
2807  3226  3038  0
3038  3227  3039  0
3038  3226  3228  0
3039  3227  3229  0
3039  3229  2572  0
2572  3229  3040  0
3040  3230  2803  0
3219  2803  3230  0
2803  3219  2804  0
2804  3219  2560  0
3041  3037  3225  0
3042  2812  3047  0
3226  3042  3231  0
3041  3232  2808  0
3233  2808  3232  0
2808  3233  2580  0
2580  3233  3043  0
3234  3044  3043  0
3044  3234  3045  0
3235  3046  3045  0
3047  3236  3042  0
3237  3046  3235  0
3053  2819  2818  0
3053  3238  2819  0
3239  2819  3238  0
2813  3048  3240  0
2813  3240  3241  0
3049  3242  3048  0
3049  3050  3242  0
3050  3051  3243  0
3046  3237  3052  0
3244  3052  3237  0
3245  3047  2811  0
3239  3061  2819  0
2820  2819  3061  0
3246  3061  3239  0
3241  3247  2813  0
3248  3243  3051  0
3051  2815  3248  0
3249  3248  2815  0
2815  3058  3249  0
3250  3249  3058  0
3058  3059  3250  0
3251  3250  3059  0
3059  3052  3252  0
3244  3252  3052  0
3059  3252  3251  0
2811  3060  3245  0
3253  3245  3060  0
3060  3061  3253  0
3246  3253  3061  0
2597  3056  2824  0
2813  3247  3254  0
2813  3254  3057  0
3057  3254  3062  0
3250  3251  3255  0
2597  3256  3056  0
3257  3056  3256  0
3258  3259  3260  0
3261  3260  3259  0
3259  3262  3261  0
3263  3261  3262  0
3062  3254  3264  0
3062  3264  3265  0
3062  3265  2828  0
3063  2828  3266  0
2828  3265  3266  0
3267  3257  3256  0
3256  2597  2835  0
3258  3268  3259  0
3259  3268  3262  0
3269  3262  3268  0
3262  3269  3263  0
3266  3270  3063  0
3063  3270  3271  0
3063  3271  3064  0
3064  3066  3065  0
3064  3271  3272  0
3064  3272  3066  0
3267  3256  3067  0
2835  3067  3256  0
3273  3274  3275  0
3273  3275  3276  0
3273  3276  3277  0
3278  3274  3273  0
3273  3277  3278  0
3278  3277  3279  0
3268  3280  3269  0
3269  3280  3281  0
3066  3272  3282  0
3066  3068  2834  0
3066  3282  3283  0
3066  3283  3068  0
3067  2839  3069  0
3276  3284  3277  0
3285  3268  3286  0
3268  3285  3280  0
3287  3280  3285  0
3280  3287  3288  0
3280  3288  3281  0
3068  3283  3077  0
3078  3077  3283  0
3071  2838  3289  0
3071  3289  3070  0
3276  3275  3290  0
3276  3290  3284  0
3277  3284  3291  0
3284  3290  3291  0
3292  3082  3073  0
3292  3293  3082  0
3294  3082  3293  0
3073  3072  3295  0
3073  3295  3292  0
3072  3074  3296  0
3072  3296  3295  0
3074  3076  3297  0
3074  3297  3296  0
3076  3078  3297  0
2838  3298  3289  0
3290  3275  3299  0
3079  3300  3080  0
3079  3081  3300  0
3294  3083  3082  0
3294  3301  3083  0
2838  2850  3298  0
3302  3298  2850  0
2859  3303  3088  0
3303  3304  3305  0
3303  3305  3088  0
3090  3303  2859  0
3303  3306  3304  0
3303  3090  3306  0
3307  3306  3090  0
3084  3080  3308  0
3309  3300  3081  0
3081  2852  3309  0
3310  3309  2852  0
2852  3085  3310  0
3311  3085  3086  0
3086  2853  3311  0
3301  3311  2853  0
2853  3083  3301  0
2850  2855  3302  0
3312  3302  2855  0
2855  2634  3312  0
3087  3312  2634  0
3313  3307  3090  0
3314  3315  3089  0
3089  2857  3314  0
3084  3314  2857  0
3090  2860  3313  0
3091  3313  2860  0
3091  3089  3315  0
3316  3317  3318  0
3319  3317  3316  0
3316  3320  3093  0
3092  3093  3320  0
3316  3318  3321  0
3316  3321  3320  0
3320  3322  3092  0
3316  3093  3319  0
3095  3319  3093  0
3092  3322  3094  0
3094  3323  2641  0
2865  2641  3323  0
3096  3324  3095  0
3323  3325  2865  0
3326  3096  2866  0
2865  3325  2867  0
3327  2867  3325  0
3328  3329  3330  0
3331  3330  3329  0
3330  3332  3328  0
3097  3328  3332  0
3332  3333  3097  0
3334  3097  3333  0
2866  2868  3335  0
2866  3335  3326  0
3336  2867  3327  0
2867  3336  2645  0
3337  2645  3336  0
3329  3338  3331  0
3328  3097  3098  0
3328  3098  3329  0
3097  3334  2870  0
3101  2870  3334  0
2870  3101  2647  0
2868  3099  3335  0
2645  3337  2872  0
3329  3339  3338  0
3329  3098  3339  0
3098  3100  3339  0
3101  3340  2877  0
3341  2877  3340  0
3100  3103  3342  0
3100  3342  3339  0
2877  3341  2878  0
3343  2878  3341  0
2878  3343  3106  0
3099  2875  3344  0
2876  3345  2657  0
3346  2657  3345  0
2874  3105  3103  0
3347  3110  2882  0
2887  3348  2889  0
2889  3348  2901  0
3104  2881  3349  0
3104  3349  3105  0
2887  3109  3348  0
3350  3115  3114  0
3115  3350  3349  0
3115  3349  2881  0
3111  3110  3347  0
3111  3347  3116  0
2897  3351  3107  0
2897  3122  3351  0
3348  3352  2901  0
3118  2901  3352  0
2906  3124  3119  0
3120  3350  3114  0
2910  3117  3353  0
3118  3354  2902  0
3123  2902  3354  0
3118  3352  3354  0
3125  3355  3124  0
3355  3356  3124  0
3124  3356  3357  0
3124  3357  3119  0
3121  3116  3358  0
3113  2911  3359  0
3130  3359  2911  0
3360  3123  3354  0
3355  3125  3361  0
3362  3361  3125  0
3125  3126  3362  0
3363  3362  3126  0
3126  3128  3363  0
3128  2921  3363  0
3129  3363  2921  0
3121  3358  3364  0
3121  3364  2917  0
2919  3365  3127  0
2910  3353  2920  0
3366  3130  2926  0
3354  3367  3360  0
2933  3123  3360  0
3129  2922  3368  0
3131  3368  2922  0
2917  3364  2925  0
3369  2925  3364  0
3365  2919  3370  0
2928  3370  2919  0
3371  2920  3353  0
2920  3371  2926  0
2926  3371  3366  0
2925  3369  3372  0
3370  2928  3133  0
3360  2943  2933  0
3360  3367  2943  0
3373  2943  3367  0
3372  3134  2925  0
2943  3373  2947  0
2931  3135  3374  0
2931  3374  3375  0
2931  3375  3133  0
3142  2938  3376  0
2938  3136  3376  0
3136  2694  3377  0
2694  3137  3378  0
2694  3378  3377  0
3137  2709  3378  0
3148  2947  3373  0
3143  3379  3144  0
3146  3144  3379  0
3146  3380  3138  0
3381  3138  3380  0
3138  3381  2941  0
3139  2941  3381  0
3382  3147  3141  0
3135  3142  3383  0
3135  3383  3374  0
3142  3376  3384  0
3142  3384  3383  0
3376  3136  3385  0
3136  3377  3385  0
3148  3386  2946  0
3145  3387  3143  0
3387  3388  3143  0
3382  3151  3147  0
3387  3145  3389  0
3149  3389  3145  0
3149  2953  3390  0
3152  3390  2953  0
2959  3156  3155  0
3391  3157  2951  0
2951  3150  3391  0
3392  3391  3150  0
3150  3151  3392  0
3378  2709  2723  0
3161  3378  2723  0
3393  3389  3149  0
3149  3390  3393  0
3394  3390  3152  0
3152  3158  3394  0
3395  3394  3158  0
3158  3159  3395  0
3160  3155  3396  0
3397  3396  3155  0
3155  3156  3397  0
3157  3397  3156  0
3394  3395  3398  0
3399  3398  3395  0
3395  3159  3399  0
3400  3399  3159  0
3159  3160  3400  0
3396  3400  3160  0
3176  3173  3401  0
3164  3166  2967  0
3401  3173  3174  0
2730  2970  3169  0
2964  3402  3403  0
2964  3403  3166  0
3404  2967  3166  0
2967  3404  3171  0
3405  3172  3171  0
2976  3406  3167  0
3178  3407  2969  0
3408  2969  3407  0
2969  3408  3168  0
3179  3409  3165  0
3402  2964  3165  0
3172  3405  3410  0
3175  2981  3181  0
3175  3181  3411  0
3409  3412  3165  0
3172  3410  3180  0
3181  2983  3413  0
3181  3413  3411  0
3180  3414  3182  0
2983  2984  3413  0
3185  3182  3414  0
3415  2984  2988  0
2988  2989  3415  0
2989  2985  3415  0
2985  2986  3415  0
3416  3415  2986  0
2751  3416  2986  0
3417  3183  3184  0
3184  3418  3417  0
3418  3419  3417  0
3184  3185  3418  0
3420  3418  3185  0
3421  3416  2751  0
3186  2752  3183  0
3183  3417  3186  0
3187  3188  3422  0
3422  3190  3187  0
3422  3423  3190  0
3190  3423  3424  0
3190  3424  3191  0
3421  2751  3006  0
3425  3188  3189  0
3426  3425  3189  0
3191  3427  3192  0
3192  3427  3428  0
3198  3197  3421  0
3198  3421  3006  0
3010  2755  3186  0
3186  3429  3010  0
3193  3426  3189  0
3192  3428  3194  0
3430  3194  3428  0
3194  3430  3195  0
3431  3195  3430  0
3195  3432  3012  0
3003  3012  3432  0
3195  3431  3432  0
3196  3003  3432  0
3196  3433  3197  0
3421  3197  3433  0
3426  3193  3434  0
3435  3434  3193  0
3193  3199  3435  0
3436  3435  3199  0
3199  3201  3436  0
3437  3436  3201  0
3201  3200  3438  0
3201  3438  3437  0
3439  3437  3438  0
3009  3440  3020  0
3009  2549  3440  0
3009  3023  2549  0
3441  3010  3442  0
3200  3203  3438  0
3203  3202  3443  0
3203  3443  3438  0
3020  3440  3204  0
3010  3441  2788  0
2784  3022  3444  0
2784  3444  3202  0
3022  3445  3444  0
3022  3206  3445  0
3206  3205  3446  0
3210  3447  3448  0
3210  3448  3449  0
3441  3450  2788  0
3208  3027  3210  0
3208  3210  3451  0
2788  3450  3024  0
3025  2791  3452  0
3208  3451  3209  0
3453  3447  3210  0
2791  3454  3452  0
2791  3032  3454  0
3209  3451  3455  0
3210  3211  3453  0
3212  3456  3213  0
3213  3456  3214  0
3029  3030  3215  0
3033  3209  3455  0
3033  3455  3220  0
3211  2792  3217  0
3214  3457  3216  0
3030  3458  3459  0
3030  3459  3215  0
3030  3219  3458  0
2797  3216  3218  0
3460  3229  3227  0
3461  3229  3460  0
3462  3460  3227  0
3463  3229  3461  0
3464  3036  3220  0
3036  3464  3225  0
3465  3225  3464  0
3041  3225  3465  0
3038  3462  3227  0
3038  3228  3466  0
3038  3466  3462  0
3229  3463  3040  0
3040  3463  3230  0
3467  3230  3463  0
3230  3467  3219  0
3041  3468  3232  0
3231  3469  3226  0
3228  3226  3469  0
3232  3470  3233  0
3471  3233  3470  0
3043  3233  3471  0
3472  3234  3043  0
3234  3472  3045  0
3235  3045  3472  0
3042  3236  3231  0
3241  3240  3473  0
3235  3474  3237  0
3244  3237  3474  0
3239  3238  3475  0
3476  3239  3475  0
3053  3054  3477  0
3053  3477  3238  0
3054  3055  3477  0
3048  3242  3240  0
3050  3243  3478  0
3050  3478  3242  0
3244  3479  3480  0
3244  3480  3252  0
3047  3245  3481  0
3047  3481  3236  0
3246  3239  3476  0
3246  3476  3482  0
3246  3482  3483  0
3246  3483  3253  0
3484  3485  3486  0
3243  3248  3487  0
3243  3487  3478  0
3248  3249  3488  0
3248  3488  3487  0
3249  3250  3255  0
3249  3255  3488  0
3252  3480  3251  0
3245  3489  3481  0
3245  3253  3489  0
3483  3489  3253  0
3257  3490  3056  0
3484  3491  3278  0
3485  3484  3278  0
3485  3492  3493  0
3258  3493  3492  0
3493  3258  3260  0
3494  3487  3488  0
3488  3255  3494  0
3495  3494  3255  0
3255  3251  3495  0
3480  3495  3251  0
3496  3485  3278  0
3485  3496  3492  0
3492  3496  3258  0
3497  3260  3261  0
3263  3497  3261  0
3264  3498  3265  0
3265  3498  3499  0
3265  3499  3266  0
3278  3279  3496  0
3500  3496  3279  0
3496  3500  3258  0
3268  3258  3500  0
3263  3269  3501  0
3281  3502  3269  0
3269  3502  3501  0
3503  3502  3281  0
3266  3499  3270  0
3272  3271  3270  0
3504  3275  3274  0
3279  3277  3505  0
3279  3505  3500  0
3500  3505  3506  0
3500  3506  3507  0
3500  3507  3268  0
3268  3507  3286  0
3281  3508  3509  0
3281  3509  3503  0
3508  3510  3509  0
3272  3511  3282  0
3511  3283  3282  0
3067  3512  3267  0
3067  3069  3513  0
3067  3513  3512  0
3514  3504  3515  0
3516  3507  3506  0
3506  3505  3517  0
3518  3507  3516  0
3507  3518  3286  0
3286  3518  3285  0
3285  3518  3519  0
3285  3519  3287  0
3281  3288  3293  0
3281  3293  3292  0
3281  3292  3508  0
3508  3292  3295  0
3508  3295  3520  0
3508  3520  3521  0
3508  3521  3510  0
3520  3295  3522  0
3520  3522  3521  0
3511  3078  3283  0
3511  3523  3078  0
3070  3524  3069  0
3513  3069  3524  0
3070  3289  3524  0
3525  3514  3526  0
3525  3299  3504  0
3525  3504  3514  0
3504  3299  3275  0
3291  3527  3277  0
3277  3527  3505  0
3518  3528  3519  0
3529  3287  3519  0
3287  3530  3288  0
3287  3529  3530  0
3288  3530  3301  0
3288  3301  3294  0
3288  3294  3293  0
3295  3296  3531  0
3295  3531  3522  0
3296  3297  3523  0
3296  3523  3531  0
3297  3078  3523  0
3298  3532  3289  0
3304  3525  3305  0
3525  3526  3533  0
3525  3533  3305  0
3525  3304  3299  0
3306  3299  3304  0
3534  3299  3306  0
3299  3534  3290  0
3535  3290  3534  0
3290  3535  3291  0
3291  3535  3527  0
3536  3527  3535  0
3527  3536  3537  0
3527  3537  3505  0
3301  3530  3311  0
3530  3529  3311  0
3088  3538  3087  0
3538  3539  3087  0
3538  3088  3305  0
3306  3307  3534  0
3540  3534  3307  0
3534  3540  3535  0
3541  3535  3540  0
3315  3535  3541  0
3535  3315  3536  0
3314  3536  3315  0
3536  3314  3542  0
3084  3542  3314  0
3543  3536  3542  0
3542  3084  3308  0
3542  3308  3543  0
3544  3543  3308  0
3308  3080  3544  0
3545  3544  3080  0
3080  3300  3545  0
3300  3309  3545  0
3546  3545  3309  0
3309  3310  3546  0
3547  3546  3310  0
3310  3085  3547  0
3311  3547  3085  0
3312  3087  3548  0
3539  3548  3087  0
3307  3313  3540  0
3091  3540  3313  0
3540  3091  3541  0
3315  3541  3091  0
3549  3550  3551  0
3551  3550  3552  0
3551  3552  3553  0
3553  3552  3554  0
3553  3554  3555  0
3553  3555  3556  0
3557  3549  3551  0
3551  3553  3557  0
3558  3557  3553  0
3553  3556  3558  0
3559  3558  3556  0
3556  3555  3560  0
3556  3560  3559  0
3318  3317  3561  0
3317  3319  3562  0
3317  3562  3561  0
3321  3322  3320  0
3557  3558  3563  0
3557  3563  3564  0
3558  3559  3565  0
3559  3560  3566  0
3559  3566  3567  0
3319  3095  3324  0
3319  3324  3562  0
3322  3568  3094  0
3323  3094  3568  0
3558  3565  3563  0
3565  3559  3569  0
3565  3569  3570  0
3565  3570  3563  0
3559  3571  3569  0
3559  3567  3571  0
3571  3572  3573  0
3571  3573  3569  0
3324  3096  3574  0
3323  3575  3325  0
3569  3573  3576  0
3573  3577  3576  0
3578  3579  3580  0
3580  3330  3331  0
3580  3331  3578  0
3580  3581  3330  0
3582  3330  3581  0
3330  3582  3332  0
3333  3332  3582  0
3336  3583  3337  0
3578  3584  3585  0
3578  3585  3579  0
3578  3331  3338  0
3578  3338  3584  0
3334  3586  3101  0
3337  3587  2872  0
3588  2872  3587  0
3338  3339  3342  0
3338  3342  3589  0
3338  3589  3584  0
3101  3590  3340  0
3341  3340  3590  0
2872  3588  3102  0
3591  3102  3588  0
3342  3105  3589  0
3102  3591  3345  0
3102  3345  2876  0
3103  3105  3342  0
2882  3106  3347  0
3592  3347  3106  0
3106  3343  3592  0
2879  3107  2875  0
2657  3346  3108  0
3105  3349  3593  0
3109  3594  3348  0
3350  3595  3593  0
3350  3593  3349  0
3347  3596  3116  0
3351  3122  3597  0
3598  3597  3122  0
3113  3359  3109  0
3599  3109  3359  0
3109  3599  3594  0
3348  3594  3352  0
3600  3119  3357  0
3119  3600  3120  0
3601  3120  3600  0
3120  3601  3350  0
3350  3601  3595  0
3117  3112  3353  0
3359  3602  3599  0
3594  3603  3352  0
3354  3352  3603  0
3604  3355  3361  0
3604  3605  3355  0
3355  3605  3606  0
3355  3606  3356  0
3356  3606  3357  0
3357  3606  3600  0
3116  3596  3607  0
3116  3607  3358  0
3598  3122  3127  0
3359  3130  3602  0
3603  3608  3354  0
3609  3608  3603  0
3361  3362  3610  0
3361  3610  3611  0
3361  3611  3612  0
3362  3363  3610  0
3127  3365  3613  0
3127  3613  3598  0
3130  3366  3602  0
3608  3367  3354  0
3614  3608  3609  0
3610  3363  3615  0
3610  3615  3611  0
3363  3129  3615  0
3129  3368  3616  0
3129  3616  3615  0
3371  3617  3366  0
3608  3614  3618  0
3608  3618  3367  0
3365  3370  3619  0
3617  3353  3620  0
3353  3617  3371  0
3614  3621  3618  0
3618  3373  3367  0
3131  3132  3140  0
3622  3372  3369  0
3370  3133  3375  0
3370  3375  3623  0
3370  3623  3619  0
3621  3624  3148  0
3621  3148  3618  0
3618  3148  3373  0
3372  3625  3134  0
3141  3134  3625  0
3372  3622  3625  0
3626  3623  3375  0
3386  3148  3624  0
3143  3388  3379  0
3627  3379  3388  0
3379  3627  3146  0
3628  3146  3627  0
3146  3628  3380  0
3629  3380  3628  0
3380  3629  3381  0
3139  3630  3140  0
3631  3630  3139  0
3625  3622  3141  0
3375  3374  3632  0
3375  3632  3626  0
3633  3374  3383  0
3383  3384  3633  0
3634  3384  3376  0
3376  3385  3634  0
3388  3635  3627  0
3627  3635  3628  0
3381  3631  3139  0
3141  3151  3382  0
3141  3636  3151  0
3637  3632  3374  0
3374  3633  3637  0
3634  3633  3384  0
3377  3378  3638  0
2946  3386  2962  0
2962  3386  3639  0
3624  3639  3386  0
2962  3639  3640  0
3641  3387  3389  0
3391  3392  3642  0
3151  3636  3392  0
3638  3378  3161  0
2962  3640  3162  0
3389  3393  3643  0
3389  3643  3641  0
3393  3390  3644  0
3645  3644  3390  0
3390  3394  3645  0
3398  3645  3394  0
3396  3397  3646  0
3397  3157  3647  0
3157  3391  3647  0
3648  3647  3391  0
3391  3642  3648  0
3649  3642  3392  0
3650  3393  3651  0
3650  3643  3393  0
3393  3644  3652  0
3393  3652  3651  0
3645  3398  3653  0
3398  3399  3653  0
3638  3161  3654  0
3650  3651  3655  0
3653  3399  3401  0
3653  3656  3645  0
3399  3400  3176  0
3399  3176  3401  0
3400  3396  3657  0
3400  3657  3176  0
3161  3163  3654  0
2966  3162  3179  0
3162  3658  3179  0
3650  3655  3659  0
3653  3401  3660  0
3653  3660  3656  0
3401  3174  3660  0
3176  3657  3177  0
3657  3396  3177  0
3179  3658  3661  0
3177  3396  2976  0
3406  2976  3396  0
3662  2965  3170  0
2965  3662  3163  0
3661  3663  3179  0
3409  3179  3663  0
3664  3663  3661  0
3166  3403  3404  0
3405  3171  3404  0
3665  3167  3406  0
3167  3665  3178  0
3666  3178  3665  0
3407  3178  3666  0
3169  2970  3168  0
3169  3667  3170  0
3170  3667  3662  0
3165  3668  3402  0
3403  3402  3669  0
3403  3669  3405  0
3403  3405  3404  0
3405  3670  3410  0
3165  3412  3668  0
3671  3411  3413  0
3409  3663  3672  0
3409  3672  3412  0
3180  3410  3673  0
3180  3673  3414  0
3413  2984  3671  0
3674  3671  2984  0
3185  3414  3420  0
3675  3420  3414  0
3414  3673  3675  0
2984  3415  3674  0
3420  3419  3418  0
3415  3416  3676  0
3417  3419  3677  0
3417  3677  3429  0
3419  3678  3677  0
3419  3420  3678  0
3420  3679  3678  0
3420  3675  3680  0
3420  3680  3679  0
3188  3681  3682  0
3188  3682  3422  0
3188  3425  3681  0
3422  3682  3683  0
3422  3683  3423  0
3423  3683  3684  0
3423  3684  3424  0
3424  3685  3427  0
3424  3427  3191  0
3424  3684  3685  0
3416  3421  3676  0
3417  3429  3186  0
3429  3677  3686  0
3677  3678  3687  0
3677  3687  3686  0
3678  3679  3687  0
3679  3680  3688  0
3680  3689  3688  0
3426  3690  3425  0
3427  3430  3428  0
3427  3691  3430  0
3431  3430  3691  0
3421  3433  3692  0
3421  3692  3676  0
3429  3686  3442  0
3429  3442  3010  0
3687  3693  3686  0
3687  3679  3694  0
3687  3694  3693  0
3679  3688  3694  0
3695  3688  3689  0
3426  3696  3697  0
3696  3426  3434  0
3698  3436  3437  0
3699  3432  3431  0
3432  3699  3196  0
3196  3699  3433  0
3692  3433  3699  0
3686  3693  3442  0
3693  3694  3700  0
3688  3695  3694  0
3701  3694  3695  0
3696  3434  3702  0
3434  3435  3702  0
3437  3439  3698  0
3703  3439  3438  0
3442  3693  3441  0
3704  3441  3693  0
3693  3700  3704  0
3701  3700  3694  0
3438  3443  3703  0
3205  3204  3705  0
3440  3705  3204  0
3440  2549  3026  0
3706  3707  3708  0
3709  3443  3202  0
3444  3709  3202  0
3206  3446  3445  0
3454  3446  3205  0
3205  3705  3454  0
3452  3454  3705  0
3705  3440  3452  0
3025  3440  3026  0
3449  3448  3710  0
3711  3448  3447  0
3712  3448  3711  0
3441  3704  3713  0
3441  3713  3714  0
3441  3714  3450  0
3025  3452  3440  0
3210  3449  3451  0
3447  3715  3711  0
3447  3453  3715  0
3450  3714  3024  0
3716  3454  3032  0
3716  3032  3031  0
3024  3714  3212  0
3717  3456  3212  0
3456  3717  3457  0
3456  3457  3214  0
3717  3718  3457  0
3719  3457  3718  0
3716  3031  3720  0
3031  3215  3721  0
3031  3721  3720  0
3211  3217  3453  0
3457  3719  3216  0
3722  3216  3719  0
3721  3215  3459  0
3217  3221  3723  0
3221  3222  3724  0
3221  3724  3725  0
3221  3725  3723  0
3724  3222  3726  0
3724  3726  3727  0
3724  3727  3725  0
3726  3222  3223  0
3726  3728  3727  0
3726  3223  3224  0
3726  3224  3218  0
3726  3218  3729  0
3726  3729  3728  0
3218  3216  3722  0
3218  3722  3729  0
3462  3730  3460  0
3461  3731  3463  0
3467  3463  3731  0
3220  3732  3464  0
3465  3468  3041  0
3462  3466  3730  0
3733  3730  3466  0
3219  3467  3458  0
3468  3734  3232  0
3232  3734  3470  0
3470  3734  3471  0
3469  3735  3228  0
3228  3735  3733  0
3228  3733  3466  0
3043  3471  3736  0
3043  3736  3737  0
3043  3737  3472  0
3472  3737  3738  0
3472  3738  3235  0
3235  3738  3739  0
3235  3739  3474  0
3236  3740  3231  0
3740  3469  3231  0
3241  3741  3742  0
3743  3741  3241  0
3241  3473  3743  0
3474  3739  3744  0
3474  3744  3244  0
3740  3236  3745  0
3746  3745  3236  0
3238  3477  3747  0
3748  3747  3477  0
3477  3055  3748  0
3055  3056  3748  0
3490  3748  3056  0
3749  3484  3486  0
3486  3485  3750  0
3493  3750  3485  0
3241  3742  3247  0
3751  3240  3242  0
3752  3751  3242  0
3242  3478  3752  0
3753  3752  3478  0
3480  3479  3754  0
3754  3479  3755  0
3756  3755  3479  0
3479  3244  3756  0
3744  3756  3244  0
3481  3746  3236  0
3482  3476  3757  0
3475  3757  3476  0
3749  3491  3484  0
3758  3753  3478  0
3478  3487  3758  0
3759  3758  3487  0
3754  3495  3480  0
3481  3489  3760  0
3483  3760  3489  0
3490  3257  3761  0
3762  3247  3763  0
3247  3762  3254  0
3764  3254  3762  0
3487  3494  3765  0
3487  3765  3759  0
3494  3495  3765  0
3257  3766  3761  0
3767  3274  3278  0
3278  3491  3767  0
3254  3764  3264  0
3768  3264  3764  0
3264  3768  3498  0
3498  3768  3499  0
3769  3499  3768  0
3257  3267  3766  0
3263  3501  3497  0
3499  3769  3270  0
3270  3769  3272  0
3770  3272  3769  0
3272  3770  3511  0
3771  3511  3770  0
3766  3267  3772  0
3267  3512  3772  0
3515  3504  3274  0
3515  3274  3773  0
3511  3771  3523  0
3774  3523  3771  0
3514  3515  3775  0
3506  3517  3776  0
3506  3776  3516  0
3521  3522  3777  0
3522  3531  3778  0
3523  3778  3531  0
3522  3778  3774  0
3522  3774  3777  0
3778  3523  3774  0
3532  3524  3289  0
3532  3779  3780  0
3532  3780  3524  0
3781  3779  3532  0
3524  3780  3513  0
3505  3537  3517  0
3782  3517  3537  0
3516  3776  3783  0
3516  3783  3518  0
3518  3783  3528  0
3528  3529  3519  0
3532  3298  3781  0
3784  3781  3298  0
3533  3526  3785  0
3543  3537  3536  0
3537  3543  3782  0
3544  3782  3543  0
3311  3529  3547  0
3529  3528  3547  0
3298  3302  3784  0
3786  3784  3302  0
3538  3305  3533  0
3538  3533  3539  0
3546  3544  3545  0
3302  3312  3786  0
3548  3786  3312  0
3548  3539  3787  0
3550  3788  3789  0
3789  3788  3790  0
3789  3791  3550  0
3550  3791  3792  0
3550  3792  3552  0
3552  3792  3793  0
3552  3793  3794  0
3552  3794  3554  0
3788  3550  3795  0
3549  3795  3550  0
3554  3794  3796  0
3554  3796  3555  0
3318  3797  3798  0
3318  3561  3797  0
3799  3797  3561  0
3318  3800  3321  0
3795  3549  3801  0
3549  3557  3801  0
3564  3801  3557  0
3555  3796  3560  0
3802  3560  3796  0
3803  3560  3802  0
3560  3803  3566  0
3804  3566  3803  0
3561  3805  3799  0
3321  3800  3322  0
3806  3322  3800  0
3564  3563  3807  0
3566  3808  3571  0
3566  3571  3567  0
3566  3804  3808  0
3809  3808  3804  0
3808  3809  3571  0
3810  3571  3809  0
3561  3562  3805  0
3562  3324  3811  0
3322  3806  3568  0
3575  3568  3806  0
3568  3575  3323  0
3563  3812  3807  0
3563  3813  3812  0
3563  3570  3813  0
3571  3810  3572  0
3814  3572  3810  0
3572  3814  3573  0
3577  3573  3814  0
3324  3574  3811  0
3575  3815  3327  0
3575  3327  3325  0
3570  3816  3813  0
3570  3569  3576  0
3570  3576  3817  0
3570  3817  3816  0
3574  3096  3326  0
3336  3327  3815  0
3576  3577  3818  0
3576  3818  3817  0
3577  3819  3818  0
3579  3820  3580  0
3581  3580  3820  0
3582  3821  3333  0
3822  3333  3821  0
3333  3586  3334  0
3333  3822  3586  0
3336  3823  3583  0
3824  3337  3583  0
3825  3826  3827  0
3825  3579  3585  0
3825  3585  3826  0
3825  3828  3579  0
3829  3586  3822  0
3586  3829  3590  0
3586  3590  3101  0
3326  3335  3830  0
3337  3824  3587  0
3826  3585  3831  0
3585  3584  3831  0
3589  3831  3584  0
3590  3832  3341  0
3335  3099  3833  0
3831  3589  3834  0
3589  3105  3834  0
3835  3834  3105  0
3341  3832  3836  0
3341  3836  3343  0
3099  3344  3833  0
3591  3837  3345  0
3345  3837  3838  0
3105  3593  3835  0
3839  3835  3593  0
3840  3344  2875  0
3345  3838  3841  0
3345  3841  3346  0
3842  3839  3593  0
3107  3840  2875  0
3107  3351  3840  0
3108  3346  3841  0
3595  3842  3593  0
3843  3842  3595  0
3592  3844  3347  0
3347  3844  3596  0
3845  3597  3598  0
3108  3841  3846  0
3108  3846  3112  0
3601  3847  3843  0
3601  3843  3595  0
3848  3599  3602  0
3599  3848  3594  0
3849  3594  3848  0
3594  3849  3603  0
3850  3851  3852  0
3850  3852  3853  0
3850  3604  3851  0
3361  3851  3604  0
3850  3853  3854  0
3850  3854  3604  0
3604  3854  3605  0
3855  3605  3854  0
3605  3855  3606  0
3856  3606  3855  0
3606  3856  3600  0
3857  3600  3856  0
3600  3857  3601  0
3847  3601  3857  0
3620  3353  3112  0
3849  3609  3603  0
3851  3361  3858  0
3851  3858  3859  0
3361  3612  3858  0
3860  3358  3607  0
3598  3613  3861  0
3598  3861  3862  0
3863  3849  3848  0
3609  3849  3614  0
3858  3612  3864  0
3611  3615  3865  0
3611  3865  3612  0
3615  3616  3865  0
3358  3860  3364  0
3613  3365  3619  0
3366  3617  3866  0
3867  3849  3863  0
3849  3868  3614  0
3849  3867  3868  0
3616  3368  3869  0
3616  3869  3870  0
3368  3131  3869  0
3860  3369  3364  0
3619  3871  3613  0
3620  3872  3617  0
3868  3621  3614  0
3869  3873  3870  0
3869  3131  3140  0
3869  3140  3630  0
3869  3630  3873  0
3860  3874  3369  0
3622  3369  3874  0
3860  3875  3874  0
3876  3871  3619  0
3868  3624  3621  0
3868  3867  3877  0
3868  3877  3624  0
3619  3623  3876  0
3878  3623  3626  0
3624  3877  3639  0
3630  3631  3873  0
3874  3879  3622  0
3622  3879  3141  0
3880  3878  3626  0
3881  3388  3387  0
3388  3881  3635  0
3882  3635  3881  0
3635  3882  3628  0
3883  3628  3882  0
3628  3883  3629  0
3629  3883  3884  0
3629  3884  3381  0
3381  3884  3631  0
3141  3879  3885  0
3141  3885  3636  0
3626  3632  3880  0
3886  3880  3632  0
3632  3637  3886  0
3887  3886  3637  0
3634  3637  3633  0
3888  3634  3385  0
3385  3377  3888  0
3638  3888  3377  0
3387  3641  3881  0
3636  3885  3889  0
3636  3889  3392  0
3890  3640  3891  0
3639  3891  3640  0
3892  3641  3643  0
3397  3647  3646  0
3648  3642  3893  0
3649  3893  3642  0
3889  3649  3392  0
3888  3638  3654  0
3640  3890  3658  0
3640  3658  3162  0
3643  3894  3892  0
3643  3650  3894  0
3646  3647  3895  0
3647  3648  3895  0
3894  3650  3896  0
3650  3659  3896  0
3644  3645  3652  0
3897  3898  3899  0
3898  3897  3659  0
3651  3652  3655  0
3652  3645  3900  0
3645  3656  3900  0
3898  3659  3901  0
3659  3655  3901  0
3655  3902  3901  0
3655  3652  3903  0
3655  3903  3902  0
3652  3900  3904  0
3652  3904  3903  0
3905  3903  3904  0
3660  3174  3906  0
3660  3906  3656  0
3396  3665  3406  0
3662  3907  3163  0
3903  3905  3902  0
3908  3902  3905  0
3174  3175  3906  0
3909  3906  3175  0
3168  3408  3169  0
3667  3169  3408  0
3402  3668  3910  0
3402  3910  3669  0
3405  3669  3911  0
3405  3911  3670  0
3898  3901  3899  0
3175  3411  3909  0
3666  3912  3407  0
3407  3912  3408  0
3408  3912  3913  0
3408  3913  3667  0
3412  3914  3668  0
3670  3915  3410  0
3670  3911  3915  0
3412  3672  3914  0
3916  3673  3410  0
3410  3915  3916  0
3676  3674  3415  0
3675  3673  3917  0
3675  3917  3680  0
3683  3918  3684  0
3685  3684  3919  0
3684  3918  3920  0
3684  3920  3919  0
3680  3917  3689  0
3921  3689  3917  0
3922  3681  3425  0
3922  3425  3923  0
