#!ascii file
11180  11454  11195  0
11181  11187  11455  0
11183  10585  11456  0
10879  11457  11191  0
10879  11192  11457  0
11192  11184  10889  0
11185  11452  11458  0
11185  11458  11193  0
11193  11458  11197  0
11197  11459  11198  0
11186  11460  11461  0
11186  11461  11453  0
11186  11194  11462  0
11186  11462  11460  0
11195  11200  10892  0
11187  10897  11455  0
11196  11463  10893  0
10893  11463  11456  0
10893  11456  10585  0
11457  11192  11464  0
11192  10889  11464  0
10889  10882  11203  0
10889  11203  11464  0
11198  11459  11465  0
11198  11465  10904  0
10904  11465  11204  0
11466  11194  11199  0
11466  11467  11462  0
11466  11462  11194  0
11200  11195  11468  0
10897  11215  11469  0
10897  11469  11455  0
11201  11190  11470  0
11201  11470  11202  0
11190  11191  11470  0
11203  10894  11208  0
11203  11208  11471  0
11212  11204  11472  0
11212  11472  11211  0
11204  11212  10909  0
11473  11205  11206  0
11473  11206  11474  0
11473  11475  11476  0
11473  11476  11205  0
11473  11474  11475  0
11205  11476  11466  0
11205  11466  11199  0
11200  11477  11207  0
11477  11200  11478  0
11215  11479  11469  0
11208  11480  11471  0
11208  11209  11480  0
11209  11210  11480  0
11210  11211  11481  0
11211  11472  11481  0
11474  11206  11213  0
11474  11213  11482  0
11207  11477  11483  0
11477  11484  11483  0
11484  11479  11225  0
11484  11225  11483  0
11479  11217  11225  0
11479  11215  11217  0
10906  11202  11485  0
11213  11216  11482  0
11214  11207  11221  0
11207  11483  11221  0
10906  11485  11218  0
11221  11483  11486  0
11483  11487  11486  0
11483  11225  11487  0
11228  11488  11222  0
11222  11488  11219  0
11220  11221  11224  0
11487  11225  11226  0
11218  10924  10917  0
10930  11232  11228  0
11230  11224  11489  0
11230  11489  11235  0
11224  11490  11489  0
11224  11221  11490  0
11486  11490  11221  0
11486  11487  11491  0
11226  11491  11487  0
11218  11492  10924  0
11234  11233  11229  0
11234  11235  11493  0
11494  11493  11235  0
11235  11489  11494  0
11495  11494  11489  0
11489  11490  11495  0
11496  11495  11490  0
11490  11486  11496  0
11486  11491  11496  0
11245  11496  11491  0
11491  11226  11245  0
10934  11245  11226  0
10924  11492  10935  0
11246  10935  11492  0
11238  11249  11239  0
11497  11239  11249  0
11240  11498  11241  0
11250  11241  11498  0
11231  11243  11499  0
10933  11233  11244  0
11500  11244  11233  0
11233  11234  11500  0
11493  11500  11234  0
11494  11495  11501  0
11502  11501  11495  0
11254  11502  11495  0
11495  11496  11254  0
11253  11254  11496  0
10937  11253  11496  0
11496  11245  10937  0
11503  11249  11247  0
11503  11504  11249  0
11497  11249  11504  0
11243  11242  11505  0
11506  11505  11242  0
11243  11505  11499  0
11507  11499  11505  0
11242  11244  11506  0
11508  11506  11244  0
11244  11500  11508  0
11509  11508  11500  0
11500  11493  11509  0
11510  11509  11493  0
11493  11494  11510  0
11501  11510  11494  0
11502  11254  11257  0
11252  11257  11254  0
11246  11511  10939  0
11512  10939  11511  0
11259  10939  11512  0
11512  11513  11259  0
11514  11259  11513  0
11260  11259  11514  0
11261  11260  11514  0
11514  11503  11261  0
11248  11261  11503  0
11503  11247  11248  0
11515  11256  11255  0
11505  11506  11265  0
11266  11265  11506  0
11505  11265  11507  0
11516  11507  11265  0
11506  11508  11266  0
11268  11266  11508  0
11508  11509  11268  0
11517  11268  11509  0
11509  11518  11517  0
11258  11501  11502  0
11502  11257  11258  0
11256  11515  11262  0
11519  11262  11515  0
11265  11267  11516  0
11520  11516  11267  0
11268  11517  11269  0
11501  11258  11521  0
11522  11521  11258  0
11270  11522  11258  0
10952  11523  11271  0
10952  10946  11272  0
11524  11273  11274  0
11262  11519  11525  0
11262  11525  10951  0
11267  10957  11520  0
11269  11517  11275  0
11526  11275  11517  0
11517  11518  11526  0
11527  11528  11270  0
11270  11276  11527  0
11276  11271  11523  0
11276  11523  11527  0
10623  11277  11529  0
10623  11529  11274  0
10951  11530  11278  0
10951  11525  11531  0
10951  11531  11530  0
10957  10956  11532  0
10957  11532  11520  0
11275  11526  11533  0
11275  11533  11534  0
11275  11534  10959  0
11278  11530  11280  0
10956  10967  11535  0
10956  11535  11532  0
10967  10959  11534  0
10967  11534  11535  0
11536  11280  11530  0
11536  11530  11537  0
10968  11538  11279  0
11539  11285  11536  0
11539  11536  11537  0
11539  11537  11540  0
11536  11285  10984  0
11536  10984  11280  0
10975  11284  10973  0
10973  11284  11538  0
10973  11538  10968  0
11541  11542  11543  0
10981  11281  11544  0
10981  11544  11282  0
11543  11545  11546  0
11543  11546  11547  0
11541  11543  11286  0
11541  11286  11539  0
11539  11286  11285  0
10980  10986  11288  0
10980  11288  10979  0
10979  11288  11548  0
10979  11548  11281  0
11547  11293  11543  0
11543  11293  11287  0
11543  11287  11286  0
11292  11549  11291  0
11292  10993  11550  0
11292  11550  11549  0
11547  11546  11551  0
10993  11294  11550  0
11547  11552  11295  0
11547  11295  11293  0
11547  11551  11553  0
11547  11553  11552  0
11296  11298  11554  0
11296  11554  11294  0
11552  11553  11555  0
11552  11555  11300  0
11552  11300  11295  0
11298  10997  11556  0
11555  11553  11557  0
11555  11557  11558  0
10997  11301  11556  0
11558  11557  11559  0
11555  11558  11303  0
11555  11303  11300  0
11558  11560  11561  0
11558  11561  11303  0
11561  11306  11000  0
11561  11000  11303  0
11309  11304  10672  0
11002  11307  11003  0
11306  11010  11004  0
11306  11562  11010  0
11563  11010  11562  0
11564  11006  11311  0
11006  11564  11310  0
11310  11564  11307  0
11003  11307  11564  0
11313  11565  11314  0
11566  11311  11315  0
11311  11566  11564  0
11563  11318  11010  0
11567  11565  11313  0
11316  11317  11568  0
11569  11568  11317  0
11317  11016  11569  0
11016  11318  11569  0
11570  11569  11318  0
11313  11319  11567  0
11571  11567  11319  0
11321  11325  11324  0
10701  11021  11326  0
11572  11019  11020  0
11573  11572  11020  0
11020  11014  11573  0
11574  11573  11014  0
11014  11316  11574  0
11568  11574  11316  0
11568  11569  11575  0
11319  11323  11571  0
11576  11571  11323  0
11323  11320  11576  0
11320  11324  11576  0
11326  11021  11577  0
11021  11328  11577  0
11578  11023  11024  0
11024  11019  11579  0
11572  11579  11019  0
11024  11579  11578  0
11580  11027  11023  0
11023  11578  11580  0
11025  11026  11581  0
11028  11027  11582  0
11580  11582  11027  0
11583  11026  11329  0
11581  11026  11583  0
11584  11330  11030  0
11030  11028  11584  0
11331  11585  11329  0
11583  11329  11585  0
11586  11332  11330  0
11333  11587  11331  0
11585  11331  11587  0
11588  11334  11037  0
11037  11332  11586  0
11336  11035  11335  0
11333  11589  11587  0
11590  11587  11589  0
11333  11039  11589  0
11334  11591  11337  0
11341  11336  11335  0
11336  11592  11593  0
11336  11593  11339  0
11336  11341  11592  0
11044  11594  11589  0
11044  11589  11039  0
11338  11337  11340  0
11341  11342  11595  0
11341  11595  11592  0
11339  11593  11596  0
11339  11596  11343  0
11343  11596  11344  0
11344  11596  11597  0
11046  11594  11044  0
11046  11047  11598  0
11046  11598  11594  0
11347  11599  11342  0
11344  11597  11045  0
11045  11597  11348  0
11047  11052  11600  0
11047  11600  11598  0
11052  11352  11601  0
11052  11601  11600  0
11349  10438  11602  0
10438  11345  11602  0
11345  11346  11603  0
11346  11604  11605  0
11346  11605  11603  0
11347  11351  11599  0
11351  10445  11057  0
11352  11058  11606  0
11049  11048  11607  0
11049  11607  11608  0
11050  11051  11609  0
11051  11054  11610  0
11051  11610  11609  0
11604  11611  11605  0
11058  11612  11606  0
11060  11049  11608  0
11054  11059  11613  0
11054  11613  11610  0
11056  11350  11614  0
11062  11353  11612  0
11062  11612  11058  0
11063  11060  11608  0
11063  11608  11615  0
11059  10138  11616  0
11059  11616  11613  0
11056  11614  11617  0
11056  11617  11061  0
11063  11618  10745  0
11616  10138  11064  0
11358  11619  11620  0
11358  11620  10744  0
10744  11620  11354  0
11357  11621  11619  0
11357  11619  11358  0
11357  11069  11622  0
11357  11622  11621  0
11065  10745  11618  0
11066  11623  10749  0
11069  11360  11624  0
11069  11624  11622  0
10752  11625  11064  0
10752  11362  11625  0
11359  11626  11068  0
11627  11068  11626  0
11360  11361  11624  0
11361  11071  11628  0
11071  11067  11628  0
11362  11073  11629  0
11068  11627  10759  0
11073  11363  11629  0
11630  11629  11363  0
11074  11364  11369  0
11072  11365  11364  0
11631  11366  11075  0
11075  11076  11631  0
11076  11077  11631  0
11627  11367  10759  0
11368  11632  11363  0
11632  11633  11363  0
11630  11363  11633  0
11634  11633  11632  0
11369  11364  11635  0
11636  11369  11635  0
11632  11368  11637  0
11078  11637  11368  0
11632  11637  11634  0
11638  11634  11637  0
11370  11369  11636  0
11639  11370  11636  0
11637  11078  11638  0
11078  11371  11638  0
11639  11371  11370  0
11373  11640  11079  0
11640  11641  11079  0
11079  11641  11080  0
11642  11080  11641  0
11643  11372  11082  0
11644  11373  11372  0
11080  11642  11081  0
11645  11081  11642  0
11374  11646  11082  0
11643  11082  11646  0
11081  11645  11375  0
11647  11375  11645  0
11083  11375  11378  0
11648  11378  11375  0
11383  11374  10772  0
11649  11380  11379  0
11381  11086  11380  0
11378  11377  11376  0
11378  11650  11377  0
11651  11379  11386  0
11096  11386  11379  0
11651  11649  11379  0
11381  11652  11385  0
11383  11382  11653  0
11654  11377  11650  0
11655  11389  11656  0
11389  11655  11387  0
11655  11651  11387  0
11386  11387  11651  0
11657  11089  11385  0
11089  11657  11093  0
11658  11093  11657  0
11382  11095  11653  0
11384  11377  11654  0
11394  11389  11388  0
11394  11656  11389  0
11093  11658  11390  0
11659  11384  11654  0
11391  11384  11659  0
11660  11394  11393  0
11391  11659  11661  0
11662  11393  11395  0
11398  11662  11395  0
11663  11664  11665  0
11392  11666  11396  0
11392  11390  11666  0
11391  11661  11397  0
11667  11665  11668  0
11665  11667  11669  0
11665  11669  11663  0
11663  11670  11664  0
11396  11666  11401  0
11666  11671  11401  0
11105  11108  11672  0
11105  11672  11099  0
11400  11673  11399  0
11399  11673  11398  0
11667  11674  11669  0
11401  11671  11402  0
11111  11675  11108  0
11108  11675  11672  0
11112  11397  11676  0
11112  11676  11404  0
11400  11113  11673  0
11673  11677  11398  0
11667  11678  11674  0
11669  11679  11663  0
11402  11680  11405  0
11402  11405  11122  0
11680  11681  11405  0
11111  11403  11675  0
11113  11407  11673  0
11673  11407  11682  0
11673  11682  11677  0
11677  11682  11683  0
11677  11683  11684  0
11405  11681  11685  0
11405  11685  11406  0
11406  11686  11117  0
11406  11685  11686  0
11117  11686  11687  0
11117  11687  11403  0
11675  11403  11688  0
11404  11676  11689  0
11404  11689  11127  0
11407  11119  11690  0
11407  11690  11682  0
11682  11690  11683  0
11683  11691  11684  0
11687  11692  11403  0
11403  11692  11688  0
11119  11133  11690  0
11690  11133  11693  0
11690  11693  11683  0
11683  11693  11694  0
11683  11694  11691  0
11127  11689  11695  0
11127  11695  11128  0
11409  11696  11132  0
11133  11411  11697  0
11133  11697  11693  0
11693  11697  11698  0
11693  11698  11699  0
11693  11699  11694  0
11137  11700  11410  0
11132  11696  11412  0
11701  11141  11412  0
11411  11413  11702  0
11411  11702  11697  0
11697  11702  11703  0
11697  11703  11698  0
11137  11414  11704  0
11137  11704  11700  0
11700  11704  11705  0
11416  11141  11701  0
11128  11695  11417  0
11706  11417  11695  0
11707  11416  11708  0
11413  11421  11709  0
11413  11709  11702  0
11414  11418  11710  0
11414  11710  11704  0
11416  11707  11423  0
11418  11143  11711  0
11418  11711  11712  0
11418  11712  11710  0
11713  11710  11712  0
11143  11419  11711  0
11419  11425  11711  0
11714  11423  11707  0
11707  11715  11714  0
11716  11421  11424  0
11424  10838  11427  0
11424  11427  11716  0
11717  11417  11706  0
11718  11713  11712  0
11711  11425  11719  0
11425  11423  11720  0
11423  11714  11720  0
11430  11720  11714  0
11714  11715  11430  0
11721  11427  10854  0
11417  11717  11428  0
11164  11722  11429  0
11723  11429  11722  0
11429  11724  11165  0
11437  11165  11724  0
11429  11723  11724  0
11439  11437  11724  0
11724  11723  11439  0
11712  11711  11718  0
11719  11718  11711  0
11720  11430  11725  0
11432  11725  11430  0
11430  11715  11431  0
11431  11715  11433  0
11436  11428  11717  0
11726  11435  11163  0
11727  11440  11439  0
11725  11432  11728  0
11443  11721  10854  0
11163  11445  11726  0
11440  11727  11729  0
11432  11441  11728  0
11730  11728  11441  0
11433  11731  11167  0
11442  11167  11731  0
11434  11436  11444  0
11445  11446  11732  0
11440  11729  11438  0
11733  11443  10863  0
11446  11179  11732  0
11453  11732  11179  0
11438  11729  11447  0
11441  11181  11730  0
11169  11442  11734  0
11169  11734  11448  0
10863  11177  11451  0
10863  11451  11733  0
11735  11733  11451  0
11444  11736  11449  0
11452  11449  11736  0
11447  11737  11450  0
11447  11729  11738  0
11447  11738  11737  0
11181  11455  11730  0
11739  11730  11455  0
11448  11740  11182  0
11451  11183  11735  0
11456  11735  11183  0
11452  11736  11741  0
11452  11741  11458  0
11197  11458  11742  0
11458  11741  11743  0
11458  11743  11742  0
11742  11744  11197  0
11459  11197  11744  0
11742  11743  11745  0
11742  11745  11744  0
11450  11737  11454  0
11182  11740  11188  0
11460  11462  11746  0
11467  11746  11462  0
11195  11454  11747  0
11195  11747  11468  0
11739  11455  11469  0
11739  11469  11748  0
11749  11191  11457  0
11457  11464  11749  0
11750  11749  11464  0
11464  11203  11750  0
11465  11751  11204  0
11476  11752  11753  0
11476  11753  11467  0
11476  11475  11752  0
11467  11466  11476  0
11468  11478  11200  0
11469  11479  11754  0
11469  11754  11748  0
11470  11191  11755  0
11203  11471  11750  0
11481  11756  11757  0
11481  11757  11210  0
11481  11472  11756  0
11472  11204  11751  0
11758  11475  11474  0
11758  11474  11759  0
11758  11760  11475  0
11758  11759  11760  0
11478  11484  11477  0
11484  11754  11479  0
11470  11755  11761  0
11470  11761  11202  0
11755  11191  11762  0
11191  11749  11763  0
11191  11763  11762  0
11749  11750  11763  0
11750  11764  11763  0
11750  11471  11765  0
11750  11765  11764  0
11471  11480  11765  0
11480  11210  11757  0
11759  11474  11482  0
11759  11482  11766  0
11202  11761  11485  0
11482  11767  11766  0
11482  11216  11768  0
11482  11768  11767  0
11485  11761  11769  0
11485  11769  11218  0
11216  11219  11768  0
11770  11218  11769  0
11771  11488  11228  0
11771  11772  11488  0
11771  11228  11773  0
11771  11773  11772  0
11774  11488  11772  0
11488  11774  11219  0
11768  11219  11774  0
11218  11770  11492  0
11775  11492  11770  0
11776  11228  11232  0
11776  11232  11231  0
11773  11228  11776  0
11776  11231  11777  0
11231  11499  11778  0
11231  11778  11777  0
11492  11775  11246  0
11779  11246  11775  0
11239  11497  11780  0
11239  11780  11240  0
11246  11779  11511  0
11512  11511  11779  0
11781  11503  11514  0
11781  11504  11503  0
11781  11782  11504  0
11497  11504  11782  0
11498  11783  11250  0
11784  11250  11783  0
11250  11784  11251  0
11785  11251  11784  0
11499  11507  11786  0
11509  11510  11787  0
11509  11787  11518  0
11781  11514  11513  0
11255  11251  11785  0
11255  11785  11515  0
11507  11516  11786  0
11516  11788  11786  0
11510  11501  11521  0
11510  11521  11787  0
11515  11789  11519  0
11788  11516  11520  0
11528  11522  11270  0
11790  11523  10952  0
10952  11272  11790  0
11791  11790  11272  0
11272  11273  11791  0
11524  11791  11273  0
11519  11789  11525  0
11792  11525  11789  0
11532  11788  11520  0
11788  11532  11793  0
11518  11787  11526  0
11794  11526  11787  0
11787  11521  11794  0
11795  11794  11521  0
11521  11522  11795  0
11528  11795  11522  0
11528  11527  11796  0
11797  11527  11523  0
11790  11797  11523  0
11798  11524  11274  0
11525  11792  11531  0
11799  11531  11792  0
11532  11535  11793  0
11800  11793  11535  0
11801  11534  11533  0
11533  11526  11801  0
11802  11801  11526  0
11526  11794  11802  0
11795  11802  11794  0
11274  11529  11798  0
11531  11537  11530  0
11531  11799  11537  0
11535  11534  11800  0
11534  11801  11800  0
11803  11540  11804  0
11799  11804  11540  0
11540  11537  11799  0
11279  11538  11805  0
11806  11545  11542  0
11541  11803  11542  0
11542  11803  11806  0
11803  11541  11540  0
11539  11540  11541  0
11543  11542  11545  0
11281  11548  11544  0
11544  11548  11807  0
11544  11807  11808  0
11544  11808  11282  0
11282  11808  11283  0
11283  11808  11809  0
11283  11809  11284  0
11284  11809  11538  0
11545  11810  11546  0
11290  11548  11288  0
11546  11810  11811  0
11549  11290  11291  0
11812  11549  11550  0
11546  11811  11551  0
11550  11294  11812  0
11813  11812  11294  0
11551  11811  11814  0
11551  11814  11553  0
11815  11813  11294  0
11294  11554  11815  0
11553  11814  11816  0
11817  11554  11298  0
11553  11816  11557  0
11298  11556  11817  0
11818  11817  11556  0
11557  11819  11559  0
11556  11301  11818  0
11820  11818  11301  0
11560  11558  11559  0
11821  11820  11301  0
11559  11819  11822  0
11559  11822  11560  0
11304  11821  11301  0
11560  11562  11561  0
11306  11561  11562  0
11560  11822  11823  0
11560  11823  11562  0
11304  11824  11825  0
11304  11825  11821  0
11304  11309  11824  0
11562  11823  11826  0
11003  11827  11308  0
11305  11308  11309  0
11562  11826  11828  0
11562  11828  11563  0
11308  11827  11829  0
11314  11565  11315  0
11566  11315  11830  0
11564  11831  11003  0
11003  11831  11827  0
11318  11563  11570  0
11565  11832  11833  0
11565  11833  11315  0
11565  11567  11834  0
11565  11834  11832  0
11315  11833  11835  0
11315  11835  11830  0
11569  11570  11836  0
11324  11325  11837  0
10696  11322  11325  0
11322  11326  11838  0
11322  11838  11325  0
11575  11569  11839  0
11571  11576  11840  0
11576  11324  11841  0
11324  11837  11841  0
11326  11577  11838  0
11577  11842  11838  0
11577  11328  11843  0
11568  11575  11844  0
11568  11844  11574  0
11577  11843  11842  0
11328  11025  11581  0
11328  11581  11843  0
11582  11580  11845  0
11580  11578  11846  0
11584  11028  11847  0
11028  11582  11847  0
11845  11580  11846  0
11585  11848  11583  0
11330  11584  11586  0
11584  11849  11850  0
11587  11590  11585  0
11037  11586  11850  0
11037  11850  11851  0
11037  11851  11588  0
11586  11584  11850  0
11588  11591  11334  0
11852  11337  11591  0
11590  11594  11853  0
11598  11853  11594  0
11594  11590  11589  0
11337  11852  11340  0
11854  11340  11852  0
11592  11855  11593  0
11856  11593  11855  0
11592  11595  11855  0
11593  11856  11596  0
11857  11596  11856  0
11596  11857  11597  0
11858  11597  11857  0
11340  11854  11859  0
11860  11595  11342  0
11342  11599  11860  0
11861  11860  11599  0
11597  11858  11348  0
11600  11601  11862  0
11601  11352  11863  0
11601  11863  11862  0
11349  11602  11864  0
11865  11864  11602  0
11866  11602  11345  0
11345  11603  11866  0
11867  11859  11854  0
11859  11867  11868  0
11869  11868  11867  0
11599  11351  11861  0
11870  11861  11351  0
11351  11057  11870  0
11871  11870  11057  0
11858  11872  11348  0
11352  11606  11863  0
11873  11863  11606  0
11874  11607  11048  0
11048  11050  11874  0
11050  11609  11874  0
11349  11864  11875  0
11349  11875  11350  0
11876  11603  11605  0
11611  11876  11605  0
11867  11877  11869  0
11607  11878  11608  0
11350  11875  11879  0
11350  11879  11614  0
11876  11611  11880  0
11881  11880  11611  0
11882  11881  11611  0
11881  11882  11883  0
11881  11883  11884  0
11869  11884  11883  0
11885  11353  11354  0
11063  11615  11618  0
11619  11886  11620  0
11621  11886  11619  0
11616  11064  11887  0
11061  11617  11888  0
11061  11888  11355  0
11355  11888  11356  0
11621  11622  11889  0
11890  11889  11622  0
11891  11065  11618  0
11892  11891  11618  0
11887  11064  11625  0
11356  11893  11066  0
11066  11893  11623  0
10749  11623  11894  0
10749  11894  11359  0
11359  11894  11626  0
11622  11624  11895  0
11622  11895  11890  0
11065  11891  11067  0
11624  11361  11896  0
11624  11896  11895  0
11361  11628  11896  0
11628  11067  11891  0
11897  11362  11629  0
11897  11625  11362  0
11630  11897  11629  0
11364  11365  11898  0
11364  11898  11899  0
11635  11899  11900  0
11635  11900  11901  0
11635  11901  11636  0
11635  11364  11899  0
11634  11638  11902  0
11636  11901  11903  0
11636  11903  11639  0
11638  11371  11904  0
11638  11904  11902  0
11371  11905  11904  0
11371  11639  11905  0
11644  11640  11373  0
11906  11372  11643  0
11643  11646  11907  0
11644  11372  11906  0
11642  11908  11645  0
11646  11374  11909  0
11646  11909  11907  0
11374  11383  11909  0
11375  11647  11648  0
11378  11648  11910  0
11378  11910  11650  0
11911  11650  11910  0
11912  11649  11651  0
11913  11649  11912  0
11912  11651  11914  0
11649  11913  11380  0
11915  11380  11913  0
11380  11915  11381  0
11655  11916  11914  0
11655  11914  11651  0
11650  11911  11654  0
11917  11654  11911  0
11656  11918  11655  0
11916  11655  11918  0
11385  11652  11657  0
11653  11095  11919  0
11920  11654  11917  0
11394  11660  11656  0
11918  11656  11921  0
11656  11660  11921  0
11922  11923  11924  0
11922  11924  11925  0
11095  11926  11919  0
11654  11920  11659  0
11393  11662  11660  0
11927  11918  11921  0
11927  11928  11923  0
11927  11923  11918  0
11923  11928  11924  0
11665  11924  11928  0
11924  11665  11929  0
11664  11929  11665  0
11924  11929  11930  0
11931  11390  11658  0
11390  11931  11666  0
11095  11099  11926  0
11932  11926  11099  0
11933  11662  11398  0
11662  11933  11660  0
11934  11660  11933  0
11660  11934  11921  0
11935  11921  11934  0
11921  11935  11927  0
11927  11935  11928  0
11668  11928  11935  0
11928  11668  11665  0
11670  11929  11664  0
11666  11931  11671  0
11936  11932  11099  0
11934  11933  11398  0
11937  11935  11934  0
11935  11937  11668  0
11938  11668  11937  0
11667  11668  11938  0
11670  11663  11939  0
11940  11671  11931  0
11099  11672  11936  0
11941  11397  11661  0
11398  11677  11934  0
11942  11937  11934  0
11937  11942  11938  0
11678  11667  11938  0
11679  11939  11663  0
11671  11940  11402  0
11943  11402  11940  0
11397  11941  11676  0
11944  11676  11941  0
11684  11934  11677  0
11934  11684  11942  0
11945  11938  11942  0
11678  11938  11945  0
11946  11939  11679  0
11402  11943  11680  0
11680  11943  11681  0
11947  11681  11943  0
11672  11675  11936  0
11948  11936  11675  0
11949  11942  11684  0
11942  11949  11945  0
11674  11950  11669  0
11951  11669  11950  0
11669  11951  11679  0
11952  11679  11951  0
11679  11952  11946  0
11675  11688  11948  0
11676  11944  11689  0
11684  11691  11949  0
11953  11945  11949  0
11954  11945  11953  0
11945  11954  11678  0
11678  11950  11674  0
11685  11955  11686  0
11956  11686  11955  0
11685  11681  11957  0
11685  11957  11955  0
11686  11956  11687  0
11692  11687  11956  0
11692  11948  11688  0
11691  11694  11958  0
11691  11958  11949  0
11949  11958  11953  0
11678  11954  11950  0
11950  11954  11959  0
11950  11959  11951  0
11951  11960  11952  0
11952  11961  11962  0
11689  11963  11695  0
11409  11408  11696  0
11694  11699  11958  0
11954  11953  11964  0
11954  11964  11959  0
11952  11960  11965  0
11952  11965  11961  0
11695  11963  11966  0
11410  11700  11967  0
11410  11967  11408  0
11408  11968  11969  0
11408  11969  11696  0
11408  11967  11968  0
11696  11969  11970  0
11696  11970  11412  0
11412  11970  11971  0
11412  11971  11701  0
11698  11972  11699  0
11699  11972  11973  0
11699  11973  11958  0
11958  11973  11974  0
11958  11974  11953  0
11953  11974  11964  0
11959  11964  11975  0
11959  11975  11976  0
11959  11976  11951  0
11951  11976  11960  0
11700  11705  11967  0
11967  11705  11977  0
11967  11977  11968  0
11416  11701  11708  0
11698  11703  11972  0
11973  11972  11978  0
11973  11978  11974  0
11974  11978  11979  0
11960  11976  11965  0
11695  11966  11980  0
11695  11980  11706  0
11708  11981  11707  0
11703  11982  11972  0
11703  11702  11982  0
11974  11983  11964  0
11964  11983  11975  0
11976  11984  11965  0
11706  11980  11985  0
11705  11704  11986  0
11707  11981  11715  0
11709  11982  11702  0
11976  11987  11984  0
11976  11975  11987  0
11710  11988  11986  0
11710  11986  11704  0
11710  11713  11988  0
11421  11716  11989  0
11421  11989  11709  0
11706  11985  11717  0
11990  11985  11991  0
11713  11718  11723  0
11988  11713  11992  0
11713  11723  11993  0
11713  11993  11992  0
11981  11994  11715  0
11721  11716  11427  0
11717  11985  11990  0
11164  11435  11722  0
11995  11722  11435  0
11722  11996  11723  0
11993  11723  11996  0
11722  11995  11996  0
11997  11996  11995  0
11723  11718  11439  0
11719  11425  11998  0
11999  11998  11425  0
11425  11720  11999  0
11728  11720  11725  0
11715  11994  11433  0
11731  11433  11994  0
11717  11990  11436  0
12000  11436  11990  0
11990  11991  12000  0
11435  11726  11995  0
11997  11995  11726  0
11439  11718  11727  0
12001  11727  11718  0
11718  11719  12001  0
11998  12001  11719  0
12002  11999  11720  0
11720  11728  12002  0
11991  12003  12000  0
12004  12000  12003  0
11732  11726  11445  0
12005  11726  11732  0
11730  12002  11728  0
12006  11442  11731  0
11436  12000  11444  0
11741  12000  12004  0
12007  11741  12004  0
12008  12007  12004  0
12009  12007  12008  0
11727  12001  11729  0
11738  11729  12001  0
12010  11999  12002  0
11734  11442  12006  0
11736  11444  12000  0
11741  11736  12000  0
11743  11741  12007  0
12011  11743  12007  0
12007  12009  12011  0
12012  12011  12009  0
12009  12013  12012  0
11732  11453  12005  0
11453  11461  12005  0
12014  12005  11461  0
12002  11730  12010  0
11730  11739  12010  0
11745  11743  12011  0
12011  12012  12015  0
12011  12015  11745  0
11461  11460  12014  0
11746  12014  11460  0
11738  12016  11737  0
11747  11737  12016  0
12017  12010  11739  0
11734  11740  11448  0
12018  11735  11456  0
11745  12015  12019  0
11745  12019  11744  0
11737  11747  11454  0
11747  12016  12020  0
11748  12017  11739  0
11740  12021  12022  0
11740  12022  11188  0
11188  12022  11189  0
12018  11456  11463  0
12018  11463  12023  0
11744  12019  12024  0
11744  12024  11459  0
12025  12026  12027  0
12025  12027  11752  0
11752  12027  12028  0
11752  12028  11753  0
11753  12028  12029  0
11753  11746  11467  0
11753  12029  12030  0
11753  12030  11746  0
11747  12020  11468  0
12020  12031  11478  0
12020  11478  11468  0
12031  12017  11754  0
12031  11754  11478  0
12017  11748  11754  0
11189  12023  11196  0
11196  12023  11463  0
11459  12024  11465  0
11465  12024  12032  0
11465  12032  11751  0
11760  12033  12025  0
11760  12034  12033  0
12025  11752  11475  0
12025  11475  11760  0
11478  11754  11484  0
12035  11765  11480  0
12035  11480  11757  0
11757  12036  12035  0
11757  11756  12036  0
11756  12037  12036  0
11756  11472  12037  0
11472  11751  12032  0
11472  12032  12037  0
12034  11760  11759  0
12034  11759  12038  0
11763  11764  12039  0
11763  12039  12040  0
11765  12035  11764  0
12038  11759  12041  0
11759  11766  12041  0
12042  12043  12044  0
12042  12044  12045  0
11755  11762  12046  0
11755  12046  11761  0
11763  12040  11762  0
11766  12047  12041  0
11766  11767  12042  0
11766  12042  12047  0
11767  11768  12043  0
11767  12043  12042  0
12044  12043  12048  0
12044  12048  12049  0
12049  12048  12050  0
12049  12050  12051  0
11761  12046  11769  0
12043  11768  12048  0
12048  12052  12050  0
11769  12053  11770  0
11768  12054  12048  0
12048  12054  12055  0
12048  12055  12052  0
11776  12056  11773  0
11776  11777  12056  0
11773  12057  11772  0
11773  12056  12057  0
11772  12057  12058  0
11772  12058  11774  0
11774  12058  12059  0
11774  12059  11768  0
11768  12059  12054  0
11777  11778  12060  0
11777  12060  12056  0
12054  12059  12061  0
12059  12058  12061  0
11240  11780  12062  0
11240  12062  11498  0
11498  12062  11783  0
11778  11499  12063  0
11778  12063  12060  0
12057  12064  12058  0
12065  11512  11779  0
11512  12065  11513  0
12066  11513  12065  0
11513  12066  11781  0
12067  11781  12066  0
11781  12067  11782  0
11782  12068  11497  0
11497  12068  11780  0
12069  11785  11784  0
11499  11786  12063  0
12070  12063  11786  0
11515  11785  11789  0
12071  11789  11785  0
11785  12069  12071  0
11786  11788  12070  0
12072  12070  11788  0
12073  11789  12071  0
11788  11793  12072  0
12074  12072  11793  0
11789  12073  11792  0
12075  11792  12073  0
12076  12074  11793  0
11797  11796  11527  0
11797  11790  12077  0
12078  12077  11790  0
11790  11791  12078  0
11524  12078  11791  0
11799  11792  12079  0
12079  11792  12075  0
11804  12079  12075  0
11793  11800  12076  0
12080  12076  11800  0
12081  11802  11795  0
11795  11528  12081  0
11528  11796  12081  0
11797  12081  11796  0
11798  12078  11524  0
11798  11529  12082  0
11277  12082  11529  0
11799  12079  11804  0
11800  11801  12080  0
12083  12080  11801  0
11801  11802  12083  0
12082  11277  11805  0
11279  11805  11277  0
12084  12082  11805  0
11803  11804  11806  0
12085  12084  11805  0
11545  11806  12086  0
11545  12086  11810  0
12087  11810  12086  0
11805  11538  12085  0
12088  11807  11548  0
12089  11807  12088  0
11807  12089  11808  0
12090  11808  12089  0
11809  11808  12090  0
11809  12091  11538  0
12085  11538  12091  0
11811  11810  12087  0
12092  11811  12087  0
11548  11290  12088  0
11549  12088  11290  0
12093  12088  11549  0
11549  11812  12093  0
12094  12093  11812  0
11811  12092  12095  0
11812  11813  12094  0
12096  12094  11813  0
11811  12095  11814  0
12097  12096  11813  0
11813  11815  12097  0
12098  11816  11814  0
11814  12095  12099  0
11814  12099  12098  0
12100  12097  11815  0
11815  11554  12100  0
12101  12100  11554  0
11554  11817  12101  0
11557  11816  11819  0
12102  11819  11816  0
11816  12098  12102  0
12103  11819  12102  0
11819  12103  11822  0
11822  12103  12104  0
11822  12104  11823  0
11826  12105  11828  0
11826  11823  12106  0
11826  12106  12105  0
11308  11829  12107  0
11308  12107  11309  0
11309  12107  12108  0
11309  12108  11824  0
11564  11566  11831  0
11827  11831  11829  0
12109  11836  11570  0
12109  11570  11563  0
12109  11563  11828  0
11833  12110  11835  0
11566  11830  12111  0
11566  12111  11831  0
11836  12109  11839  0
11836  11839  11569  0
11575  11839  11844  0
11839  12112  11844  0
11567  11571  12113  0
11567  12113  11834  0
11571  11840  12114  0
11571  12114  12113  0
11840  11576  12115  0
11840  12115  12114  0
11576  11841  12115  0
11841  12116  12115  0
11841  11837  12116  0
11837  11325  12117  0
11837  12117  12116  0
11325  12118  12117  0
11325  11838  12118  0
11838  11842  12118  0
11842  11843  12119  0
11578  11579  12120  0
11579  11572  12121  0
11579  12121  12120  0
11572  11573  12121  0
11573  11574  12121  0
11574  11844  12122  0
11574  12122  12123  0
12119  11843  11581  0
12119  11581  12124  0
11578  12120  11846  0
12121  11574  12123  0
12124  11581  11583  0
12124  11583  11848  0
11584  11847  11849  0
11847  11582  12125  0
11582  11845  12125  0
11846  12120  12126  0
11848  11585  11590  0
11848  11590  12127  0
11848  12127  12124  0
12128  12127  11590  0
12129  11588  11851  0
11851  11850  12130  0
11851  12130  12131  0
11850  11849  12132  0
11850  12132  12130  0
12128  11853  12133  0
11853  12128  11590  0
11591  11588  12134  0
12129  12134  11588  0
12133  11853  12135  0
11598  12135  11853  0
11591  12136  11852  0
12137  11852  12136  0
11855  11595  11856  0
11860  11856  11595  0
11856  11860  11857  0
11861  11857  11860  0
11858  11857  11861  0
12135  11598  12138  0
11600  12138  11598  0
11852  12137  11854  0
11870  11858  11861  0
11872  11858  11870  0
11862  11863  12139  0
11873  12139  11863  0
11866  11865  11602  0
11854  12140  11867  0
11877  11867  12140  0
11870  11871  11872  0
11606  12141  11873  0
11606  11612  12141  0
12142  12141  11612  0
12143  11866  11603  0
11603  11876  12143  0
12144  12143  11876  0
11876  11880  12144  0
11869  11877  11884  0
12142  11612  11353  0
11874  11609  12145  0
12146  12145  11609  0
11609  11610  12146  0
11613  12146  11610  0
12147  11879  11875  0
11880  11881  12144  0
11884  12144  11881  0
12148  11353  11885  0
11608  11878  11615  0
11887  11613  11616  0
11614  11879  11617  0
11621  11889  11886  0
11886  11889  12149  0
11890  12149  11889  0
11620  11886  12150  0
11620  12150  11354  0
11615  11892  11618  0
11888  12151  11356  0
11887  11625  12152  0
12151  12153  11356  0
11356  12153  11893  0
11893  12154  11623  0
11894  12155  11626  0
11890  11895  12156  0
12157  12156  11895  0
11891  12158  12159  0
11891  12159  11628  0
11626  12155  12160  0
11626  12160  11627  0
11895  11896  12161  0
11895  12161  12157  0
11896  11628  12159  0
11896  12159  12161  0
11625  11897  12162  0
11627  12160  12163  0
11630  12164  12162  0
11630  12162  11897  0
11630  11633  12165  0
11630  12165  12164  0
11898  11365  12166  0
11366  11631  12166  0
11366  12166  11365  0
11631  11077  11367  0
11367  11627  12163  0
11633  11634  12167  0
11633  12167  12165  0
11900  11903  11901  0
11900  12168  12169  0
11900  12169  11903  0
11900  11899  12170  0
11900  12170  12168  0
11634  11902  12167  0
11903  12171  12172  0
11903  12172  11905  0
11903  11905  11639  0
11902  11904  12173  0
11904  11905  12172  0
11904  12172  12173  0
11641  12174  11642  0
11642  12174  11908  0
11643  12175  11906  0
11643  11907  12175  0
11908  11647  11645  0
11909  11383  12176  0
11910  11648  12177  0
11910  12177  12178  0
11648  11647  12179  0
11648  12179  12177  0
11910  12178  12180  0
11910  12180  11911  0
11912  12181  11913  0
11912  11914  12182  0
11912  12182  12181  0
11915  11652  11381  0
11383  12183  12176  0
11383  11653  12183  0
11914  11916  12184  0
11914  12184  12182  0
12185  11652  11915  0
11911  12180  11917  0
11916  11918  11923  0
11916  11923  11922  0
11916  11922  12184  0
12184  11922  11925  0
12184  11925  12186  0
12184  12186  12182  0
12186  12187  12182  0
11652  12188  11657  0
11657  12188  11658  0
11653  11919  12183  0
11925  11924  11930  0
11925  11930  12186  0
12189  11658  12188  0
11930  11929  12190  0
11930  12190  12186  0
11929  11670  12190  0
11658  12189  11931  0
11670  11939  12191  0
11670  12191  12190  0
12192  12191  11939  0
11931  12189  11940  0
12193  11940  12189  0
11941  11661  12194  0
11939  11946  12192  0
12195  12192  11946  0
11940  12193  11943  0
11947  11943  12193  0
11932  11936  12196  0
12197  12195  11946  0
11948  12196  11936  0
11941  12198  11944  0
11946  11952  11962  0
11946  11962  12197  0
12199  12196  11948  0
12200  11944  12198  0
11961  12197  11962  0
11957  11681  12201  0
11681  11947  12201  0
11948  11692  12199  0
11944  12202  11689  0
11944  12200  12202  0
12203  11955  11957  0
11955  12203  11956  0
12204  11956  12203  0
11956  12204  11692  0
11689  12202  11963  0
12205  11963  12202  0
12202  12206  12205  0
12207  12205  12206  0
11961  11965  12208  0
11961  12208  12209  0
12205  11966  11963  0
12210  12205  12207  0
12211  11969  11968  0
11969  12211  11970  0
11966  12205  11980  0
12212  11980  12205  0
12210  12212  12205  0
11968  11977  12213  0
12214  11701  11971  0
11701  12214  11708  0
11972  12215  11978  0
12216  12208  11965  0
12208  12216  12209  0
12217  12209  12216  0
12212  12210  12218  0
12219  12218  12210  0
11977  12220  12213  0
12221  11977  11705  0
12215  11972  11982  0
12215  12222  11978  0
11978  12223  11979  0
12224  11979  12223  0
11978  12222  12225  0
11978  12225  12223  0
12226  11979  12224  0
11979  12226  11974  0
11965  11984  12216  0
11980  12212  11985  0
12218  11985  12212  0
12227  12218  12219  0
11705  11986  12221  0
11981  12228  12229  0
11989  11982  11709  0
11982  12230  12215  0
11982  11989  12231  0
11982  12231  12230  0
12215  12230  12222  0
12224  12223  12232  0
11974  12226  11983  0
11987  12233  11984  0
11984  12233  12234  0
11984  12234  12216  0
11985  12218  11991  0
12218  12227  11991  0
12227  12219  12235  0
11988  12236  12237  0
11988  12237  11986  0
11988  11992  12236  0
11989  11716  12238  0
11989  12238  12231  0
12226  12224  12239  0
12226  12239  11983  0
12234  12240  12216  0
11991  12227  12003  0
12227  12241  12003  0
12227  12235  12241  0
12242  12243  11993  0
12242  11993  11996  0
12242  12244  12245  0
12242  12245  12243  0
12242  11996  12246  0
12242  12246  12244  0
11993  12243  11992  0
11981  12229  11994  0
11716  11721  12247  0
11716  12247  12238  0
11983  12248  11975  0
11975  12248  11987  0
11987  12249  12233  0
12233  12240  12234  0
12235  12250  12251  0
12235  12251  12241  0
12235  12252  12250  0
12250  12252  12253  0
12250  12253  12254  0
11996  11997  12255  0
11996  12255  12246  0
11721  12256  12247  0
12224  12257  12239  0
12239  12257  12258  0
12239  12258  11983  0
11983  12258  12248  0
12248  12249  11987  0
12249  12259  12233  0
12003  12241  12004  0
12241  12008  12004  0
12241  12251  12008  0
12250  12260  12251  0
12250  12254  12260  0
11997  11726  12261  0
11997  12261  12255  0
11721  11443  12262  0
11721  12262  12256  0
12248  12258  12263  0
12248  12263  12249  0
12249  12264  12259  0
12249  12263  12264  0
12008  12251  12009  0
12251  12260  12009  0
11726  12005  12261  0
12001  11998  12265  0
11998  11999  12266  0
11731  12267  12006  0
12009  12260  12013  0
12260  12268  12013  0
12001  12265  12016  0
12001  12016  11738  0
11998  12266  12265  0
12010  12266  11999  0
11733  12262  11443  0
12258  12269  12263  0
12264  12263  12269  0
12268  12270  12013  0
12013  12270  12012  0
12271  12012  12270  0
12272  12265  12266  0
12266  12010  12272  0
12262  11733  12273  0
11735  12273  11733  0
12271  12015  12012  0
12014  11746  12274  0
12275  12274  11746  0
12020  12016  12265  0
12265  12272  12020  0
12017  12272  12010  0
11734  12021  11740  0
12273  11735  12018  0
12276  12273  12018  0
12015  12271  12019  0
12275  12030  12029  0
12030  12275  11746  0
12031  12020  12272  0
12272  12017  12031  0
12022  12023  11189  0
12022  12277  12023  0
12278  12023  12277  0
12023  12278  12018  0
12276  12018  12278  0
12019  12279  12024  0
12025  12033  12026  0
12024  12280  12032  0
12281  12032  12280  0
12033  12034  12282  0
12038  12282  12034  0
12035  12036  12283  0
12284  12283  12036  0
12036  12037  12284  0
12285  12284  12037  0
12037  12032  12285  0
12286  12285  12032  0
12032  12281  12286  0
12287  12288  12289  0
12289  12047  12287  0
12042  12287  12047  0
12287  12042  12045  0
12045  12044  12290  0
12049  12290  12044  0
12290  12049  12291  0
12292  12291  12049  0
12039  11764  12293  0
11764  12035  12293  0
12283  12293  12035  0
12285  12286  12294  0
12047  12289  12041  0
12288  12041  12289  0
12051  12292  12049  0
12292  12051  12295  0
11762  12040  12296  0
12046  11762  12296  0
12050  12052  12297  0
12050  12297  12051  0
12051  12297  12298  0
12051  12298  12295  0
12046  12296  12053  0
12046  12053  11769  0
12052  12055  12299  0
12052  12299  12297  0
11770  12300  11775  0
11770  12053  12300  0
12056  12060  12301  0
12056  12301  12057  0
12057  12301  12064  0
12054  12061  12302  0
12054  12302  12303  0
12054  12303  12055  0
11775  12300  12304  0
11775  12304  11779  0
12060  12305  12301  0
12060  12063  12305  0
12064  12306  12058  0
12064  12301  12307  0
12064  12307  12306  0
12058  12306  12061  0
11779  12304  12065  0
11780  12068  12308  0
11780  12308  12062  0
11783  12309  12069  0
11783  12069  11784  0
11783  12062  12310  0
11783  12310  12309  0
12306  12307  12311  0
12061  12306  12312  0
12061  12312  12302  0
12069  12309  12313  0
12069  12313  12071  0
12070  12314  12063  0
12070  12072  12315  0
12070  12315  12314  0
12071  12313  12316  0
12072  12074  12315  0
12073  12071  12316  0
12073  12316  12075  0
12074  12076  12317  0
12074  12317  12315  0
11797  12077  12318  0
12075  12319  11804  0
12076  12080  12320  0
12076  12320  12317  0
11802  12081  12083  0
12081  11797  12321  0
11797  12318  12321  0
12078  11798  12322  0
12078  12322  12323  0
11798  12082  12322  0
12324  11806  11804  0
12324  11804  12319  0
12324  12325  11806  0
12080  12083  12326  0
12080  12326  12320  0
12083  12081  12327  0
12082  12084  12322  0
11806  12325  12086  0
12328  12086  12325  0
12083  12329  12326  0
12083  12327  12329  0
12086  12328  12087  0
12328  12330  12087  0
12331  11809  12090  0
11809  12331  12091  0
12332  12091  12331  0
12087  12330  12092  0
12333  12092  12330  0
12088  12093  12089  0
12089  12093  12090  0
12331  12090  12093  0
12093  12334  12331  0
12093  12094  12334  0
12335  12334  12094  0
12094  12096  12335  0
12092  12333  12095  0
12336  12095  12333  0
12337  12338  12096  0
12338  12339  12096  0
12335  12096  12339  0
12340  12339  12338  0
12096  12097  12337  0
12095  12336  12099  0
12341  12099  12336  0
12340  12342  12343  0
12342  12344  12345  0
12342  12340  12344  0
12344  12338  12345  0
12346  12345  12338  0
12344  12340  12338  0
12338  12337  12346  0
12337  12097  12346  0
12347  12346  12097  0
12097  12100  12347  0
12341  12098  12099  0
12348  12349  12342  0
12349  12343  12342  0
12342  12345  12348  0
12350  12348  12345  0
12345  12346  12350  0
12351  12350  12346  0
12347  12351  12346  0
12352  12347  12100  0
12100  12101  12352  0
12353  12352  12101  0
12101  11817  12353  0
12354  12353  11817  0
11817  11818  12354  0
12355  12356  12349  0
12349  12348  12355  0
12357  12355  12348  0
12348  12350  12357  0
11818  11820  12354  0
12358  12102  12098  0
12098  12341  12358  0
12359  12358  12341  0
12360  12103  12102  0
12361  11821  11825  0
12362  12104  12103  0
11823  12104  12106  0
12363  12106  12104  0
11824  12364  11825  0
12365  12105  12106  0
12363  12365  12106  0
12365  12366  12105  0
11824  12108  12364  0
11828  12105  12367  0
12105  12366  12367  0
11831  12111  11829  0
11829  12368  12107  0
12367  12369  11828  0
11828  12369  12109  0
12110  11833  11832  0
12370  11835  12110  0
11835  12370  11830  0
11830  12370  12111  0
12111  12371  11829  0
11829  12371  12368  0
12109  12369  12372  0
12109  12372  11839  0
12110  12373  12370  0
11839  12372  12112  0
11834  12113  12374  0
11834  12374  11832  0
12375  12376  12377  0
12375  12377  12378  0
12375  12379  12376  0
12112  12380  11844  0
12113  12114  12381  0
12113  12381  12374  0
12118  11842  12382  0
12118  12382  12383  0
11842  12119  12382  0
12375  12378  12379  0
11844  12380  12122  0
12114  12115  12384  0
12114  12384  12381  0
12115  12116  12384  0
12382  12119  12385  0
12120  12121  12123  0
12120  12123  12126  0
12123  12122  12386  0
12123  12386  12387  0
12385  12124  12388  0
12385  12388  12382  0
12385  12119  12124  0
11847  12125  11849  0
11846  12126  12389  0
11846  12389  11845  0
12126  12123  12387  0
12388  12127  12390  0
12388  12124  12127  0
11849  12125  12391  0
12125  11845  12389  0
12389  12126  12392  0
12393  12394  12133  0
12390  12133  12394  0
12390  12128  12133  0
12390  12127  12128  0
11851  12131  12129  0
12131  12130  12395  0
12130  12396  12395  0
12130  12132  12396  0
12132  11849  12391  0
12397  12398  12399  0
12400  12398  12397  0
12401  12398  12400  0
12398  12401  12393  0
12393  12135  12398  0
12393  12133  12135  0
11591  12134  12402  0
11591  12402  12136  0
12398  12403  12399  0
12398  12135  12403  0
12135  12138  12403  0
12403  12404  12399  0
12403  12138  12405  0
12403  12405  12404  0
12138  11600  12406  0
12138  12406  12405  0
11600  11862  12406  0
11862  12139  12407  0
11862  12407  12406  0
12137  12140  11854  0
12139  11873  12141  0
12140  12408  11877  0
11884  11877  12408  0
11864  11865  12409  0
12410  12409  11865  0
11864  12409  11875  0
12147  11875  12409  0
11865  11866  12410  0
12411  12410  11866  0
11866  12143  12411  0
12412  12411  12143  0
12143  12144  12412  0
12413  12412  12144  0
11884  12408  12144  0
12144  12408  12413  0
11353  12148  12142  0
11878  11607  12414  0
12415  12414  11607  0
11607  11874  12415  0
12145  12415  11874  0
12146  11613  12416  0
12417  12416  11613  0
12418  11615  11878  0
11887  12417  11613  0
11354  12150  11885  0
12419  11885  12150  0
12420  11615  12418  0
12152  12417  11887  0
11879  12421  11617  0
11888  11617  12421  0
12422  12423  12149  0
12149  12150  11886  0
12420  11892  11615  0
11888  12424  12151  0
12149  11890  12422  0
12425  12422  11890  0
11892  12426  11891  0
11891  12426  12158  0
11623  12154  12427  0
11623  12427  11894  0
11890  12156  12425  0
12156  12157  12428  0
12156  12428  12425  0
12162  12429  12430  0
12430  12152  12162  0
11625  12162  12152  0
12155  11894  12431  0
12155  12431  12160  0
12160  12431  12432  0
12433  12428  12157  0
12157  12161  12433  0
12161  12159  12434  0
12158  12434  12159  0
12161  12434  12433  0
12162  12164  12429  0
12435  12436  12437  0
12160  12432  12163  0
12428  12433  12438  0
12439  12438  12433  0
12434  12439  12433  0
12164  12165  12440  0
12441  12440  12165  0
12169  12436  12442  0
12442  12436  12443  0
12444  12443  12436  0
12436  12169  12437  0
12168  12437  12169  0
12437  12168  12170  0
12437  12170  12435  0
12445  12435  12170  0
12446  11631  11367  0
11367  12163  12446  0
12165  12167  12441  0
12447  12441  12167  0
12448  12449  12171  0
12443  12448  12171  0
12448  12447  12449  0
11903  12442  12171  0
12171  12442  12443  0
12442  11903  12169  0
12170  11899  12445  0
12450  12445  11899  0
11899  11898  12450  0
12451  12450  11898  0
12167  11902  12173  0
12167  12173  12449  0
12167  12449  12447  0
12449  12173  12172  0
12449  12172  12171  0
11906  12452  11644  0
11644  12452  11640  0
11640  12452  12453  0
11640  12453  11641  0
11641  12453  12174  0
12174  12454  11908  0
11908  12454  12455  0
11908  12455  11647  0
11907  11909  12175  0
12179  11647  12455  0
12177  12179  12456  0
12177  12457  12178  0
11913  12181  11915  0
12183  12458  12176  0
12180  12178  12457  0
12180  12457  12459  0
12181  12182  12187  0
12181  12187  12460  0
12181  12460  11915  0
11915  12460  12185  0
12185  12188  11652  0
12180  12459  12461  0
12180  12461  11917  0
11917  12461  12462  0
11917  12462  11920  0
12186  12190  12187  0
12463  12189  12188  0
11919  11926  12464  0
11919  12464  12183  0
12465  11920  12462  0
12190  12466  12187  0
12190  12191  12467  0
12190  12467  12466  0
12468  12189  12463  0
11926  11932  12464  0
11920  12465  11659  0
12191  12192  12469  0
12191  12469  12467  0
12193  12189  12468  0
11932  12470  12464  0
11659  12194  11661  0
11659  12465  12194  0
11932  12196  12470  0
12194  12471  11941  0
12193  12472  11947  0
12196  12473  12470  0
11941  12474  12198  0
11941  12471  12474  0
12475  12474  12471  0
12196  12199  12476  0
12196  12476  12473  0
12200  12474  12475  0
12474  12200  12198  0
11947  12477  12201  0
12478  12201  12477  0
12200  12206  12202  0
11961  12209  12197  0
12201  12478  11957  0
12479  11957  12478  0
11957  12479  12203  0
12199  11692  12204  0
12200  12480  12206  0
