#!ascii file
3660  3175  3415  0
3661  3175  3660  0
3662  3663  3664  0
3418  3420  3659  0
3665  3659  3420  0
3666  3419  3417  0
3173  3667  3170  0
3668  3667  3173  0
3429  3175  3661  0
3669  3670  3664  0
3664  3663  3669  0
3425  3420  3167  0
3671  3665  3420  0
3672  3421  3419  0
3421  3672  3422  0
3673  3179  3674  0
3179  3181  3674  0
3434  3674  3181  0
3179  3673  3424  0
3675  3424  3673  0
3420  3425  3671  0
3429  3676  3430  0
3424  3675  3677  0
3424  3677  3435  0
3431  3427  3678  0
3679  3423  3428  0
3423  3679  3174  0
3174  3679  3173  0
3173  3679  3668  0
3430  3676  3433  0
3680  3434  3188  0
3681  3176  3187  0
3431  3678  3437  0
3428  3438  3682  0
3428  3682  3679  0
3436  3683  3439  0
3187  3441  3681  0
3437  3678  3684  0
3438  3442  3685  0
3433  3686  3443  0
3440  3687  3445  0
3440  3439  3687  0
3687  3439  3688  0
3437  3452  3442  0
3437  3684  3452  0
3442  3689  3685  0
3444  2722  3690  0
2967  3446  3208  0
3445  3687  3691  0
3445  3691  3446  0
3687  3692  3691  0
3687  3688  3692  0
3442  3451  3693  0
3442  3693  3689  0
2722  3454  3694  0
2722  3694  3690  0
3208  3446  3695  0
3208  3695  3696  0
3208  3696  3463  0
3450  3455  3697  0
3450  3697  3448  0
3196  3200  3461  0
3452  3698  3451  0
3693  3451  3698  0
3201  3453  3206  0
3699  3206  3453  0
3206  3699  2965  0
3700  2965  3699  0
2965  3700  2966  0
3462  2966  3700  0
3455  2968  3457  0
3455  3457  3701  0
3455  3701  3697  0
3456  3702  3202  0
3458  3203  3202  0
3458  3703  3459  0
3704  3701  3457  0
3457  2973  3705  0
2972  3705  2973  0
3211  3465  3466  0
3457  3705  3704  0
3467  3705  2972  0
3467  3468  3706  0
3707  3214  3210  0
3210  3466  3708  0
3210  3708  3707  0
3464  3709  3215  0
3705  3467  3710  0
3711  3710  3467  0
3467  3706  3711  0
3712  3706  3468  0
3468  3469  3712  0
3713  3712  3469  0
3714  3713  3469  0
3469  3470  3714  0
3715  3716  3470  0
3470  2983  3715  0
3214  3707  3717  0
3214  3717  3216  0
3718  3719  3212  0
2983  3471  3715  0
2985  3219  3472  0
3217  3718  3212  0
3479  3718  3217  0
3215  3709  3473  0
3224  3223  3720  0
3224  3720  3474  0
3216  3717  3721  0
3216  3721  3482  0
3722  3221  3476  0
3221  3722  3477  0
3218  3473  3723  0
3218  3723  3480  0
3474  3720  3724  0
3475  3220  3725  0
3220  3481  3725  0
3476  3483  3726  0
2995  3484  3226  0
2996  3227  3486  0
2996  3486  3484  0
3234  3474  3724  0
3234  3724  3727  0
3234  3727  3728  0
3232  3729  3487  0
3226  3484  3730  0
3484  3486  3731  0
3486  3485  3489  0
3486  3489  3732  0
3486  3732  3731  0
3235  3234  3728  0
3235  3728  3733  0
3232  3734  3729  0
3232  3490  3734  0
3735  3487  3729  0
3487  3735  3488  0
3491  3488  3735  0
3493  3736  3494  0
3501  3238  3482  0
3238  3501  3242  0
3222  2994  3498  0
3222  3498  3483  0
3489  3240  3737  0
3489  3737  3732  0
3240  3235  3733  0
3240  3733  3738  0
3240  3738  3737  0
3490  3236  3496  0
3490  3496  3739  0
3490  3739  3734  0
3740  3494  3736  0
3741  3494  3740  0
3496  3499  3739  0
3494  3741  3243  0
3500  3742  3244  0
3743  3245  3244  0
3512  3744  3504  0
3504  3744  3505  0
3745  3505  3744  0
3505  3745  3506  0
3746  3506  3745  0
3499  3497  3507  0
3747  3499  3507  0
3038  3508  3031  0
3243  3741  3509  0
3509  3741  3513  0
3024  3748  3500  0
3500  3749  3742  0
3500  3748  3749  0
3510  3245  3750  0
3245  3743  3750  0
3503  3751  3252  0
3253  3252  3751  0
3503  3730  3751  0
3516  3512  3261  0
3506  3752  3256  0
3508  3747  3507  0
3508  3038  3753  0
3038  3518  3753  0
3513  3748  3257  0
3263  3257  3748  0
3748  3024  3263  0
3754  3248  3519  0
3248  3754  3755  0
3250  3502  3520  0
3253  3751  3756  0
3253  3756  3259  0
3516  3515  3757  0
3752  3517  3256  0
3518  3269  3758  0
3519  3514  3759  0
3519  3759  3754  0
3259  3756  3760  0
3259  3760  3264  0
3269  3761  3758  0
3264  3760  3046  0
3271  3762  3515  0
3757  3515  3762  0
3042  3517  3763  0
3042  3763  3272  0
3528  3272  3763  0
3269  3523  3761  0
3282  3050  3046  0
3762  3271  3524  0
3522  3526  3531  0
3522  3531  3764  0
3522  3764  3527  0
3527  3764  3276  0
3765  3277  3528  0
3526  3285  3531  0
3764  3531  3288  0
3764  3288  3276  0
3276  3288  3529  0
3530  3294  3766  0
3282  3767  3283  0
3277  3765  3534  0
3765  3768  3534  0
3532  3529  3288  0
3303  3766  3294  0
3769  3534  3768  0
3534  3769  3538  0
3770  3538  3769  0
3538  3770  3539  0
3288  3535  3532  0
3771  3532  3535  0
3532  3771  3536  0
3303  3772  3773  0
3774  3773  3772  0
3539  3775  3540  0
3539  3776  3775  0
3777  3540  3775  0
3537  3536  3771  0
3778  3562  3779  0
3780  3778  3779  0
3779  3548  3780  0
3549  3780  3548  0
3780  3549  3781  0
3781  3549  3782  0
3553  3782  3549  0
3783  3782  3553  0
3553  3784  3783  0
3785  3783  3784  0
3786  3542  3540  0
3540  3777  3786  0
3535  3543  3771  0
3564  3771  3543  0
3771  3564  3537  0
3544  3537  3564  0
3303  3545  3772  0
3774  3772  3545  0
3546  3547  3787  0
3557  3559  3788  0
3789  3788  3559  0
3559  3567  3790  0
3559  3790  3789  0
3778  3791  3562  0
3562  3560  3779  0
3779  3560  3334  0
3779  3334  3548  0
3553  3551  3552  0
3553  3552  3784  0
3784  3552  3326  0
3784  3326  3785  0
3785  3326  3542  0
3545  3792  3774  0
3546  3787  3793  0
3546  3793  3330  0
3790  3567  3573  0
3794  3332  3568  0
3794  3568  3795  0
3795  3568  3561  0
3795  3561  3562  0
3554  3796  3543  0
3543  3796  3564  0
3564  3796  3563  0
3555  3797  3545  0
3555  3565  3798  0
3330  3793  3329  0
3554  3569  3796  0
3796  3569  3799  0
3796  3799  3563  0
3570  3577  3565  0
3565  3800  3798  0
3329  3801  3571  0
3329  3793  3801  0
3566  3578  3802  0
3566  3802  3573  0
3573  3802  3803  0
3804  3333  3332  0
3569  3347  3579  0
3569  3579  3805  0
3569  3805  3799  0
3799  3805  3806  0
3799  3806  3563  0
3563  3806  3574  0
3577  3800  3565  0
3577  3576  3800  0
3807  3800  3576  0
3808  3571  3801  0
3578  3581  3802  0
3809  3802  3581  0
3803  3802  3810  0
3802  3809  3810  0
3085  3333  3094  0
3811  3094  3333  0
3333  3804  3811  0
3584  3805  3579  0
3805  3812  3806  0
3813  3806  3812  0
3805  3584  3812  0
3351  3812  3584  0
3806  3813  3574  0
3814  3574  3813  0
3574  3814  3575  0
3815  3575  3814  0
3575  3815  3576  0
3807  3576  3815  0
3571  3808  3587  0
3816  3587  3808  0
3809  3581  3582  0
3354  3583  3591  0
3817  3101  3094  0
3094  3811  3817  0
3818  3817  3811  0
3811  3819  3818  0
3811  3804  3819  0
3820  3819  3804  0
3351  3585  3821  0
3598  3586  3587  0
3822  3587  3816  0
3587  3822  3598  0
3823  3582  3589  0
3824  3590  3355  0
3355  3591  3824  0
3825  3824  3591  0
3591  3583  3826  0
3101  3817  3356  0
3817  3818  3827  0
3817  3827  3356  0
3828  3827  3818  0
3818  3819  3828  0
3819  3829  3830  0
3585  3592  3831  0
3832  3831  3592  0
3592  3593  3832  0
3833  3832  3593  0
3593  3595  3833  0
3834  3833  3595  0
3595  3596  3835  0
3601  3835  3596  0
3595  3835  3834  0
3836  3835  3601  0
3601  3362  3836  0
3363  3836  3362  0
3360  3590  3600  0
3837  3600  3590  0
3590  3824  3838  0
3590  3838  3837  0
3827  3828  3839  0
3830  3828  3819  0
3837  3599  3600  0
3603  3840  3602  0
3603  3841  3840  0
3605  3377  3842  0
3605  3843  3606  0
3606  3843  3844  0
3606  3844  3841  0
3606  3841  3607  0
3607  3841  3603  0
3604  3845  3609  0
3373  3846  3377  0
3373  3611  3846  0
3377  3846  3842  0
3609  3845  3610  0
3610  3845  3847  0
3610  3847  3848  0
3610  3848  3621  0
3383  3849  3612  0
3612  3849  3850  0
3612  3850  3611  0
3618  3851  3619  0
3620  3852  3618  0
3620  3389  3852  0
3389  3400  3853  0
3389  3853  3852  0
3623  3622  3854  0
3623  3854  3616  0
3615  3616  3855  0
3615  3855  3613  0
3613  3855  3625  0
3383  3626  3849  0
3400  3856  3853  0
3621  3848  3628  0
3402  3637  3622  0
3857  3622  3637  0
3622  3857  3854  0
3858  3854  3857  0
3632  3625  3855  0
3626  3859  3849  0
3860  3849  3859  0
3626  3861  3859  0
3862  3627  3617  0
3617  3619  3862  0
3851  3862  3619  0
3400  3635  3856  0
3628  3863  3630  0
3864  3636  3630  0
3636  3864  3637  0
3637  3864  3857  0
3631  3639  3638  0
3865  3638  3639  0
3866  3626  3641  0
3626  3866  3861  0
3867  3861  3866  0
3627  3862  3643  0
3868  3643  3862  0
3869  3862  3851  0
3644  3870  3635  0
3635  3870  3856  0
3864  3630  3863  0
3871  3646  3638  0
3638  3865  3871  0
3865  3639  3871  0
3158  3871  3639  0
3872  3873  3632  0
3647  3632  3873  0
3872  3874  3873  0
3875  3873  3874  0
3641  3650  3866  0
3876  3866  3650  0
3868  3652  3643  0
3653  3877  3644  0
3654  3646  3878  0
3646  3871  3878  0
3879  3878  3871  0
3656  3879  3871  0
3871  3158  3656  0
3873  3655  3647  0
3873  3875  3880  0
3873  3880  3655  0
3881  3648  3651  0
3651  3652  3881  0
3652  3868  3882  0
3652  3882  3881  0
3644  3877  3870  0
3883  3877  3653  0
3653  3409  3884  0
3654  3878  3885  0
3654  3885  3886  0
3654  3886  3409  0
3879  3656  3887  0
3655  3415  3413  0
3655  3880  3888  0
3655  3888  3415  0
3649  3648  3889  0
3649  3889  3890  0
3649  3890  3891  0
3649  3891  3650  0
3648  3881  3889  0
3881  3882  3892  0
3881  3892  3889  0
3653  3884  3883  0
3409  3886  3884  0
3887  3656  3412  0
3887  3412  3657  0
3893  3660  3415  0
3893  3415  3888  0
3889  3892  3890  0
3660  3893  3894  0
3664  3895  3662  0
3662  3896  3663  0
3663  3896  3897  0
3667  3657  3170  0
3667  3898  3657  0
3660  3894  3661  0
3664  3670  3899  0
3664  3899  3900  0
3664  3900  3895  0
3663  3897  3901  0
3417  3658  3666  0
3669  3663  3673  0
3669  3673  3674  0
3669  3674  3902  0
3669  3902  3670  0
3663  3901  3673  0
3903  3673  3901  0
3665  3671  3904  0
3665  3904  3659  0
3419  3666  3672  0
3905  3429  3661  0
3674  3434  3906  0
3674  3906  3902  0
3673  3903  3675  0
3907  3675  3903  0
3908  3904  3671  0
3672  3909  3422  0
3422  3909  3427  0
3429  3905  3676  0
3680  3906  3434  0
3675  3907  3677  0
3677  3907  3435  0
3910  3435  3907  0
3671  3425  3911  0
3671  3911  3908  0
3435  3910  3436  0
3912  3908  3911  0
3681  3425  3176  0
3913  3682  3438  0
3676  3914  3433  0
3915  3433  3914  0
3680  3188  3916  0
3917  3916  3188  0
3436  3910  3683  0
3911  3425  3918  0
3681  3918  3425  0
3911  3918  3912  0
3919  3684  3678  0
3438  3685  3913  0
3433  3915  3686  0
3188  3444  3917  0
3439  3920  3688  0
3921  3688  3920  0
3918  3681  3922  0
3923  3922  3681  0
3441  3923  3681  0
3452  3684  3919  0
3685  3689  3924  0
3444  3690  3917  0
3925  3695  3446  0
3446  3691  3925  0
3688  3926  3692  0
3688  3927  3926  0
3923  3441  3461  0
3441  3196  3461  0
3686  3928  3443  0
3443  3929  3453  0
3443  3928  3929  0
3695  3925  3930  0
3695  3930  3696  0
3925  3691  3930  0
3691  3692  3931  0
3691  3931  3930  0
3692  3926  3931  0
3448  3697  3932  0
3448  3932  3449  0
3449  3932  3702  0
3449  3702  3456  0
3461  3207  3923  0
3452  3933  3698  0
3453  3929  3699  0
3463  3934  3464  0
3697  3935  3932  0
3697  3701  3935  0
3202  3702  3936  0
3202  3936  3458  0
3458  3936  3937  0
3458  3937  3703  0
3459  3703  3938  0
3459  3938  3460  0
3698  3933  3939  0
3698  3939  3693  0
3462  3700  3940  0
3454  3213  3941  0
3454  3941  3694  0
3701  3704  3942  0
3701  3942  3935  0
3465  3462  3943  0
3465  3943  3944  0
3462  3940  3943  0
3213  3212  3719  0
3213  3719  3941  0
3704  3705  3710  0
3704  3710  3945  0
3704  3945  3946  0
3704  3946  3942  0
3466  3947  3708  0
3466  3465  3944  0
3466  3944  3947  0
3945  3710  3948  0
3949  3946  3945  0
3710  3711  3950  0
3710  3950  3948  0
3711  3706  3951  0
3711  3951  3950  0
3706  3712  3951  0
3716  3714  3470  0
3707  3708  3952  0
3945  3948  3949  0
3953  3949  3948  0
3948  3950  3953  0
3954  3953  3950  0
3950  3951  3954  0
3955  3954  3951  0
3951  3712  3955  0
3956  3712  3713  0
3713  3714  3956  0
3716  3715  3957  0
3715  3471  3958  0
3472  3958  3471  0
3959  3472  3219  0
3960  3718  3479  0
3953  3954  3961  0
3725  3219  3475  0
3473  3962  3723  0
3720  3963  3964  0
3720  3964  3724  0
3476  3726  3722  0
3965  3722  3726  0
3722  3965  3966  0
3722  3966  3477  0
3477  3966  3967  0
3477  3967  3478  0
3727  3724  3968  0
3964  3968  3724  0
3727  3968  3969  0
3727  3969  3728  0
3970  3725  3481  0
3481  3237  3970  0
3730  3484  3751  0
3731  3751  3484  0
3733  3728  3969  0
3729  3971  3972  0
3729  3972  3735  0
3729  3734  3971  0
3735  3972  3973  0
3735  3973  3491  0
3491  3973  3974  0
3491  3974  3492  0
3492  3974  3975  0
3492  3975  3493  0
3493  3975  3736  0
3483  3498  3976  0
3483  3976  3726  0
3226  3730  3503  0
3731  3977  3751  0
3731  3732  3977  0
3732  3737  3978  0
3979  3980  3981  0
3979  3982  3980  0
3979  3981  3983  0
3734  3739  3984  0
3972  3985  3973  0
3736  3986  3740  0
3740  3986  3987  0
3740  3987  3741  0
3495  3249  3248  0
3495  3248  3988  0
3498  3989  3976  0
3737  3738  3978  0
3982  3979  3990  0
3982  3990  3745  0
3982  3745  3991  0
3982  3991  3992  0
3739  3993  3984  0
3739  3499  3994  0
3739  3994  3993  0
3995  3973  3985  0
3973  3995  3974  0
3975  3974  3995  0
3996  3741  3987  0
3742  3743  3244  0
3997  3502  3501  0
3498  3511  3989  0
3998  3744  3999  0
3744  3512  3999  0
3516  3999  3512  0
3744  3998  3745  0
3991  3745  3998  0
3745  3990  4000  0
3745  4000  3746  0
3990  3979  4000  0
3979  3983  4000  0
4001  4000  3983  0
4002  3994  3499  0
3741  4003  3513  0
3741  3996  4003  0
4004  4003  3996  0
3748  3513  4003  0
4005  4003  4004  0
4003  3749  3748  0
4003  4005  3749  0
4006  3749  4005  0
3749  4006  3742  0
3743  3742  4006  0
3502  3997  3520  0
3989  3520  3997  0
3520  3989  3511  0
3506  3746  3752  0
3746  4000  4007  0
3746  4007  3752  0
4008  3752  4007  0
4001  4007  4000  0
3499  3747  4002  0
4009  4002  3747  0
3508  4009  3747  0
3508  3753  4010  0
3751  4011  3756  0
3757  4012  3516  0
4013  4012  3757  0
4014  3517  3752  0
4008  4014  3752  0
4009  3508  4015  0
4010  4015  3508  0
3753  3518  3758  0
3510  4016  3514  0
3759  3514  4016  0
3510  3750  4017  0
3510  4017  4016  0
3756  4018  3760  0
3517  4014  4019  0
3517  4019  3763  0
3759  4016  3754  0
4020  3762  3524  0
4020  4013  3762  0
3762  4013  3757  0
3761  3523  4021  0
3523  4022  4021  0
3046  3760  3767  0
3046  3767  3282  0
3525  4023  4020  0
3525  4020  3524  0
3523  3275  3281  0
3523  3281  4022  0
3525  3767  4023  0
3525  3283  3767  0
3528  4024  3765  0
3281  3530  3766  0
3281  3766  4025  0
3765  4024  4026  0
3765  4026  3768  0
3303  3773  4027  0
3770  4028  3776  0
3770  3776  3539  0
4029  3776  4028  0
3303  4027  3766  0
3773  3774  4030  0
3773  4030  4031  0
4032  3778  4033  0
4033  3778  3780  0
4033  3780  4034  0
4034  3780  4035  0
4035  3780  3781  0
4035  3781  4036  0
4036  3781  4037  0
4037  3781  3782  0
4037  3782  3783  0
3776  4029  3775  0
3777  3775  4029  0
3791  4032  4038  0
3791  3778  4032  0
4039  3783  3785  0
3786  4039  3785  0
3774  4040  4030  0
3774  3792  4040  0
4041  4040  3792  0
3788  3787  3547  0
3547  3557  3788  0
3788  3789  4042  0
4043  4042  3789  0
3789  3790  4043  0
3573  4044  3790  0
4038  3795  3791  0
3562  3791  3795  0
4045  3795  4038  0
3785  3542  3786  0
3545  3797  3792  0
4046  4041  3792  0
4047  3793  3787  0
4048  4049  4044  0
3794  3795  4045  0
3555  3798  3797  0
3797  4046  3792  0
3797  3798  4046  0
4050  4046  3798  0
3793  4047  4051  0
3573  4048  4044  0
4052  4050  3798  0
3793  4051  3801  0
3808  3801  4051  0
4051  4053  3808  0
3573  3803  4048  0
3332  4054  3804  0
4052  3800  3807  0
3800  4052  3798  0
3808  4053  4055  0
3808  4055  4056  0
3803  4057  4048  0
3803  3810  4057  0
3812  3351  3821  0
3812  3821  3813  0
3813  3821  4058  0
3813  4058  3814  0
3814  4058  4059  0
3814  4059  3815  0
3815  4060  3807  0
3815  4059  4060  0
3807  4060  4061  0
3807  4061  4052  0
3808  4056  3822  0
3808  3822  3816  0
3582  3823  3809  0
3583  3356  4062  0
3583  4062  3826  0
3804  4063  3820  0
3820  3829  3819  0
3820  4063  4064  0
3820  4064  3829  0
3821  3585  3831  0
3821  3831  4058  0
4058  3831  3832  0
4058  3832  4059  0
4059  3832  4065  0
4059  4065  4060  0
3822  4056  4066  0
3822  4066  3598  0
3589  3599  4067  0
3589  4067  3823  0
3591  3826  3825  0
4062  4068  3826  0
3356  3827  4062  0
3829  4069  4070  0
3829  4070  3830  0
3829  4071  4069  0
3832  3833  4072  0
3832  4072  4065  0
3833  3834  4072  0
3835  3836  4073  0
3835  4073  3834  0
3836  4074  4073  0
3598  4066  3597  0
3599  3837  4067  0
3824  3825  3838  0
4062  4075  4068  0
4062  3827  4075  0
3827  3839  4076  0
3827  4076  4075  0
3828  4077  3839  0
3828  3830  4077  0
3830  4070  4078  0
3830  4078  4077  0
4070  4079  4078  0
4080  4070  4069  0
3363  3597  4066  0
3363  4066  3836  0
3837  3838  4067  0
3838  3825  4081  0
3838  4081  4067  0
4079  4070  4080  0
4082  3602  3840  0
3602  4083  3604  0
4084  3604  4083  0
3602  4082  4083  0
4085  4083  4082  0
4086  4083  4085  0
4083  4086  4084  0
4087  4084  4086  0
3843  3605  3842  0
3843  4088  3844  0
4089  3841  3844  0
3841  4089  3840  0
4090  3840  4089  0
3604  4084  3845  0
4091  3845  4084  0
4087  4091  4084  0
4092  3846  3611  0
3846  4092  3842  0
4093  3842  4092  0
3842  4093  3843  0
3843  4093  4088  0
4094  3844  4088  0
3844  4094  4089  0
4095  4089  4094  0
3845  4091  3847  0
4096  3847  4091  0
3611  4097  4092  0
4098  4092  4097  0
3611  3850  4097  0
4099  4097  3850  0
4097  4099  4100  0
4101  4100  4099  0
3852  3851  3618  0
4102  3616  3854  0
4103  3616  4102  0
3616  4103  3855  0
3849  3860  3850  0
4104  3850  3860  0
3850  4104  4099  0
4099  4104  4101  0
3851  3852  4105  0
3851  4105  3869  0
3852  3853  4105  0
3848  4106  4107  0
3848  4107  3628  0
3854  4108  4102  0
3854  3858  4108  0
4103  4109  3874  0
4103  3874  3855  0
3855  3874  3872  0
3855  3872  3632  0
3859  4110  3860  0
3860  4110  4104  0
4104  4110  4111  0
3853  3856  4112  0
3628  4107  3863  0
3863  4107  4113  0
3864  4114  3857  0
3857  4114  3858  0
3858  4114  4115  0
4109  4116  3875  0
4109  3875  3874  0
3861  3867  4117  0
3861  4117  3859  0
3859  4117  4110  0
4110  4117  4118  0
4110  4118  4111  0
3862  3869  4119  0
3869  4120  4119  0
3856  3870  4121  0
3863  4113  4122  0
3864  3863  4123  0
3864  4123  4124  0
3864  4124  4114  0
4114  4124  4125  0
4114  4125  4115  0
4116  3880  3875  0
3866  3876  3867  0
3868  3862  4126  0
3868  4126  4127  0
3862  4119  4126  0
4119  4120  4126  0
3870  4128  4121  0
3880  4116  4129  0
3880  4129  3888  0
3870  3877  4128  0
3878  3879  3885  0
4129  3893  3888  0
3650  3891  3876  0
3882  3868  4127  0
3882  4127  4130  0
3884  3886  4131  0
3885  3879  3898  0
3887  3898  3879  0
4132  3891  3890  0
3890  3892  4133  0
4134  4133  3892  0
3890  4133  4132  0
3892  3882  4135  0
4130  4135  3882  0
3892  4135  4134  0
4136  4134  4135  0
3657  3898  3887  0
4129  4137  3893  0
3893  4137  3894  0
4138  3662  3895  0
3662  4139  3896  0
4140  3896  4139  0
4141  3896  4140  0
3896  4141  3897  0
4142  3897  4141  0
3897  4142  4143  0
4144  4143  4142  0
4133  4134  4145  0
4133  4145  4132  0
4146  3894  4137  0
4147  4138  3895  0
3897  4143  3901  0
4148  3901  4143  0
4144  4149  4143  0
4143  4149  4148  0
3898  3667  4150  0
3894  4146  3661  0
3895  3900  4147  0
3900  3899  4151  0
3902  3899  3670  0
3901  4148  3903  0
3907  3903  4148  0
3659  3904  4152  0
3659  4152  3658  0
3658  4152  4153  0
3658  4153  3666  0
3666  4153  4154  0
3666  4154  3672  0
3672  4154  3909  0
4155  4150  3667  0
3661  4146  3905  0
3899  3902  4156  0
3906  4156  3902  0
3907  4148  4157  0
3909  4154  4158  0
3667  3668  4155  0
3907  4157  4159  0
3907  4159  3910  0
3908  4160  3904  0
3909  4158  4161  0
3909  4161  3427  0
3668  3679  4155  0
3676  3905  3914  0
3680  3916  3906  0
3908  3912  4162  0
3908  4162  4160  0
3427  4161  3678  0
3678  4161  4163  0
3682  3913  3679  0
3916  3917  4164  0
3683  4165  3920  0
3683  3920  3439  0
3683  3910  4166  0
3683  4166  4165  0
4167  3912  3918  0
4167  3918  4168  0
4167  4162  3912  0
3678  4163  3919  0
3685  4169  3913  0
3685  3924  4169  0
3915  3928  3686  0
3920  4165  3921  0
4170  3921  4165  0
3921  3927  3688  0
4171  3921  4170  0
3921  4171  3927  0
4172  3927  4171  0
4173  4168  3938  0
4167  4168  4173  0
4173  3938  4174  0
4168  3918  3922  0
4168  3922  3938  0
3917  3690  4175  0
3927  4172  4176  0
3927  4176  3926  0
4172  4177  4176  0
4172  4178  4177  0
3703  4174  3938  0
3703  4179  4174  0
3938  3922  3460  0
3922  3923  3460  0
3919  4180  3452  0
3933  3452  4180  0
4181  3689  3693  0
3690  3694  4175  0
3696  4182  3463  0
3696  3930  4183  0
3696  4183  4182  0
3930  3931  4184  0
3930  4184  4183  0
3931  3926  4185  0
3931  4185  4184  0
3926  4176  4185  0
4186  4185  4176  0
4176  4177  4186  0
4179  3703  3937  0
3460  3923  2962  0
3207  2962  3923  0
4187  3928  4188  0
3928  4187  3929  0
4189  3929  4187  0
3929  4189  3699  0
3463  4182  4190  0
3463  4190  3934  0
3935  3942  3932  0
4191  3932  3942  0
3932  4191  3702  0
3702  4191  3936  0
4192  3936  4191  0
3936  4193  3937  0
3936  4192  4193  0
3933  4194  3939  0
4195  3939  4194  0
3939  4195  3693  0
4181  3693  4195  0
3699  4189  4196  0
3699  4196  3700  0
3694  3941  4197  0
3942  4198  4191  0
3942  4199  4198  0
4191  4198  4200  0
4191  4200  4192  0
4201  3941  3719  0
3464  3934  4202  0
3464  4202  3709  0
3942  3946  4199  0
4203  4198  4199  0
3947  3944  4204  0
4205  3944  3943  0
3940  4205  3943  0
3946  3949  4199  0
4206  4199  3949  0
4199  4206  4203  0
4204  3952  3708  0
3708  3947  4204  0
3719  3718  4201  0
3709  4202  4207  0
3949  3953  4206  0
3712  3956  3955  0
3956  3714  4208  0
3714  3716  4209  0
3714  4209  4208  0
3716  3957  4210  0
3716  4210  4209  0
3715  3958  3957  0
3717  3707  4211  0
3717  4211  3721  0
3707  3952  4211  0
3709  4207  3962  0
3709  3962  3473  0
3223  3480  3963  0
3223  3963  3720  0
3953  3961  4212  0
3953  4212  4206  0
3961  4213  4212  0
3954  3955  4214  0
3955  3956  4214  0
3956  4208  4214  0
4209  4210  4215  0
3957  3958  4216  0
3957  4216  4210  0
3958  4217  4216  0
3958  3472  4218  0
3958  4218  4217  0
3472  3959  4218  0
3219  3725  3959  0
3479  3478  4219  0
3479  4219  3960  0
3962  4220  3723  0
4221  3723  4220  0
3723  4221  3480  0
4222  3480  4221  0
3480  4222  3963  0
4223  3963  4222  0
3963  4223  3964  0
4224  3964  4223  0
3961  3954  4225  0
3725  4226  3959  0
4227  3721  4211  0
3967  4219  3478  0
3967  3966  4228  0
3967  4228  4219  0
3968  3964  4224  0
4229  3969  3968  0
3725  3970  4226  0
3721  3501  3482  0
3721  4227  3501  0
4230  3965  3726  0
3965  4231  3966  0
4228  3966  4231  0
3965  4230  4231  0
4229  4232  3969  0
3969  4232  3733  0
4233  3733  4232  0
4234  3980  4235  0
3992  4235  3980  0
3980  4234  3981  0
4236  3981  4234  0
3970  3237  4237  0
3501  4238  4239  0
3726  3976  4230  0
4240  4230  3976  0
3978  3977  3732  0
3738  3733  4241  0
4233  4241  3733  0
3980  3982  3992  0
4236  3983  3981  0
3734  4242  3971  0
4243  3971  4242  0
3734  3984  4242  0
4244  4242  3984  0
3971  4243  3972  0
3972  4245  3985  0
3972  4243  4245  0
3986  3736  3975  0
3986  4246  3987  0
3237  3495  4237  0
3495  3988  4237  0
3997  3501  4239  0
3977  3978  4247  0
3992  3991  4248  0
4249  4248  3991  0
3984  3993  4244  0
4244  3993  3994  0
3985  4245  4250  0
3985  4250  3995  0
3995  4251  3975  0
4252  3975  4251  0
3995  4250  4253  0
3995  4253  4251  0
3975  4252  3986  0
3987  4254  3996  0
3987  4246  4254  0
3989  3997  3976  0
3997  4239  4240  0
3997  4240  3976  0
3999  3516  4255  0
3998  3999  4249  0
3998  4249  3991  0
3994  4002  4256  0
3994  4256  4244  0
3986  4252  4246  0
4005  4004  4257  0
4005  4257  4006  0
4006  4258  3743  0
4006  4257  4258  0
3743  4258  3750  0
3248  3755  3988  0
3988  3755  4259  0
3516  4260  4255  0
3516  4012  4260  0
4007  4261  4008  0
4007  4001  4262  0
4007  4262  4261  0
4001  4263  4262  0
4002  4009  4015  0
4002  4015  4264  0
4002  4264  4265  0
4002  4265  4256  0
4258  4266  3750  0
4258  4267  4266  0
4012  4013  4268  0
4263  4269  4262  0
4270  4262  4269  0
4015  4010  4271  0
4015  4271  4272  0
4015  4272  4273  0
4015  4273  4264  0
4010  3753  4274  0
3753  3758  4274  0
4266  4017  3750  0
3754  4259  3755  0
4261  4275  4008  0
4261  4262  4270  0
4261  4270  4275  0
4010  4274  4271  0
4274  3758  4276  0
3758  3761  4276  0
4277  4276  3761  0
4021  4277  3761  0
4266  4278  4017  0
4279  4016  4017  0
4016  4279  3754  0
4259  3754  4279  0
3763  4019  3528  0
4024  3528  4019  0
3760  4018  3767  0
4277  4021  4280  0
4281  4021  4022  0
3281  4281  4022  0
3767  4282  4023  0
4283  4281  3281  0
4025  4283  3281  0
4026  4284  3768  0
3768  4284  3769  0
3773  4285  4027  0
4034  4286  4033  0
4286  4034  4287  0
4035  4287  4034  0
4287  4035  4288  0
4036  4288  4035  0
4037  4288  4036  0
4288  4037  4289  0
4288  4289  4290  0
3769  4284  4291  0
3769  4291  3770  0
3770  4291  4292  0
3770  4292  4028  0
4028  4292  4029  0
4029  4293  3777  0
4283  4025  4294  0
4283  4294  4295  0
4025  3766  4294  0
3766  4027  4296  0
4031  4030  4297  0
4031  4297  4298  0
4032  4033  4286  0
4037  3783  4299  0
4037  4299  4289  0
3783  4039  4299  0
3777  4293  4300  0
4294  3766  4296  0
4294  4296  4301  0
3786  3777  4300  0
3786  4300  4039  0
4030  4040  4302  0
4030  4302  4297  0
3787  3788  4047  0
3788  4042  4303  0
4043  3790  4304  0
3790  4044  4304  0
4044  4049  4304  0
4041  4046  4302  0
4041  4302  4040  0
3788  4305  4047  0
4303  4042  4306  0
4042  4043  4306  0
4046  4307  4302  0
4047  4308  4051  0
4049  4048  4309  0
4310  3332  3794  0
4307  4046  4050  0
4050  4052  4311  0
4051  4308  4053  0
4312  4053  4308  0
4313  4048  4057  0
4048  4313  4309  0
4314  4309  4313  0
3332  4310  4054  0
4052  4061  4311  0
4315  4311  4061  0
4053  4312  4055  0
4057  3810  4313  0
4316  4313  3810  0
4063  3804  4054  0
4054  4310  4063  0
4060  4317  4061  0
4315  4061  4317  0
4318  4056  4055  0
4319  3809  3823  0
3809  4319  3810  0
4316  3810  4319  0
4071  3829  4064  0
4320  4064  4063  0
4064  4320  4071  0
4321  4071  4320  0
4060  4065  4317  0
4072  4317  4065  0
4317  4072  4322  0
4322  4072  4323  0
4324  4323  4072  0
4056  4318  4066  0
4325  4066  4318  0
4326  4319  3823  0
4071  4327  4069  0
4071  4328  4327  0
4072  3834  4324  0
3834  4073  4324  0
4329  4073  4074  0
4074  3836  4066  0
4074  4066  4329  0
4325  4329  4066  0
3823  4067  4330  0
3825  3826  4081  0
4331  4081  3826  0
3826  4068  4331  0
4332  4068  4075  0
4333  4332  4075  0
4075  4076  4333  0
3839  4077  4076  0
4334  4076  4077  0
4078  4334  4077  0
4078  4079  4335  0
4069  4336  4080  0
4069  4327  4337  0
4069  4337  4336  0
4336  4337  4338  0
4067  4081  4330  0
4339  4330  4081  0
4081  4331  4339  0
4340  4339  4331  0
4331  4068  4340  0
4341  4340  4068  0
4068  4332  4341  0
4332  4333  4342  0
4332  4342  4341  0
4079  4080  4343  0
4079  4343  4335  0
4080  4336  4343  0
4336  4338  4343  0
3840  4090  4082  0
4089  4095  4090  0
4087  4086  4344  0
4092  4098  4345  0
4092  4345  4093  0
4093  4345  4346  0
4093  4346  4347  0
4093  4347  4088  0
4088  4347  4094  0
4094  4347  4348  0
4094  4348  4095  0
4095  4348  4349  0
4096  4350  3847  0
4091  4087  4344  0
4091  4344  4096  0
4097  4100  4098  0
4098  4100  4351  0
4349  4348  4352  0
3847  4350  4353  0
3847  4353  3848  0
4100  4101  4354  0
4100  4354  4351  0
3848  4353  4106  0
4101  4104  4355  0
4101  4355  4356  0
4101  4356  4354  0
4105  3853  4112  0
4113  4107  4106  0
4102  4108  4103  0
4104  4111  4357  0
4104  4357  4355  0
3869  4105  4358  0
4105  4112  4358  0
4112  4359  4358  0
4112  3856  4359  0
4360  3858  4115  0
3858  4360  4108  0
4361  4108  4360  0
4108  4361  4103  0
4109  4103  4361  0
4362  4111  4118  0
3869  4358  4120  0
3863  4122  4123  0
4124  4363  4125  0
4364  4115  4125  0
4115  4364  4360  0
4361  4365  4109  0
4116  4109  4365  0
3867  4366  4117  0
4367  4117  4366  0
4117  4367  4118  0
4368  4118  4367  0
4118  4368  4362  0
4369  4126  4120  0
4113  4370  4122  0
4371  4123  4122  0
4123  4371  4124  0
4363  4372  4125  0
4125  4372  4364  0
4365  4373  4116  0
4129  4116  4373  0
4374  4373  4365  0
3867  4375  4366  0
4376  4366  4375  0
3867  3876  4375  0
4377  4375  3876  0
4366  4376  4367  0
4378  4367  4376  0
4367  4378  4368  0
4379  4368  4378  0
4380  4127  4126  0
4381  4380  4126  0
4126  4369  4381  0
4371  4363  4124  0
4373  4374  4382  0
3876  3891  4377  0
4383  4130  4127  0
4127  4380  4383  0
4384  4380  4381  0
4385  4128  3877  0
4386  4385  3877  0
3877  3883  4386  0
3886  3885  4131  0
3898  4131  3885  0
4373  4387  4137  0
4373  4137  4129  0
4373  4382  4387  0
3891  4132  4388  0
3891  4388  4389  0
3891  4389  4377  0
4135  4130  4390  0
4135  4390  4136  0
4386  3883  4391  0
3883  3884  4391  0
3884  4131  4392  0
3884  4392  4391  0
4131  3898  4393  0
4131  4393  4392  0
3662  4138  4139  0
4141  4140  4394  0
4142  4395  4144  0
4388  4132  4389  0
4132  4145  4396  0
4132  4396  4389  0
4386  4391  4397  0
4393  3898  4150  0
4393  4150  4398  0
4393  4398  4392  0
4387  4146  4137  0
4387  4399  4146  0
4138  4147  4400  0
4138  4401  4139  0
4139  4401  4402  0
4139  4402  4140  0
4140  4402  4394  0
4144  4403  4404  0
4144  4404  4149  0
4144  4395  4403  0
4145  4134  4405  0
4145  4405  4406  0
4145  4406  4396  0
4134  4136  4405  0
4136  4390  4407  0
4136  4407  4405  0
4150  4155  4398  0
4151  3899  4156  0
4148  4149  4408  0
4149  4404  4408  0
4404  4409  4408  0
4404  4410  4409  0
4404  4403  4410  0
4411  4410  4403  0
4412  4410  4411  0
4406  4413  4396  0
3900  4151  4147  0
4156  3906  4414  0
4148  4408  4157  0
4159  4157  4408  0
4415  4159  4408  0
4408  4409  4415  0
4416  4415  4409  0
4417  4416  4409  0
4409  4410  4417  0
4410  4412  4417  0
4418  4417  4412  0
4419  4413  4406  0
4406  4405  4419  0
4407  4419  4405  0
4420  4152  3904  0
4152  4420  4153  0
4421  4153  4420  0
4153  4421  4154  0
3916  4414  3906  0
4422  4159  4415  0
4423  4416  4417  0
4424  4423  4417  0
4417  4418  4424  0
4425  4424  4418  0
3904  4160  4420  0
4426  4420  4160  0
4420  4426  4421  0
4427  4421  4426  0
4158  4428  4161  0
3905  4429  3914  0
4166  3910  4159  0
4159  4422  4166  0
4423  4424  4430  0
4431  4430  4424  0
4424  4432  4431  0
4424  4425  4432  0
4433  4431  4432  0
4160  4162  4426  0
4434  4161  4428  0
4161  4434  4163  0
3913  4435  3679  0
4155  3679  4435  0
4166  4422  4165  0
4170  4165  4422  0
4422  4430  4170  0
4171  4170  4430  0
4423  4430  4422  0
4430  4431  4171  0
4436  4171  4431  0
4437  4436  4431  0
4431  4438  4437  0
4431  4433  4438  0
4439  4438  4433  0
4440  4162  4167  0
4162  4440  4427  0
4162  4427  4426  0
4169  3924  4441  0
4171  4436  4172  0
4436  4437  4178  0
4436  4178  4172  0
4437  4438  4178  0
4438  4442  4443  0
4438  4439  4442  0
4173  4444  4167  0
4173  4174  4444  0
4167  4444  4440  0
4163  4445  4180  0
4163  4180  3919  0
3924  3689  4441  0
3928  3915  4188  0
4175  4164  3917  0
4178  4446  4177  0
4178  4438  4446  0
4438  4443  4446  0
3689  4181  4441  0
4175  3694  4447  0
4182  4183  4448  0
4182  4448  4190  0
4183  4449  4448  0
4183  4184  4450  0
4183  4450  4449  0
4184  4185  4451  0
4184  4451  4450  0
4185  4186  4452  0
4185  4452  4451  0
4186  4177  4453  0
4186  4453  4452  0
4177  4446  4454  0
4177  4454  4453  0
4446  4455  4454  0
4446  4443  4456  0
4446  4456  4455  0
3937  4193  4179  0
3933  4180  4457  0
4188  4458  4187  0
4187  4458  4459  0
3694  4197  4447  0
4190  4460  3934  0
4193  4461  4179  0
3933  4457  4194  0
4462  4194  4457  0
4181  4195  4463  0
4464  4187  4459  0
4187  4464  4189  0
4465  4189  4464  0
4189  4465  4196  0
4466  3700  4196  0
4197  3941  4467  0
4198  4468  4200  0
4469  4192  4200  0
4192  4469  4193  0
4461  4193  4469  0
4463  4194  4462  0
4194  4463  4195  0
3700  4466  3940  0
3941  4201  4467  0
4198  4203  4468  0
4468  4470  4200  0
4200  4470  4469  0
4205  4204  3944  0
4471  4203  4206  0
4204  4205  4472  0
4473  4472  4205  0
4206  4212  4471  0
4474  4471  4212  0
4475  3952  4204  0
4204  4472  4475  0
4476  3962  4207  0
4222  4477  4223  0
4212  4213  4474  0
3954  4214  4225  0
4478  4225  4214  0
4214  4208  4478  0
4479  4478  4208  0
4208  4209  4479  0
4480  4479  4209  0
4209  4215  4480  0
4216  4215  4210  0
4481  4218  3959  0
3960  4482  3718  0
3962  4476  4483  0
3962  4483  4220  0
4223  4477  4224  0
4484  4213  3961  0
3961  4225  4484  0
4485  4484  4225  0
4225  4478  4485  0
4486  4479  4480  0
4480  4215  4486  0
4487  4486  4215  0
4215  4216  4487  0
4488  4487  4216  0
4216  4489  4488  0
3959  4226  4481  0
4490  4481  4226  0
4219  4228  3960  0
3968  4224  4491  0
3968  4491  4229  0
4492  4236  4234  0
4492  4493  4236  0
4226  3970  4490  0
3970  4237  4490  0
4227  4238  3501  0
4232  4229  4494  0
4232  4494  4233  0
4235  3992  4495  0
4236  4493  4496  0
4237  4497  4490  0
3751  3977  3756  0
4241  4233  4498  0
4248  4499  4495  0
4248  4495  3992  0
4248  4500  4499  0
4236  4496  4501  0
4236  4501  3983  0
4242  4502  4503  0
4242  4503  4243  0
4242  4244  4504  0
4242  4504  4502  0
4503  4245  4243  0
4239  4238  4240  0
4230  4240  4238  0
3738  4241  4505  0
3738  4505  3978  0
4248  4249  4500  0
3983  4501  4506  0
4507  4506  4501  0
4508  4245  4503  0
4245  4509  4250  0
4253  4250  4509  0
4237  3988  4510  0
3756  3977  4247  0
4247  3978  4511  0
4505  4511  3978  0
4255  4512  3999  0
4249  3999  4512  0
3983  4506  4001  0
4263  4001  4506  0
4506  4507  4263  0
4513  4263  4507  0
4245  4508  4509  0
4514  4253  4509  0
4253  4515  4251  0
4253  4514  4515  0
4251  4515  4252  0
4516  4246  4252  0
4246  4516  4254  0
4517  3996  4254  0
3996  4517  4004  0
4004  4517  4257  0
4258  4257  4517  0
3988  4259  4510  0
4518  4510  4259  0
3756  4247  4519  0
4263  4513  4269  0
4520  4269  4513  0
4256  4265  4521  0
4522  4521  4265  0
4523  4515  4514  0
4515  4523  4252  0
4524  4252  4523  0
4252  4524  4516  0
4525  4516  4524  0
4516  4525  4254  0
4526  4254  4525  0
4254  4526  4517  0
4517  4527  4258  0
4267  4258  4527  0
4528  4518  4259  0
4260  4012  4268  0
4269  4520  4270  0
4529  4270  4520  0
4520  4530  4529  0
4273  4265  4264  0
4531  4522  4265  0
4517  4532  4527  0
4278  4266  4267  0
3756  4519  4018  0
4519  4533  4018  0
4013  4534  4268  0
4013  4020  4534  0
4019  4014  4535  0
4536  4535  4014  0
4014  4008  4536  0
4275  4536  4008  0
4275  4270  4537  0
4529  4537  4270  0
4529  4530  4538  0
4273  4272  4539  0
4273  4539  4531  0
4273  4531  4265  0
4272  4271  4539  0
4271  4274  4540  0
4271  4540  4539  0
4274  4276  4541  0
4274  4541  4540  0
4267  4542  4278  0
4017  4278  4279  0
4543  4020  4023  0
4019  4535  4024  0
4275  4537  4536  0
4529  4538  4537  0
4539  4540  4544  0
4276  4277  4280  0
4276  4280  4545  0
4276  4545  4546  0
4276  4546  4541  0
4018  4282  3767  0
4018  4533  4282  0
4023  4282  4543  0
4024  4535  4026  0
4280  4021  4281  0
4026  4535  4284  0
4280  4281  4547  0
4280  4547  4548  0
4280  4548  4545  0
4281  4283  4547  0
4287  4288  4549  0
4287  4549  4550  0
4288  4290  4551  0
4288  4551  4549  0
4290  4552  4551  0
4290  4553  4552  0
4284  4554  4291  0
4554  4555  4291  0
4292  4291  4555  0
4547  4283  4295  0
3773  4031  4285  0
4031  4298  4556  0
4031  4556  4557  0
4558  4556  4298  0
4286  4287  4559  0
4550  4559  4287  0
4032  4286  4559  0
4290  4289  4560  0
4290  4560  4553  0
4561  4553  4560  0
4560  4289  4561  0
4562  4561  4289  0
4292  4563  4029  0
4293  4029  4563  0
4547  4295  4564  0
4027  4285  4296  0
4298  4297  4558  0
4289  4299  4562  0
4565  4562  4299  0
4299  4039  4565  0
4300  4565  4039  0
4295  4294  4566  0
4567  4566  4294  0
4295  4566  4564  0
4294  4301  4567  0
4568  4567  4301  0
4301  4296  4568  0
4569  4566  4567  0
4570  4297  4302  0
3788  4303  4305  0
4571  4043  4304  0
4304  4049  4572  0
4573  4570  4302  0
4574  4308  4047  0
4047  4305  4574  0
4571  4306  4043  0
4302  4307  4573  0
4305  4303  4574  0
4303  4306  4575  0
4049  4309  4576  0
3794  4577  4310  0
3794  4045  4578  0
3794  4578  4577  0
4050  4311  4307  0
4307  4311  4579  0
4307  4579  4573  0
4308  4574  4312  0
4574  4580  4312  0
4309  4581  4576  0
4311  4315  4582  0
4311  4582  4583  0
4311  4583  4579  0
4312  4580  4584  0
4312  4584  4055  0
4313  4316  4314  0
4314  4585  4309  0
4309  4585  4586  0
4309  4586  4581  0
4310  4587  4063  0
4310  4577  4588  0
4310  4588  4587  0
4587  4320  4063  0
4587  4588  4589  0
4590  4591  4592  0
4593  4590  4594  0
4590  4593  4591  0
4317  4322  4323  0
4317  4323  4315  0
4315  4323  4595  0
4315  4595  4582  0
4055  4596  4318  0
4055  4584  4596  0
4597  4596  4584  0
4598  4596  4597  0
4319  4326  4316  0
4316  4585  4314  0
4320  4587  4321  0
4599  4321  4587  0
4321  4599  4328  0
4321  4328  4071  0
4599  4600  4328  0
4592  4601  4602  0
4590  4592  4603  0
4592  4602  4600  0
4592  4600  4603  0
4592  4591  4604  0
4592  4604  4601  0
4591  4605  4604  0
4591  4593  4606  0
4591  4606  4605  0
4323  4324  4073  0
4323  4073  4595  0
4595  4073  4329  0
4595  4329  4607  0
4595  4607  4608  0
4595  4608  4582  0
4318  4596  4598  0
4318  4598  4325  0
3823  4330  4326  0
4339  4326  4330  0
4078  4609  4334  0
4609  4610  4334  0
4335  4609  4078  0
4609  4335  4611  0
4328  4602  4337  0
4328  4337  4327  0
4328  4600  4602  0
4602  4601  4612  0
4602  4612  4337  0
4613  4601  4604  0
4329  4325  4607  0
4598  4607  4325  0
4614  4333  4076  0
4076  4334  4615  0
4610  4615  4334  0
4076  4615  4614  0
4335  4343  4616  0
4337  4612  4338  0
4613  4338  4612  0
4612  4601  4613  0
4617  4339  4340  0
4618  4617  4340  0
4340  4341  4618  0
4619  4618  4341  0
4342  4619  4341  0
4342  4333  4620  0
4614  4620  4333  0
4343  4338  4621  0
4338  4613  4621  0
4622  4082  4090  0
4082  4622  4085  0
4086  4085  4623  0
4624  4090  4095  0
4090  4624  4625  0
4090  4625  4622  0
4086  4623  4626  0
4086  4626  4344  0
4098  4627  4345  0
4628  4347  4346  0
4346  4345  4629  0
4348  4347  4628  0
4095  4349  4624  0
4096  4344  4630  0
4096  4630  4350  0
4346  4629  4631  0
4346  4631  4628  0
4349  4352  4632  0
4350  4630  4633  0
4350  4633  4353  0
4351  4354  4634  0
4106  4353  4635  0
4106  4635  4113  0
4356  4355  4636  0
4359  4637  4358  0
4113  4635  4370  0
4111  4362  4357  0
4357  4638  4636  0
4357  4636  4355  0
4357  4639  4638  0
4358  4640  4120  0
4359  3856  4121  0
4360  4641  4361  0
4360  4364  4641  0
4368  4379  4362  0
4362  4639  4357  0
4362  4379  4642  0
4362  4642  4639  0
4120  4640  4369  0
4121  4128  4359  0
4643  4122  4370  0
4122  4643  4371  0
4372  4363  4644  0
4372  4644  4645  0
4372  4645  4364  0
4361  4374  4365  0
4375  4646  4376  0
4647  4376  4646  0
4375  4377  4648  0
4375  4648  4646  0
4376  4647  4378  0
4649  4378  4647  0
4378  4649  4379  0
4369  4640  4650  0
4369  4650  4381  0
4371  4651  4363  0
4652  4382  4374  0
4380  4653  4383  0
4380  4384  4654  0
4380  4654  4653  0
4128  4385  4655  0
4130  4383  4656  0
4383  4653  4656  0
4385  4386  4655  0
4382  4657  4387  0
4141  4394  4142  0
4395  4142  4394  0
4389  4396  4658  0
4659  4658  4396  0
4130  4656  4390  0
4660  4390  4656  0
4661  4660  4656  0
4386  4397  4662  0
4391  4392  4397  0
4398  4397  4392  0
4387  4657  4399  0
4401  4138  4400  0
4401  4663  4402  0
4664  4394  4402  0
4665  4394  4664  0
4394  4665  4395  0
4395  4666  4403  0
4411  4403  4666  0
4667  4659  4396  0
4390  4660  4407  0
4668  4407  4660  0
4669  4398  4155  0
4399  4670  4146  0
4400  4671  4401  0
4401  4671  4663  0
4663  4672  4402  0
4402  4672  4673  0
4402  4673  4664  0
4411  4666  4674  0
4411  4674  4675  0
4411  4675  4412  0
4396  4413  4667  0
4676  4667  4413  0
4668  4660  4677  0
4146  4429  3905  0
4146  4670  4429  0
4678  4147  4679  0
4680  4679  4147  0
4678  4400  4147  0
4147  4151  4680  0
4151  4156  4680  0
4681  4680  4156  0
4156  4414  4681  0
4412  4675  4682  0
4412  4682  4418  0
4413  4419  4683  0
4413  4683  4676  0
4684  4676  4683  0
4685  4419  4407  0
4407  4668  4686  0
4407  4686  4685  0
4158  4154  4421  0
4429  4670  4687  0
4679  4680  4688  0
4681  4414  3916  0
4681  3916  4689  0
4415  4416  4423  0
4415  4423  4422  0
4418  4682  4690  0
4418  4690  4425  0
4683  4419  4691  0
4419  4685  4691  0
4421  4427  4692  0
4421  4692  4693  0
4421  4693  4158  0
4158  4693  4428  0
4429  4687  4694  0
4429  4694  3914  0
3916  4164  4695  0
4425  4696  4433  0
4425  4433  4432  0
4425  4690  4696  0
4692  4697  4693  0
3913  4169  4435  0
4696  4690  4433  0
4698  4433  4690  0
4433  4698  4439  0
4440  4699  4427  0
4427  4699  4700  0
4427  4700  4692  0
4692  4700  4697  0
4445  4163  4434  0
3914  4694  3915  0
4701  4439  4698  0
4439  4701  4442  0
4702  4443  4442  0
4440  4444  4699  0
4699  4703  4700  0
4700  4703  4704  0
4700  4704  4697  0
4164  4175  4705  0
4443  4702  4456  0
4706  4456  4702  0
4174  4707  4444  0
4708  4444  4707  0
4444  4708  4699  0
4709  4699  4708  0
4699  4709  4703  0
4710  4703  4709  0
4711  4703  4710  0
4703  4711  4704  0
4712  4704  4711  0
4441  4181  4713  0
4714  4713  4181  0
3915  4715  4188  0
4190  4448  4716  0
4460  4190  4716  0
4717  4449  4450  0
4718  4451  4452  0
4452  4453  4718  0
4719  4718  4453  0
4453  4454  4719  0
4720  4719  4454  0
4454  4455  4720  0
4721  4720  4455  0
4455  4456  4721  0
4722  4721  4456  0
4706  4722  4456  0
4174  4179  4707  0
4723  4707  4179  0
4707  4723  4708  0
4724  4708  4723  0
4708  4725  4709  0
4726  4709  4725  0
4708  4724  4725  0
4709  4726  4710  0
4727  4710  4726  0
4710  4727  4711  0
4728  4711  4727  0
4711  4728  4712  0
4188  4715  4458  0
4723  4179  4461  0
4725  4729  4726  0
4727  4730  4728  0
4459  4731  4464  0
4197  4467  4447  0
3934  4460  4732  0
3934  4732  4202  0
4733  4461  4469  0
4461  4733  4723  0
4734  4726  4735  0
4735  4726  4729  0
4726  4734  4727  0
4727  4734  4730  0
4728  4730  4736  0
4463  4737  4181  0
4196  4465  4738  0
4196  4738  4466  0
4467  4201  4739  0
4467  4739  4447  0
4470  4468  4740  0
4470  4740  4741  0
4470  4741  4469  0
4469  4741  4733  0
4742  4743  4735  0
4742  4735  4744  0
4742  4744  4745  0
4742  4745  4743  0
4735  4743  4734  0
3940  4466  4746  0
3940  4746  4205  0
4201  4747  4739  0
4202  4732  4207  0
4203  4471  4468  0
4741  4748  4733  0
4743  4745  4749  0
4743  4749  4750  0
4743  4750  4734  0
4734  4750  4751  0
4734  4751  4730  0
4473  4205  4752  0
4205  4746  4752  0
4201  3718  4753  0
4201  4753  4747  0
4468  4471  4740  0
4472  4473  4475  0
4754  4476  4207  0
4222  4755  4477  0
4756  4477  4755  0
4222  4221  4757  0
4222  4757  4755  0
4216  4217  4489  0
4218  4758  4217  0
3952  4475  4759  0
3952  4759  4211  0
4482  4753  3718  0
4760  4220  4483  0
4220  4761  4221  0
4757  4221  4761  0
4220  4760  4761  0
4477  4756  4224  0
4762  4224  4756  0
4213  4484  4763  0
4213  4763  4764  0
4213  4764  4474  0
4485  4478  4765  0
4478  4479  4765  0
4479  4486  4765  0
4486  4487  4766  0
4486  4766  4765  0
4767  4765  4766  0
4487  4488  4768  0
4487  4768  4766  0
4488  4489  4768  0
4769  4768  4489  0
4489  4217  4769  0
4758  4769  4217  0
4481  4490  4770  0
4211  4759  4227  0
4482  3960  4228  0
4762  4491  4224  0
4494  4229  4491  0
4771  4234  4772  0
4234  4235  4772  0
4495  4772  4235  0
4234  4771  4492  0
4773  4492  4771  0
4492  4773  4493  0
4484  4485  4763  0
4774  4763  4485  0
4485  4765  4774  0
4775  4774  4765  0
4767  4775  4765  0
4238  4227  4759  0
4228  4776  4482  0
4493  4777  4496  0
4238  4778  4230  0
4230  4778  4231  0
4231  4779  4228  0
4228  4779  4776  0
4496  4777  4501  0
4780  4501  4777  0
4502  4781  4503  0
4782  4497  4237  0
4237  4510  4782  0
4783  4500  4249  0
4512  4783  4249  0
4501  4780  4507  0
4513  4507  4780  0
4780  4784  4513  0
4784  4780  4785  0
4512  4255  4786  0
4513  4784  4520  0
4508  4787  4509  0
4509  4788  4514  0
4509  4787  4788  0
4519  4247  4533  0
4247  4511  4533  0
4260  4268  4789  0
4520  4784  4530  0
4784  4785  4790  0
4784  4790  4530  0
4521  4522  4791  0
4788  4792  4514  0
4514  4793  4523  0
4514  4792  4793  0
4524  4523  4794  0
4524  4794  4525  0
4525  4794  4795  0
4525  4795  4526  0
4526  4532  4517  0
4796  4530  4790  0
4522  4531  4797  0
4522  4797  4791  0
4793  4798  4523  0
4794  4523  4798  0
4795  4799  4526  0
4526  4799  4800  0
4526  4800  4532  0
4532  4800  4801  0
4532  4801  4527  0
4527  4801  4802  0
4802  4267  4527  0
4543  4534  4020  0
4543  4803  4534  0
4804  4797  4531  0
4802  4801  4267  0
4542  4267  4801  0
4805  4278  4542  0
4278  4805  4279  0
4806  4279  4805  0
4279  4806  4259  0
4282  4533  4807  0
4807  4543  4282  0
4535  4536  4554  0
4808  4554  4536  0
4809  4808  4536  0
4536  4537  4809  0
4810  4809  4537  0
4537  4538  4810  0
4538  4530  4796  0
4811  4538  4796  0
4531  4812  4804  0
4531  4539  4812  0
4813  4544  4540  0
4814  4813  4540  0
4540  4541  4814  0
4546  4814  4541  0
4810  4538  4811  0
4815  4804  4812  0
4812  4539  4815  0
4816  4815  4539  0
4539  4544  4816  0
4813  4816  4544  0
4813  4814  4817  0
4818  4817  4814  0
4814  4546  4818  0
4819  4818  4546  0
4546  4545  4819  0
4535  4554  4284  0
4815  4816  4820  0
4821  4820  4816  0
4813  4817  4816  0
4822  4816  4817  0
4817  4818  4822  0
4823  4822  4818  0
4818  4819  4823  0
4548  4819  4545  0
4824  4825  4556  0
4556  4825  4826  0
4550  4549  4559  0
4827  4551  4552  0
4552  4553  4827  0
4555  4563  4292  0
4555  4828  4563  0
4563  4829  4293  0
4816  4830  4821  0
4816  4822  4830  0
4831  4830  4822  0
4822  4823  4831  0
4832  4831  4823  0
4823  4819  4832  0
4819  4548  4832  0
4833  4832  4548  0
4548  4547  4833  0
4564  4833  4547  0
4285  4031  4834  0
4557  4834  4031  0
4556  4558  4824  0
4824  4558  4835  0
4553  4561  4836  0
4553  4836  4827  0
4561  4562  4837  0
4561  4837  4836  0
4837  4562  4838  0
4293  4829  4839  0
4293  4839  4300  0
4830  4831  4840  0
4830  4840  4841  0
4831  4832  4842  0
4831  4842  4840  0
4833  4564  4843  0
4285  4844  4296  0
4558  4845  4835  0
4562  4565  4838  0
4565  4300  4839  0
4841  4840  4846  0
4840  4842  4847  0
4840  4847  4848  0
4840  4848  4846  0
4842  4832  4849  0
4842  4849  4847  0
4832  4833  4850  0
4832  4850  4849  0
4833  4843  4850  0
4843  4564  4566  0
4296  4844  4568  0
4845  4851  4835  0
4848  4847  4852  0
4847  4849  4853  0
4847  4853  4854  0
4847  4854  4852  0
4849  4850  4855  0
4849  4855  4853  0
4850  4843  4856  0
4850  4856  4855  0
4843  4566  4569  0
4843  4569  4856  0
4568  4857  4567  0
4297  4858  4558  0
4859  4558  4860  0
4558  4859  4845  0
4304  4572  4571  0
4049  4576  4572  0
4038  4578  4045  0
4038  4032  4578  0
4861  4854  4853  0
4853  4855  4861  0
4862  4861  4855  0
4855  4856  4862  0
4863  4856  4569  0
4864  4862  4856  0
4569  4567  4863  0
4857  4863  4567  0
4858  4297  4570  0
4858  4570  4573  0
4571  4572  4865  0
4856  4863  4864  0
4866  4864  4863  0
4863  4857  4866  0
4573  4867  4858  0
4868  4858  4867  0
4574  4303  4869  0
4575  4869  4303  0
4575  4306  4870  0
4306  4571  4870  0
4871  4870  4571  0
4571  4865  4871  0
4576  4581  4872  0
4873  4872  4581  0
4874  4875  4876  0
4877  4876  4875  0
4573  4579  4867  0
4867  4579  4868  0
4878  4868  4579  0
4584  4580  4574  0
4574  4869  4584  0
4879  4584  4869  0
4869  4575  4879  0
4880  4879  4575  0
4575  4870  4880  0
