#!ascii file
 16.611223  -33.240696   36.992668  0
 58.001484  -34.847000   40.683723  0
 17.359238  -32.869801   35.889015  0
 58.622620  -34.915058   39.544872  0
 55.741364  -33.952084   42.055538  0
 40.661716  -34.021355   35.356689  0
 58.871864  -34.020206   38.053822  0
 52.487465  -33.368877   38.516094  0
 51.594143  -32.994381   37.766205  0
 50.329136  -32.543022   37.258739  0
  7.322142  -31.504166   39.326561  0
  4.707220  -31.910608   38.472775  0
 59.015621  -33.988625   36.021564  0
 51.915955  -32.439827   37.482761  0
 51.118172  -32.102650   36.343632  0
 48.367889  -32.358017   36.800056  0
 46.640327  -32.472839   36.078190  0
  9.494063  -31.320974   38.897324  0
 11.534449  -31.326809   38.357193  0
  4.398537  -31.104870   36.709393  0
 59.281593  -35.223839   34.679382  0
 58.529331  -35.888107   34.231033  0
 59.552326  -33.899853   34.129486  0
 57.259666  -36.150486   34.110909  0
 13.240677  -31.305447   37.656460  0
  3.956668  -34.541576   33.375034  0
  3.081172  -33.703918   34.201138  0
  3.477268  -32.240021   35.028599  0
 59.505287  -35.443943   32.832794  0
 60.110893  -34.583992   33.203205  0
 58.185581  -35.833263   32.643353  0
 56.473610  -35.144444   32.698818  0
 55.215408  -34.769321   33.051754  0
 51.421810  -34.907452   32.608181  0
 38.520645  -34.496021   33.435684  0
  4.659319  -34.578342   32.575577  0
  3.749162  -34.054871   32.567039  0
  3.592520  -33.285671   33.353905  0
  3.263116  -32.834190   34.073273  0
 60.576000  -34.965534   31.337379  0
 59.402184  -35.934258   31.089577  0
 60.336704  -33.799801   32.023750  0
 61.598476  -33.981865   30.128328  0
 56.978443  -35.776287   31.428576  0
 54.912964  -34.202084   31.929525  0
 53.684563  -33.798908   31.852945  0
 51.784775  -33.956635   31.540533  0
 49.578514  -34.093765   30.594603  0
 15.930568  -31.283615   35.959854  0
  5.061874  -33.714355   30.998489  0
 60.674488  -35.291496   30.163107  0
 62.013157  -33.842743   28.743828  0
 61.991341  -33.188110   29.311668  0
 57.949898  -36.417305   30.282595  0
 46.516830  -34.167999   29.090862  0
 17.139099  -31.886803   35.079540  0
 60.731606  -34.653683   28.844372  0
 59.215187  -35.882442   29.740101  0
 59.501175  -34.808319   28.405790  0
 61.351215  -33.156445   27.363699  0
 58.457764  -36.203114   28.869810  0
 56.759277  -36.392899   30.428858  0
 56.793884  -36.885422   29.573721  0
 55.316910  -35.674725   30.586288  0
 55.578182  -36.733261   29.827072  0
 46.712219  -33.986351   27.928699  0
  5.360454  -33.825638   30.029345  0
 60.119110  -33.415649   27.500856  0
 58.879803  -35.221977   27.764534  0
 59.069054  -33.787193   27.283676  0
 54.493568  -35.999485   29.984076  0
 53.578003  -36.150234   29.210304  0
 58.625835  -34.600655   26.845829  0
 58.124104  -34.420055   26.128206  0
 52.017956  -35.876190   28.230843  0
  4.491759  -32.907967   26.993347  0
  4.664080  -32.741089   25.775484  0
 50.491520  -35.365269   27.515884  0
 46.696850  -34.568123   26.548546  0
  9.651011  -32.015553   24.466860  0
 10.159411  -31.448278   24.834995  0
  5.151941  -32.060066   25.525034  0
  7.539440  -32.723076   24.832510  0
 57.332874  -33.119316   25.220062  0
 49.092754  -35.131611   26.732325  0
  9.056606  -32.356304   24.960899  0
 10.047603  -32.718273   24.136711  0
 57.920898  -33.906887   23.576387  0
 58.321625  -34.834679   23.081890  0
  8.971040  -32.846432   24.107388  0
  7.744994  -32.889042   24.272135  0
  6.563767  -32.810478   24.204428  0
  5.258068  -32.044914   22.682442  0
 58.330593  -33.478924   22.821543  0
 57.565567  -32.506634   22.672941  0
 60.239601  -34.187656   21.852463  0
 59.092064  -32.762085   21.673986  0
 58.084587  -32.357258   22.107044  0
 61.995342  -33.945229   20.360256  0
 62.199425  -33.199284   19.780647  0
 60.282738  -33.031528   21.211393  0
 44.120613  -30.680151   17.848358  0
 43.259228  -30.658485   16.917892  0
 42.416912  -31.011637   17.677170  0
 41.427486  -31.308477   16.970398  0
 40.678558  -31.300882   16.482334  0
 44.641964  -30.178642   16.040209  0
 43.516125  -30.530972   15.591520  0
 62.652161  -32.890007   18.247475  0
 61.586712  -33.644814   17.816481  0
 45.705421  -30.287058   17.037693  0
 59.572239  -33.645630   16.412519  0
 62.442616  -32.950245   16.924030  0
 61.709389  -33.335472   16.086071  0
 46.200275  -30.520529   16.043703  0
 43.298271  -31.300997   14.697850  0
 58.856541  -33.976559   15.437631  0
 44.323059  -30.604254   14.934463  0
 45.228817  -30.615049   14.310754  0
 39.875145  -31.174873   14.686284  0
 63.392105  -29.881136   13.653311  0
 45.416508  -30.611744   12.982855  0
 46.737816  -29.857380   13.509037  0
 41.850491  -31.083355   13.255407  0
 39.245495  -30.442665   14.856655  0
  3.538550  -32.353527   12.311512  0
 62.583126  -29.969198   11.002631  0
 60.523899  -30.268269   10.525266  0
 61.823563  -28.446167   11.208091  0
 59.976707  -28.653656   10.084476  0
 58.628052  -29.888592    9.725137  0
 58.732990  -28.368923    9.532383  0
 56.490791  -29.959894    9.391146  0
 57.039719  -28.682756    9.297208  0
 55.723202  -30.775269    9.661173  0
 54.861412  -29.349566    9.417851  0
 45.628471  -31.048672   11.871089  0
 53.725594  -30.610456    9.442875  0
 52.964260  -29.226948    9.778811  0
 50.731239  -30.039400   10.326617  0
 44.603733  -31.205057   11.415151  0
 51.379101  -30.476015    9.192533  0
 43.378914  -30.704546   12.023543  0
  5.006448  -33.018955   10.353784  0
  6.426657  -35.087147    8.521818  0
 54.463814  -31.395350    8.630685  0
 48.495026  -30.447758   10.532076  0
 15.488986  -33.260162    6.818005  0
 16.295586  -32.808105    6.693897  0
 14.741995  -33.004353    6.874076  0
 12.539314  -33.245087    7.297854  0
 13.421856  -32.801899    6.807085  0
 11.499560  -32.711445    7.336303  0
 57.934540  -31.713537    6.843751  0
 49.074944  -34.636475    4.662848  0
 43.786926  -34.490444    5.286242  0
 62.502438  -32.912251    3.994119  0
 61.489994  -32.383213    3.913421  0
 47.799686  -34.250858    4.224690  0
 46.553173  -34.044579    3.668058  0
 45.041866  -34.132145    3.893420  0
 23.575123  -33.053703    4.462201  0
 56.187691  -34.036915    2.821587  0
 54.508034  -32.623524    2.880545  0
 53.299416  -32.717533    3.768602  0
 52.211155  -32.478081    3.897694  0
 63.523537  -32.644897    1.864704  0
 62.776192  -33.017361    0.392355  0
 58.488697  -34.289608    0.849912  0
 57.092300  -34.113022    1.625294  0
 24.751122  -32.613052    2.763047  0
 61.261658  -33.588676    0.328054  0
 59.848446  -33.896107    0.311541  0
 26.568281  -32.343830    1.044165  0
 12.571846  -33.836773    2.335763  0
 62.539433  -32.491074   -0.017842  0
 60.707516  -33.047138   -0.067883  0
 13.553137  -33.401463    1.493540  0
 11.106211  -33.521801   -0.786769  0
 28.275520  -31.921583   -0.953592  0
 18.024351  -33.179848    0.459800  0
 22.601728  -32.708775    0.564403  0
 19.702835  -32.817833   -0.501096  0
 18.564198  -32.819607   -0.296412  0
 16.125048  -33.128994    0.950316  0
 11.414329  -33.318562   -1.448798  0
 11.449344  -33.221832   -2.686368  0
 29.468140  -31.382462   -1.983921  0
 25.038633  -32.382530   -0.467410  0
 23.715147  -32.971458    0.333271  0
 10.773026  -34.618526   -4.286404  0
 11.109067  -33.535065   -3.678349  0
 23.986830  -32.846577   -0.410309  0
 11.987742  -36.815952   -6.318660  0
 10.878697  -35.614586   -5.215682  0
 10.736608  -35.049496   -5.701119  0
 28.063969  -32.281498   -3.078661  0
 28.961685  -33.048641   -3.510964  0
 28.850580  -31.637083   -4.134464  0
 29.861637  -32.769558   -3.643500  0
 27.440365  -31.867249   -3.145153  0
 26.665365  -31.902153   -1.780652  0
 12.666737  -37.132648   -7.639287  0
 11.774370  -36.571457   -7.164640  0
 46.611835  -31.549055   -2.837911  0
 44.528049  -31.460264   -2.846473  0
 12.600513  -35.414345   -9.011402  0
 61.808395  -31.998190   -5.631659  0
 59.309643  -32.410316   -5.351811  0
 56.808548  -32.151489   -5.520176  0
 48.792217  -30.858486   -3.437389  0
 22.496571  -33.292976   -8.382741  0
 20.701582  -33.359383   -9.326365  0
 17.416521  -33.410110   -9.102950  0
 15.506374  -33.965988   -9.027207  0
 14.053065  -34.925034   -9.496367  0
 60.823647  -31.182661   -5.724082  0
 58.480682  -31.479708   -5.893449  0
 27.071436  -34.058655   -9.159250  0
 29.230646  -32.910145   -9.894072  0
 26.066814  -33.718559   -9.189222  0
 60.649471  -30.598845   -9.589615  0
 58.938126  -32.876377  -10.224888  0
 56.426029  -32.946102   -9.880822  0
 54.002491  -33.013161   -9.711904  0
 53.091183  -32.832188   -9.886243  0
 28.177794  -33.003849   -9.913762  0
 54.543869  -32.918610  -10.878461  0
 52.805237  -31.235434  -10.582947  0
 55.626846  -32.930553  -11.605907  0
 37.968243  -29.859610  -15.346953  0
 37.529343  -29.786076  -16.523272  0
 28.263399  -31.863556  -10.456693  0
 38.065083  -31.025904  -15.342138  0
 23.325615  -31.427814  -10.445212  0
 22.431665  -30.798500  -10.985460  0
 20.744810  -31.937620  -11.241663  0
 56.801369  -33.200764  -12.272630  0
 37.087036  -29.615948  -17.419180  0
 32.754555  -27.630335  -17.063288  0
 32.403725  -27.332954  -18.412209  0
 30.743542  -28.718950  -19.580956  0
 31.014011  -29.470863  -18.212572  0
 32.003284  -28.896887  -17.237476  0
 19.140848  -32.742252  -14.745872  0
 58.673435  -33.024498  -12.873928  0
 19.602081  -31.573727  -16.413507  0
 50.891659  -31.716158  -19.488609  0
 37.875538  -33.231552  -17.481367  0
 35.626236  -28.206369  -19.623976  0
 31.077824  -28.264067  -20.655539  0
 32.541901  -27.351896  -19.369579  0
 25.930729  -31.904169  -20.748753  0
 23.849335  -32.121735  -19.762985  0
 21.188538  -32.312874  -17.801054  0
 60.761467  -32.141853  -15.758130  0
 51.469994  -32.337288  -21.282753  0
 51.076401  -30.645061  -20.775751  0
 50.565899  -32.250778  -18.302687  0
 39.123444  -33.986557  -19.524158  0
 35.995075  -28.709324  -20.508009  0
 32.267185  -27.971741  -21.077015  0
 58.994972  -31.922680  -19.100241  0
 51.284512  -31.121523  -22.754774  0
 51.546654  -31.709257  -23.299824  0
 39.811256  -34.626659  -21.054039  0
 32.405411  -29.109037  -21.912287  0
 51.362041  -31.418354  -21.443657  0
 51.049767  -31.346310  -22.260929  0
 42.737965  -34.628201  -22.841799  0
 41.252613  -34.362026  -22.251726  0
 50.548664  -30.951309  -23.079779  0
 45.862148  -33.647552  -23.439867  0
 44.096096  -33.970406  -24.064783  0
 47.633461  -32.182682  -23.561739  0
 54.494587  -31.012140  -23.586653  0
 10.647312  -30.624641   62.652641  0
 22.471094  -31.894365   64.126534  0
 21.736006  -32.717834   63.876598  0
 19.733379  -31.461004   63.772366  0
 17.787312  -32.186619   63.081219  0
 25.149364  -31.971769   62.248787  0
 24.560507  -31.573669   62.901798  0
 31.175758  -32.758411   59.773117  0
 28.599432  -31.170641   61.702816  0
 27.182417  -32.200169   61.674072  0
 27.647341  -30.828983   61.379742  0
 25.977161  -31.737953   61.412376  0
 25.182589  -30.697071   61.181599  0
 26.723431  -30.501118   60.620255  0
 25.789394  -30.595295   59.807922  0
  9.275106  -30.376328   58.287228  0
  9.241070  -31.327677   56.643024  0
 31.306911  -33.258770   57.467339  0
 30.611610  -33.037102   54.820492  0
 31.853954  -32.659069   55.212379  0
 36.935349  -32.653404   54.983860  0
 36.200600  -31.846291   56.822960  0
 34.046444  -31.846519   57.944134  0
 33.785591  -32.561520   56.652504  0
 33.543335  -33.317982   54.167599  0
 29.551067  -32.366936   52.188496  0
 37.453045  -32.754955   53.611362  0
 38.206463  -31.535233   53.126186  0
  9.000112  -31.564003   52.585930  0
 32.243305  -33.374741   51.960606  0
 45.370472  -30.118074   53.082737  0
 30.931471  -33.575977   49.538582  0
 46.168106  -30.405249   50.968002  0
 40.350903  -30.893538   50.539375  0
 28.298767  -32.191380   49.500355  0
  9.141118  -31.370049   50.479969  0
 36.962166  -32.971527   47.147377  0
 29.934847  -33.894417   46.827297  0
 27.060442  -32.618279   46.524830  0
  9.086034  -30.638348   48.908279  0
  8.749137  -30.720547   47.952435  0
 47.388874  -31.273130   48.606808  0
  7.732217  -30.517584   46.344059  0
 52.933292  -31.492083   48.370792  0
 50.936275  -32.213219   48.913967  0
 48.739475  -31.506163   48.887062  0
 39.551342  -30.353519   48.680866  0
 36.322906  -33.342770   45.811012  0
 30.208502  -34.560421   45.567421  0
 54.356281  -30.452282   44.987358  0
 38.736847  -31.208904   46.498482  0
  6.887847  -31.069122   45.373520  0
 35.402477  -32.727467   43.319626  0
  6.749407  -30.746792   44.077805  0
 37.231152  -31.428106   44.193844  0
  6.845662  -30.855810   41.928661  0
 44.432484  -32.895313   40.382504  0
 27.316954  -32.358757   44.209145  0
 11.627426  -31.502342   39.151756  0
  9.420499  -31.024536   39.134144  0
 35.248398  -30.958298   42.732738  0
 35.190392  -31.503199   42.808086  0
 57.562149  -34.146988   41.364410  0
 17.056976  -30.855566   36.610245  0
 42.623730  -32.879871   36.937630  0
 44.160671  -32.093941   38.100620  0
 58.468529  -33.123138   39.658981  0
 56.690121  -32.743668   41.640003  0
 55.012749  -32.189846   41.953720  0
 53.300236  -32.804672   41.249874  0
 59.038223  -31.109016   37.924614  0
 52.542358  -32.944008   39.329185  0
 17.615829  -31.864510   34.933968  0
  5.744737  -31.217878   39.072430  0
 59.086311  -32.373425   36.968784  0
 51.483013  -31.656710   36.015034  0
 49.238232  -31.375792   35.276127  0
 40.370697  -33.639091   34.315784  0
  9.881904  -30.281868   38.260593  0
  8.287672  -30.529787   38.649754  0
  6.547844  -30.193752   38.569073  0
  5.043960  -30.369600   38.196701  0
 58.972694  -32.370464   35.092354  0
 14.838114  -31.148533   36.855175  0
 13.291935  -30.046095   37.207600  0
 11.929786  -30.384378   37.865398  0
  4.197095  -30.795080   34.635635  0
 59.187820  -32.137257   33.108238  0
 44.978981  -31.934744   34.327896  0
 46.477844  -31.060532   34.414944  0
  3.372561  -32.103592   33.655907  0
 60.650028  -32.071354   30.638659  0
 55.437698  -34.809956   31.484543  0
 43.628689  -32.245483   34.451355  0
  3.855576  -33.395599   31.908377  0
  3.685520  -31.332090   32.137180  0
 53.746590  -33.786331   31.047453  0
 51.519581  -33.758278   30.671183  0
 48.536232  -33.800308   29.414701  0
 50.104019  -33.625168   29.832466  0
  3.699716  -32.671898   30.815626  0
 62.564522  -31.324850   27.850662  0
 61.755238  -31.551239   29.196861  0
 62.528679  -31.581215   27.124395  0
 62.180962  -32.724236   27.375273  0
 53.092598  -34.551701   30.226860  0
  4.416736  -33.171238   29.554295  0
  4.323544  -32.585983   28.205770  0
 51.162437  -34.447113   29.226088  0
 48.868679  -33.963627   28.470339  0
 60.110352  -32.186802   26.017143  0
 58.453560  -32.948792   26.125538  0
 57.700527  -32.283489   25.137400  0
  8.955147  -30.817150   24.866697  0
 10.184511  -31.112677   24.837423  0
  8.121834  -31.554033   24.868761  0
  6.872291  -31.578423   25.289696  0
 56.871559  -31.340992   23.717779  0
 56.638718  -31.025105   22.519424  0
  9.120699  -31.845819   24.331459  0
  8.852879  -32.379406   24.663704  0
 56.605385  -30.489313   21.776463  0
  8.272428  -31.952583   24.513384  0
  7.313843  -32.213345   24.868700  0
  6.488772  -32.100437   24.498890  0
  4.062167  -31.392080   22.143332  0
  3.250859  -31.082893   21.322359  0
 56.972652  -30.807028   21.419395  0
 58.714520  -30.381386   20.478912  0
 57.637051  -30.034451   20.602390  0
 50.998997  -30.098143   17.348455  0
 50.211655  -29.708921   18.990259  0
 52.334438  -29.135307   17.482321  0
 51.034962  -28.382378   18.679012  0
 49.099697  -30.306391   18.268564  0
 48.506950  -29.931936   19.449854  0
 46.066807  -30.290087   18.215717  0
 47.465218  -29.514774   20.198101  0
 44.862110  -29.803686   19.863314  0
 43.276375  -30.350752   18.764851  0
 60.207115  -31.227421   20.235317  0
 47.346642  -30.332331   17.287851  0
 62.456547  -31.779205   18.749645  0
 61.186123  -30.353104   19.269073  0
 54.167747  -28.628981   16.271561  0
 52.741589  -29.621340   16.333750  0
 54.594742  -27.266747   16.947008  0
 48.337074  -30.415014   16.544361  0
 63.072685  -31.656820   16.555552  0
 54.105446  -28.952446   15.599251  0
 50.048050  -29.941118   16.230803  0
 63.218784  -29.800846   15.851728  0
 54.492653  -28.749168   14.692803  0
 56.008545  -28.354603   14.997211  0
 52.753395  -29.063311   15.268472  0
 49.865757  -28.794910   14.602679  0
 47.654526  -29.852209   14.771790  0
 51.515301  -28.335833   14.301213  0
 48.923061  -28.845413   13.711090  0
 36.999733  -29.764521   15.018786  0
 37.189526  -29.425056   15.572733  0
 48.074711  -29.194242   12.820453  0
 38.004707  -30.436655   14.857450  0
 63.211903  -28.491829   13.751865  0
 49.471794  -28.964272   12.039756  0
 47.347752  -30.215002   11.922285  0
 37.940964  -29.734079   14.051275  0
 62.797462  -28.000040   12.274907  0
 60.687469  -27.713884   10.744295  0
 58.731869  -27.663240   10.021073  0
 55.488491  -28.003498    9.629955  0
 51.402351  -28.819677   10.676574  0
 52.035408  -27.818733   11.415268  0
 54.132477  -27.854486   10.119506  0
 40.420139  -30.320847   14.448728  0
 41.123611  -29.665518   13.996106  0
  4.360303  -31.518763   11.547200  0
  6.266032  -31.765667   10.605957  0
 48.952881  -30.173231    9.675625  0
 46.749329  -30.344776    9.937885  0
  9.672852  -32.195076    8.246015  0
 10.038193  -31.677473    7.950779  0
 18.563328  -32.669930    6.961701  0
 21.089426  -32.710415    6.091630  0
 18.784115  -32.321472    6.268805  0
 10.701203  -31.848856    7.369014  0
 56.217838  -30.986925    7.413445  0
 54.920784  -30.376888    7.566075  0
 52.423515  -30.338230    8.032062  0
 11.721122  -31.324125    5.436711  0
 59.689274  -31.438282    4.726134  0
 57.910805  -30.933207    6.477362  0
 50.624577  -32.931175    3.711070  0
 48.641422  -33.626106    3.693897  0
 43.571018  -33.915062    3.931190  0
 22.000515  -32.463333    4.156434  0
 52.350739  -32.139271    3.226947  0
 49.258255  -33.048946    2.975365  0
 47.980186  -33.652637    2.951686  0
 46.869236  -34.034939    1.870789  0
 44.568626  -34.200020    2.922013  0
 43.213387  -34.179714    3.037705  0
 18.683886  -31.869709    4.093526  0
 63.864388  -31.146063    1.745730  0
 62.787102  -31.493805    2.600870  0
 63.758556  -31.426140    0.847709  0
 60.857269  -31.190290    3.555532  0
 55.482193  -33.206474    1.595102  0
 23.048979  -32.073288    2.597212  0
 63.089798  -31.536856   -0.012232  0
 43.927299  -34.132339    0.505419  0
 20.387793  -31.759115    2.277865  0
 58.986862  -33.725601   -0.730042  0
 44.044563  -33.287952   -0.728084  0
 25.109598  -31.426121    1.059830  0
 20.414061  -31.145916    0.970009  0
 17.526304  -31.001614    1.771605  0
 61.235260  -31.628841   -0.504640  0
 11.763926  -32.567726   -1.400320  0
 11.521854  -31.804911   -2.494370  0
 18.681038  -32.231876   -1.045602  0
 15.963577  -30.830345   -1.457942  0
 14.892493  -31.989550   -0.226379  0
 11.441092  -31.912779   -3.918905  0
 20.924942  -32.175728   -1.588220  0
 19.359360  -31.481846   -1.936304  0
 42.818504  -30.107975   -1.718026  0
 32.433239  -30.349312   -4.432541  0
 25.410666  -31.769726   -1.499175  0
 20.775183  -31.417011   -2.454759  0
 10.656956  -33.395416   -4.575937  0
 10.664356  -32.665649   -5.436484  0
 29.449898  -30.881102   -5.362768  0
 11.417816  -34.546509   -7.402576  0
 10.791546  -31.948839   -6.469533  0
 44.299282  -30.087185   -3.300180  0
 31.470036  -31.397882   -5.167415  0
 30.818573  -31.998154   -4.410283  0
 32.508263  -30.993586   -5.521341  0
 28.266090  -31.212559   -4.630814  0
 27.187902  -30.975256   -3.625168  0
 26.381655  -31.292763   -2.480322  0
 11.798714  -34.032162   -8.674855  0
 11.304540  -31.907293   -7.766327  0
 11.931898  -32.842808   -9.158653  0
 55.462635  -31.361006   -5.805400  0
 54.127937  -30.786976   -5.699802  0
 52.650093  -30.623178   -5.317682  0
 49.705139  -30.472561   -4.094619  0
 50.556919  -29.946035   -4.618196  0
 47.639992  -30.088467   -4.083574  0
 45.313297  -30.732540   -3.429204  0
 30.518776  -29.786280   -6.165297  0
 27.850235  -30.989748   -4.173532  0
 19.258694  -33.499340  -10.055762  0
 16.785826  -33.567898   -9.869080  0
 15.030970  -33.667088   -9.838561  0
 14.353970  -33.975807  -10.524879  0
 13.485888  -34.482792  -10.334034  0
 12.866168  -33.448151  -10.395904  0
 61.818447  -30.508591   -7.190863  0
 25.006584  -33.421486   -9.299978  0
 23.701445  -32.648891   -9.043724  0
 26.306971  -32.889355   -9.912282  0
 24.825874  -31.991087   -9.745944  0
 54.199390  -31.046471   -9.875604  0
 52.566025  -30.436100  -10.105570  0
 52.175873  -30.483759  -10.406123  0
 60.118011  -30.071033  -10.361880  0
 58.964813  -30.262239  -10.488126  0
 55.342667  -31.406229  -11.043640  0
 53.672737  -30.946121  -10.826424  0
 26.894728  -30.223898  -10.892794  0
 56.761028  -31.648670  -11.749457  0
 32.710423  -27.947256  -16.523907  0
 32.190258  -28.344053  -16.574684  0
 24.878971  -30.725636  -11.080324  0
 21.331793  -30.201572  -12.023133  0
 19.850002  -31.353880  -13.208506  0
 58.270737  -30.941610  -12.702052  0
 34.242599  -27.452114  -18.341679  0
 19.105394  -31.430599  -15.061818  0
 60.742268  -31.881828  -14.461383  0
 60.261974  -30.763412  -14.099133  0
 59.610176  -31.303677  -13.285947  0
 37.535721  -31.873556  -17.018904  0
 36.091240  -28.207424  -18.227419  0
 22.418772  -30.863934  -19.351240  0
 60.257687  -31.526396  -17.241274  0
 51.396523  -31.252285  -20.787357  0
 51.435661  -31.130594  -21.827625  0
 50.843990  -30.491793  -19.893061  0
 37.831093  -32.225513  -18.372723  0
 38.225521  -32.362831  -20.316048  0
 33.604317  -27.506445  -19.981068  0
 34.199718  -28.279743  -20.991718  0
 39.545101  -34.103565  -21.585577  0
 58.290222  -31.420860  -20.718632  0
 34.216255  -30.250607  -21.682817  0
 56.564182  -30.889877  -22.309080  0
 53.041645  -30.469709  -23.594667  0
 50.896313  -29.872295  -22.201656  0
 45.750652  -32.594112  -24.435448  0
 42.776779  -33.452621  -24.571003  0
 40.716644  -33.608124  -22.581352  0
 39.369740  -33.363392  -21.946808  0
 40.776989  -32.605843  -23.729336  0
 49.005722  -30.536917  -23.291065  0
 47.675999  -30.404696  -23.677057  0
 44.297607  -32.996330  -25.159311  0
 45.074890  -31.784494  -25.351387  0
 46.557014  -29.975159  -24.452145  0
 43.124718  -32.520580  -25.559999  0
 15.912914  -30.994890   64.942383  0
 17.562805  -30.805471   64.272133  0
 12.828133  -29.216940   64.113014  0
 23.376204  -30.509109   63.998222  0
 24.621201  -30.034472   62.638245  0
 20.358931  -30.239594   64.348274  0
 18.839045  -32.148376   62.945263  0
 25.000057  -29.519470   60.992020  0
  9.604684  -30.120153   60.630859  0
 29.827785  -31.266588   61.557861  0
 24.741806  -29.694008   59.297451  0
 31.313189  -31.114813   60.851898  0
 26.104689  -29.752882   59.163982  0
 24.561136  -29.800449   57.398731  0
 32.748077  -32.335247   58.269348  0
 32.620853  -31.252415   59.679604  0
 25.160574  -30.099142   57.751980  0
 23.732033  -28.988682   56.568733  0
  8.734316  -30.331326   56.577965  0
 32.845150  -32.658607   56.169128  0
 37.561497  -30.701769   56.705750  0
 36.455730  -30.101719   58.018913  0
 38.279747  -30.437544   55.679337  0
 31.145958  -32.318008   53.646343  0
  8.417732  -30.777039   54.171791  0
 32.121410  -32.639370   53.607967  0
 43.691650  -29.784891   54.647781  0
 41.975872  -29.216246   54.490574  0
 37.933544  -31.351164   50.304852  0
 30.716921  -32.429996   50.712921  0
 40.095825  -29.705309   51.569317  0
 37.161617  -31.473347   47.856373  0
 28.768000  -32.578354   47.014000  0
 28.210548  -31.997046   47.964684  0
 46.815334  -30.118685   49.833771  0
 36.383678  -31.726492   45.677921  0
  9.187333  -29.923592   47.187248  0
 54.894356  -30.016811   46.524883  0
 51.825741  -30.978748   48.959999  0
 49.910599  -30.733656   49.209373  0
 35.606331  -31.211414   43.847240  0
 27.974798  -32.581196   44.441605  0
  8.049335  -29.405336   45.275345  0
 52.640411  -31.074907   44.108509  0
 51.254200  -30.746773   43.218418  0
 36.558804  -30.116714   44.893127  0
 27.629494  -32.229881   46.031830  0
 49.850204  -30.912876   41.538780  0
 48.433426  -31.496115   40.336357  0
  6.758277  -30.126877   43.202507  0
 46.427105  -31.779930   39.736961  0
 35.929325  -30.953987   43.586552  0
 35.355381  -30.111450   43.752182  0
  7.729178  -30.550961   40.297920  0
 34.896519  -29.762045   43.083099  0
 12.972346  -30.761059   39.022652  0
 14.042838  -31.237118   39.100449  0
 34.546719  -30.190662   42.629681  0
 15.615195  -30.743061   38.208939  0
 46.364166  -30.885876   38.146305  0
 54.787399  -30.560669   42.372795  0
 53.820072  -31.307919   42.151066  0
 55.549480  -30.236383   42.018147  0
 56.367302  -30.790348   40.877533  0
 52.499805  -31.494362   41.244072  0
 57.531185  -32.288349   40.576466  0
 52.033348  -32.150696   39.841087  0
 44.572948  -31.205038   36.624561  0
 58.241646  -31.709465   39.221661  0
 57.232563  -31.302876   39.576576  0
 51.659912  -31.717411   37.317909  0
 42.104069  -32.392067   35.214005  0
 59.360916  -30.908693   36.124146  0
 51.368946  -31.006310   35.986366  0
  8.014503  -29.185232   38.211678  0
  5.304936  -29.415655   37.966599  0
  4.622600  -29.722912   37.083473  0
 59.071838  -31.140202   33.548965  0
 50.170792  -30.629374   35.303925  0
 10.412442  -29.247746   37.887524  0
 48.838440  -30.181740   35.042809  0
 43.112946  -31.915783   34.700569  0
 15.031054  -28.857277   36.214111  0
  4.435304  -29.476250   34.320057  0
 59.970718  -30.531628   31.956209  0
 60.932693  -30.450077   30.678991  0
 44.936054  -31.029585   34.146435  0
 17.034382  -29.617798   35.264656  0
 17.533363  -30.609852   35.097664  0
 61.444145  -30.301291   29.840841  0
 61.951988  -29.973343   28.874735  0
  3.938148  -33.063911   30.176632  0
  3.507663  -31.014870   29.638887  0
  4.293524  -28.577812   32.559193  0
  3.947052  -32.285553   29.396833  0
 62.486324  -30.677479   27.310839  0
  3.444346  -31.480547   28.433073  0
  3.664213  -30.364035   27.695154  0
 61.520840  -31.640631   26.184137  0
  4.444004  -31.986174   26.794298  0
  4.011712  -31.346764   27.265795  0
  4.302419  -30.866674   26.035307  0
 61.603165  -30.208784   26.149614  0
 59.338875  -31.004778   24.572504  0
 60.511086  -29.828979   24.622520  0
 58.029804  -30.368593   23.731236  0
  9.557931  -29.697514   25.119593  0
 10.255027  -29.732698   24.990379  0
  7.594883  -30.098688   24.783436  0
  7.817913  -30.789091   24.751585  0
  5.074410  -30.535921   25.149986  0
  6.238001  -30.578550   25.158024  0
  8.902285  -30.809647   24.513596  0
  8.694366  -31.526802   24.852728  0
  8.182268  -31.282278   24.647900  0
  7.521904  -31.811272   24.501947  0
  7.225307  -31.358410   24.834173  0
  6.466412  -31.376736   24.255997  0
  6.129076  -31.243818   24.330471  0
  4.685622  -30.730146   22.763668  0
  3.708197  -29.761267   22.705944  0
 56.937553  -28.518044   20.109476  0
 48.695133  -28.861593   20.502626  0
 50.447086  -27.041693   19.643717  0
 46.330292  -28.248568   21.592237  0
 43.686550  -29.369547   19.921232  0
 58.040073  -28.274973   19.756594  0
 56.926632  -27.293211   18.974018  0
 52.206276  -27.264233   18.190166  0
 53.594025  -26.856928   17.667946  0
 41.456684  -31.096905   16.480913  0
  2.759536  -28.733116   21.055220  0
 60.185627  -29.739788   19.858425  0
 59.051159  -28.539286   19.738504  0
 53.797424  -27.534275   17.274939  0
 55.183529  -26.519777   17.702597  0
 39.938534  -30.398819   15.143428  0
 60.412666  -27.641111   18.805563  0
 55.771194  -26.856247   16.527870  0
 56.132740  -26.305702   17.359442  0
 38.246834  -30.113407   15.293989  0
  3.964891  -30.200857   16.143288  0
 62.595108  -29.165209   17.184029  0
 62.088009  -29.711832   18.262341  0
 56.958179  -26.604858   16.066597  0
 57.510853  -26.120779   16.966879  0
 62.762394  -28.180943   15.557631  0
 57.825745  -27.569761   15.006256  0
 58.580383  -26.602964   16.152138  0
 59.494667  -27.229345   14.920269  0
 57.565750  -27.970440   13.807601  0
 59.270908  -27.273991   13.458571  0
 55.811333  -28.158514   13.761196  0
 53.288548  -27.615698   13.085167  0
 50.673767  -28.154215   13.390014  0
 36.508652  -28.063643   15.836683  0
 56.038609  -27.301306   12.169360  0
 51.154026  -27.946688   12.249743  0
  9.315056  -30.642025   12.925392  0
 10.245427  -30.398193   13.676329  0
 10.927823  -30.514814   12.769202  0
  8.487859  -30.086487   14.346415  0
  9.554508  -29.645813   14.551411  0
  8.076310  -30.475279   13.182694  0
  4.076113  -30.865767   13.096648  0
 54.054020  -27.236425   11.885522  0
 37.130554  -29.071123   13.997590  0
 36.566730  -28.201561   14.795635  0
 10.738268  -29.798876   13.583930  0
 61.508396  -27.270498   11.721204  0
 59.552364  -27.079931   11.116147  0
 55.977177  -27.170498   10.759236  0
 39.898384  -29.594505   14.314222  0
  9.430276  -30.216778   11.573611  0
 42.372684  -29.785721   13.330389  0
  8.063147  -31.510763    9.857138  0
 45.461521  -30.081863   10.217801  0
  9.438387  -31.104904    8.478986  0
  8.929695  -30.775415    9.189808  0
 50.080044  -29.724384    8.566932  0
 47.677414  -29.252966    8.771667  0
  9.436869  -29.819023    7.231180  0
 57.376835  -29.895523    6.781725  0
 59.051064  -30.139713    5.570489  0
 60.051308  -30.646557    4.154931  0
 50.447083  -32.655571    2.546252  0
 48.354874  -33.853607    1.801527  0
 43.912067  -34.283394    2.070894  0
 10.492345  -30.426855    5.557369  0
 53.851551  -32.301888    2.146237  0
 52.070522  -32.327797    1.891187  0
 49.433273  -33.423973    1.833179  0
 46.656582  -34.211529    0.333048  0
 47.531605  -34.199467    0.709892  0
 45.435818  -34.225868    0.829223  0
 56.318478  -33.932018   -0.345370  0
 45.523441  -33.717117   -0.493401  0
 47.702572  -33.536533   -0.578193  0
 57.327423  -34.031723   -1.037140  0
 45.328613  -32.749420   -1.625977  0
 46.899395  -32.602859   -1.845987  0
 59.261784  -32.126793   -2.038618  0
 57.747547  -33.270180   -1.907716  0
 45.648914  -31.676365   -2.130139  0
 44.098034  -31.637236   -1.349820  0
 24.157631  -30.375759   -0.328847  0
 18.123047  -30.338953    0.459465  0
 61.339680  -30.811045   -0.810872  0
 26.543648  -30.475843   -1.017795  0
 14.825020  -30.947536   -1.253101  0
 14.019236  -31.478666   -1.003879  0
 11.880116  -30.527462   -2.634953  0
 11.479783  -30.863281   -3.132616  0
 28.187899  -30.097969   -1.963747  0
 16.482885  -30.233194   -2.094547  0
 30.716810  -29.564594   -2.500277  0
 29.332047  -29.562101   -2.311419  0
 22.445780  -31.346056   -2.943452  0
 17.568350  -29.396978   -2.911460  0
 43.155312  -29.562603   -2.583323  0
 22.736317  -30.846285   -3.476465  0
 20.006430  -29.615946   -3.577965  0
 10.820293  -31.706615   -5.812615  0
 26.565281  -30.265303   -4.532525  0
 26.352182  -30.911892   -3.610183  0
 23.370737  -30.456852   -3.974756  0
 33.527359  -30.446941   -6.224128  0
 32.965252  -30.780905   -6.677653  0
 29.166492  -29.682652   -6.089031  0
 28.038361  -29.802740   -5.670516  0
 27.590628  -30.251457   -5.126472  0
 17.749578  -33.334080  -10.424855  0
 15.816842  -33.366291  -10.566781  0
 12.144610  -31.758293   -9.529051  0
 61.290791  -29.868317   -6.293280  0
 60.072151  -29.594240   -6.092453  0
 56.943939  -29.943037   -6.052199  0
 33.730541  -28.805021   -6.654172  0
 33.179501  -29.773108   -6.991778  0
 30.590782  -29.045151   -6.805398  0
 29.768698  -28.937464   -6.173031  0
 22.263384  -32.838169   -9.479476  0
 20.790825  -32.665016  -10.017220  0
 17.997501  -33.290672  -10.788239  0
 14.446173  -33.400543  -11.345493  0
 61.457016  -29.398916   -8.396871  0
 24.020475  -31.360266   -9.955077  0
 23.322786  -31.982725   -9.938062  0
 22.037027  -32.166176   -9.784636  0
 27.763575  -30.722239  -10.593227  0
 26.112875  -31.362093  -10.524119  0
 56.270802  -29.855572  -10.028690  0
 51.588081  -29.588636  -11.167513  0
 51.285873  -29.298107  -10.703870  0
 28.285992  -30.664215  -10.733297  0
 53.014061  -28.992674  -12.100791  0
 36.850269  -27.414480  -15.924776  0
 54.660984  -30.171358  -11.375365  0
 36.364693  -27.749496  -16.935913  0
 33.831669  -26.838282  -16.331745  0
 34.920193  -27.296242  -17.405020  0
 25.443104  -29.228420  -11.460470  0
 24.464849  -29.436693  -11.270269  0
 23.460665  -28.995089  -11.527011  0
 56.594967  -30.001587  -12.164319  0
 20.182693  -29.589314  -13.403253  0
 19.369324  -30.293205  -15.158494  0
 37.930679  -30.571083  -15.992068  0
 30.946659  -29.260077  -17.847269  0
 19.528008  -29.942791  -16.539560  0
 60.620140  -28.756910  -16.453014  0
 29.252348  -30.107452  -20.183350  0
 26.413641  -30.984715  -20.783112  0
 24.569067  -31.030880  -20.500031  0
 20.983873  -30.379213  -18.557840  0
 20.180395  -29.734444  -17.689228  0
 60.445049  -29.914038  -17.421715  0
 50.943752  -29.673735  -21.006128  0
 51.178967  -29.733347  -21.934273  0
 59.082348  -30.461887  -19.481682  0
 53.062157  -27.832815  -23.071205  0
 50.452148  -29.003796  -20.667328  0
 49.829563  -28.437199  -20.502457  0
 50.261093  -28.678303  -21.431677  0
 57.820057  -29.941225  -21.404598  0
 49.595242  -28.090498  -21.981894  0
 38.845280  -32.448429  -21.943424  0
 37.902592  -31.619537  -21.315569  0
 56.417492  -29.668095  -22.429756  0
 55.098095  -29.250023  -23.434572  0
 48.808006  -28.726328  -22.921297  0
 39.344242  -31.467905  -22.657953  0
 34.464630  -31.947216  -22.242786  0
 41.436001  -31.491070  -25.811081  0
 45.516701  -29.690376  -25.361475  0
 44.266594  -31.251410  -26.016232  0
 43.040279  -31.316710  -26.491219  0
 42.230518  -31.135002  -26.513210  0
 44.132763  -29.468185  -26.384480  0
 14.896480  -29.275167   65.206558  0
 23.986422  -29.056152   63.384304  0
 24.688919  -28.559534   61.895058  0
 21.475264  -29.723812   64.483086  0
 18.697876  -30.421425   64.166664  0
 11.686723  -28.776197   63.080948  0
 24.768974  -28.086969   59.793613  0
 10.284452  -28.898605   61.185329  0
 23.953669  -28.029753   57.490894  0
 32.311596  -29.672344   60.520386  0
 30.592575  -29.611759   61.322578  0
 28.830608  -29.425180   61.386772  0
 27.782623  -28.464119   60.617771  0
  9.754079  -29.059986   59.286526  0
 34.187939  -30.692738   58.898643  0
 34.630028  -28.996000   59.200916  0
 26.441805  -27.930170   58.842194  0
  9.124946  -29.223156   57.896576  0
 23.696169  -28.926754   54.751995  0
 23.123623  -28.147545   54.451958  0
 23.100746  -27.686905   55.010387  0
  8.012265  -28.670141   56.483807  0
  7.510015  -29.281223   54.871037  0
 24.704472  -29.053635   55.702900  0
 25.389303  -27.464338   56.510227  0
 39.049515  -28.971052   55.252090  0
 24.237520  -28.295477   54.428490  0
  7.738932  -29.779947   52.808090  0
 38.711395  -29.515081   53.231480  0
 23.369005  -27.120468   53.612167  0
 43.812401  -26.981335   53.993095  0
 29.641176  -31.891544   50.382275  0
  8.744928  -30.042751   49.829502  0
 44.703587  -27.896996   53.726814  0
 40.593887  -28.605837   52.813892  0
 37.969482  -30.502716   50.259689  0
 38.191685  -29.389656   51.684795  0
 37.427666  -29.339531   49.834309  0
 45.675873  -29.006891   52.419548  0
 39.873089  -28.361036   51.337887  0
 39.146481  -28.872742   49.750916  0
 36.520672  -29.354626   47.916348  0
 48.077194  -30.199841   49.477245  0
 38.490421  -28.815939   48.413559  0
 37.778931  -29.499052   46.952095  0
 36.070072  -30.380802   45.857140  0
  9.371104  -29.496683   48.175552  0
 54.104202  -29.884724   47.577724  0
 52.575443  -29.508314   48.564903  0
 50.758747  -29.500748   49.292141  0
 55.128033  -28.992039   45.338131  0
 36.974396  -28.856520   45.849625  0
 37.660675  -28.702269   47.063282  0
 35.694756  -30.362934   44.505707  0
  9.292198  -28.831799   47.318657  0
  8.665690  -28.800243   46.008484  0
 53.022591  -29.606651   43.778877  0
 35.941204  -28.909517   44.307171  0
 34.107124  -29.256510   43.279480  0
 51.490219  -29.369886   42.811939  0
  6.844562  -29.358856   42.691612  0
 50.581738  -29.758768   41.390312  0
 42.049946  -28.647364   43.191601  0
 41.553051  -28.962183   41.434559  0
 40.551762  -28.835958   41.530628  0
 35.056808  -28.379070   42.679512  0
  6.828705  -28.961226   41.089958  0
  7.452754  -28.148806   39.675491  0
 49.212002  -30.466614   40.403946  0
 42.781361  -28.543751   42.410168  0
 41.758003  -28.536684   40.167568  0
 10.846375  -30.105574   38.379700  0
  9.001603  -29.957842   38.616646  0
 48.518665  -30.323355   39.331234  0
 40.174461  -29.185196   38.693462  0
 39.414314  -28.792871   40.124931  0
 34.121559  -29.076019   42.300549  0
 14.158203  -29.641619   38.613983  0
 55.126133  -29.036552   42.087170  0
 53.895943  -29.646654   42.051582  0
 52.519436  -30.565702   41.477058  0
 38.525230  -28.227388   38.888786  0
 38.355145  -28.019547   40.773392  0
 37.849094  -27.756323   39.908966  0
 51.325932  -31.028143   39.964638  0
 38.935280  -28.895756   37.513252  0
 38.674168  -28.273510   37.867722  0
 37.994453  -28.078922   38.881195  0
 16.489395  -29.954258   37.224747  0
 56.472858  -30.451227   38.240379  0
 55.931103  -29.872614   39.116264  0
 55.499462  -29.905668   37.448956  0
 51.230045  -31.349657   38.307487  0
 39.504154  -28.897800   36.482037  0
 17.516756  -30.191910   35.313808  0
 57.945347  -30.667257   38.366901  0
 44.048973  -31.140150   35.555141  0
 59.596077  -29.857138   37.107876  0
 59.874275  -29.149237   36.080330  0
 59.550358  -28.611658   36.826305  0
 58.604027  -29.631668   37.839809  0
 56.645332  -29.673176   37.068993  0
 55.609299  -29.623270   36.799145  0
 50.637909  -30.545185   36.254055  0
 44.666779  -30.722576   34.778324  0
 59.994175  -29.663475   34.315678  0
 17.603943  -29.211514   34.722538  0
 12.578300  -28.698509   36.703438  0
 10.934331  -28.418755   37.264351  0
  9.143908  -28.123249   37.420540  0
  6.577421  -27.965790   37.213062  0
  4.791040  -28.422165   36.712887  0
 60.994659  -29.048164   32.144714  0
  8.111103  -27.201941   36.863617  0
  5.016115  -27.506910   36.357834  0
  5.939376  -26.961866   36.124428  0
  4.440287  -28.053896   35.085667  0
  4.613830  -27.224113   34.797199  0
 62.005383  -28.497885   30.673716  0
 10.269391  -27.599510   37.103947  0
 61.791527  -28.773672   29.737492  0
 61.789253  -29.699972   27.918579  0
 61.064884  -29.168173   28.878977  0
 58.999226  -29.093691   28.734442  0
 58.639656  -28.534178   29.633312  0
  4.092956  -28.743736   30.511290  0
  3.764287  -29.039587   28.597004  0
 60.828712  -29.069605   26.772873  0
 57.701672  -28.558281   28.598391  0
  3.897352  -29.117958   26.685799  0
  5.012691  -29.062372   25.110365  0
 60.656364  -28.291500   24.912895  0
  6.097798  -29.747129   24.544954  0
 59.489655  -28.370222   22.955816  0
 59.811626  -27.303125   22.916887  0
 10.245631  -28.841333   25.308876  0
  7.308341  -29.256388   24.647228  0
 58.011311  -28.323101   22.191500  0
  9.102110  -29.374435   24.714737  0
 56.881058  -29.463816   22.219790  0
  7.720720  -30.605782   24.559973  0
  7.319832  -30.229574   24.652832  0
  6.703023  -30.697756   24.603083  0
 56.918602  -28.829384   21.409948  0
 56.950974  -27.576321   20.029514  0
 49.420429  -25.820576   21.306778  0
 51.412476  -25.678076   19.682722  0
 48.466866  -26.559649   21.580078  0
 46.814434  -26.711170   22.462999  0
 44.611546  -28.630638   21.188477  0
  5.249672  -30.045824   23.195345  0
  2.959483  -27.723150   22.924381  0
 56.240673  -26.395605   18.727884  0
 52.642002  -25.921473   18.741207  0
 53.909561  -26.109049   18.184967  0
 57.895252  -26.780560   18.582909  0
 61.289326  -28.362797   18.391256  0
 59.473217  -27.196575   18.981714  0
 58.848118  -26.354128   18.114260  0
 38.603634  -29.302986   15.075893  0
 37.721352  -28.344147   15.715837  0
  3.711906  -29.147217   17.662325  0
 61.524086  -27.666101   17.175777  0
 59.379627  -26.400427   17.337727  0
 61.490463  -27.252052   15.190572  0
 60.374367  -26.975697   16.326815  0
 62.378025  -27.363541   13.302793  0
 60.766632  -26.948055   12.807510  0
  8.514664  -28.814928   15.430044  0
  5.944130  -29.845367   14.531785  0
  6.745795  -29.241453   15.654702  0
 58.517742  -27.038074   12.018330  0
 10.717816  -29.669176   12.598164  0
  6.767359  -30.638752   12.096228  0
  5.131348  -30.388554   12.614983  0
 38.406696  -28.690218   13.389462  0
 39.511108  -28.717207   13.780478  0
 37.596722  -28.383202   13.507107  0
  8.174515  -30.705288   11.238445  0
 41.793144  -28.838308   13.846108  0
 40.563015  -28.358767   13.703939  0
  9.750045  -29.417124   11.680238  0
  8.808051  -30.353354   10.279129  0
  9.010419  -29.436741   10.319387  0
 42.940094  -28.760090   13.378071  0
  8.892612  -29.217567    8.536916  0
 53.200741  -29.547665    7.315780  0
 50.449909  -28.959915    7.748873  0
 46.487301  -29.383438    9.705880  0
 56.869831  -28.068031    6.991730  0
 54.730717  -28.043505    7.032050  0
 51.969807  -28.231258    6.972853  0
 53.397156  -28.177597    6.911997  0
  9.301069  -28.541803    5.448296  0
 10.502885  -29.523922    4.440233  0
 50.881752  -33.144737    1.205634  0
 49.999168  -33.520432    0.960578  0
 48.914452  -33.685326    0.443657  0
 11.523771  -29.502331    3.594913  0
 63.460381  -30.108652    2.580220  0
 61.007557  -30.205397    3.852165  0
 63.717915  -29.845049    1.700088  0
 54.767601  -33.372131    0.059032  0
 53.364315  -32.864819    0.277807  0
 52.115078  -33.121109    0.055945  0
 50.793621  -33.265045    0.003641  0
 16.897419  -31.877026    5.384825  0
 13.436810  -31.171576    4.905403  0
 15.132484  -30.791454    3.449240  0
 12.860937  -30.027731    3.302609  0
 62.693657  -29.417639   -0.118228  0
 56.053513  -33.000420   -2.218994  0
 54.585464  -33.358685   -1.307989  0
 52.787685  -33.203392   -1.029246  0
 51.136242  -32.972816   -1.690462  0
 49.070312  -32.868492   -1.958513  0
 61.967533  -29.877661   -0.830213  0
 57.765903  -32.007217   -2.866578  0
 54.586914  -32.862499   -2.441327  0
 53.054028  -32.789303   -2.232418  0
 51.607635  -32.203636   -3.012001  0
 50.000237  -32.078346   -2.880053  0
 47.571297  -31.766941   -2.580671  0
 46.432133  -31.391109   -2.517179  0
 44.895882  -29.074537   -1.626437  0
 43.571678  -29.417740   -1.257304  0
 60.282413  -29.786839   -2.425268  0
 58.459816  -30.499989   -3.180367  0
 56.090347  -31.071701   -3.458375  0
 54.184101  -32.075745   -3.166803  0
 51.089531  -31.007940   -3.507903  0
 48.352322  -30.904001   -2.969958  0
 47.001949  -30.559948   -2.597056  0
 21.175083  -30.000706   -0.772578  0
 18.962132  -29.356895   -0.817626  0
 16.217377  -29.174051    0.196068  0
 14.064022  -29.581007    1.609807  0
 12.666691  -28.361231    1.068908  0
 53.950710  -31.032204   -3.665247  0
 12.482678  -29.739548   -2.825946  0
 12.003178  -30.225737   -3.069417  0
 29.995613  -28.238689   -2.494086  0
 24.413177  -29.225714   -1.661778  0
 21.462969  -28.784286   -1.813948  0
 12.739379  -28.713083   -3.207111  0
 12.106230  -29.914125   -3.824329  0
 32.478291  -28.896399   -4.060322  0
 13.429431  -28.008873   -3.537062  0
 11.546551  -30.605951   -5.477091  0
 43.128773  -29.095345   -1.805241  0
 21.307638  -29.784391   -3.976105  0
 17.315760  -26.941467   -3.381759  0
 22.462978  -29.237371   -4.572058  0
 19.178642  -26.415136   -3.815970  0
 11.195218  -30.235561   -6.878693  0
 53.268265  -29.898735   -5.651526  0
 54.474728  -29.597248   -5.714413  0
 51.556477  -29.254187   -4.947083  0
 46.817333  -29.077135   -3.566806  0
 44.189800  -29.075615   -2.823466  0
 33.528980  -29.077005   -5.447701  0
 11.435493  -30.269711   -8.169603  0
 61.626102  -28.343924   -7.270652  0
 48.593323  -29.098476   -4.420162  0
 18.827871  -32.836857  -11.006575  0
 16.839895  -32.667862  -11.658946  0
 13.665936  -32.604568  -11.488020  0
 12.683967  -32.326031  -10.830608  0
 11.804422  -29.326437   -8.815384  0
 12.768939  -30.637775  -10.779931  0
 30.917425  -27.703568   -7.247470  0
 21.200869  -31.394897  -10.745666  0
 19.904182  -31.964401  -11.282311  0
 15.429152  -32.597710  -12.385810  0
 53.516121  -29.227057   -9.995907  0
 25.144220  -30.294420  -10.509569  0
 61.581470  -28.205462   -9.421844  0
 57.747650  -28.051701  -10.655456  0
 37.786556  -28.019014  -14.837851  0
 38.242409  -28.840267  -14.925012  0
 51.678310  -28.512495  -11.792250  0
 35.505688  -26.642244  -16.476295  0
 26.956312  -28.705196  -11.544718  0
 55.804905  -28.783497  -12.765066  0
 24.004471  -27.702932  -12.497349  0
 22.265635  -28.042099  -12.654342  0
 20.814627  -28.424240  -13.582717  0
 19.574364  -29.194986  -15.140103  0
 59.574852  -28.805567  -14.327318  0
 57.944710  -27.757338  -14.105721  0
 47.215931  -26.140495  -18.272484  0
 47.690742  -25.832384  -18.660152  0
 47.628391  -26.613947  -19.444937  0
 19.831514  -28.942051  -16.708687  0
 60.281094  -28.342377  -15.362967  0
 48.258785  -27.168570  -20.016294  0
 49.061199  -27.510048  -20.311331  0
 48.743279  -27.148363  -21.015999  0
 48.075012  -26.910866  -20.691921  0
 37.640774  -30.484262  -16.886469  0
 37.401749  -30.316338  -18.358929  0
 20.004591  -28.912170  -17.730801  0
 60.375259  -28.351807  -18.356873  0
 48.510117  -27.207203  -22.397404  0
 27.691486  -30.472439  -21.104242  0
 25.184462  -30.028982  -21.335392  0
 22.560005  -29.339455  -20.522665  0
 21.770559  -29.690968  -19.587126  0
 20.841690  -28.867195  -18.783413  0
 59.167728  -28.653818  -20.416922  0
 51.746925  -28.024313  -22.458950  0
 50.718868  -27.964136  -21.706705  0
 50.023228  -27.849644  -21.316694  0
 49.925617  -27.705362  -20.753498  0
 37.400204  -30.679192  -20.357080  0
 56.430218  -27.995636  -22.797392  0
 54.714447  -27.356590  -23.342180  0
 47.797516  -27.479460  -23.460958  0
 37.202904  -30.468966  -21.164789  0
 46.489017  -27.975586  -24.554565  0
 37.823414  -29.801107  -22.045048  0
 39.992737  -30.468468  -25.190865  0
 38.936848  -30.136393  -23.296293  0
 42.570843  -29.612810  -26.592306  0
 40.903137  -29.754379  -26.346903  0
 17.779299  -28.740202   65.288864  0
 20.190849  -28.527361   64.941010  0
 16.453550  -28.551376   65.520950  0
 14.235083  -27.597681   64.537743  0
 23.877573  -26.766436   63.061234  0
 22.963032  -27.774540   64.059685  0
 24.878292  -26.840458   60.901310  0
 21.698647  -28.114271   64.645294  0
 13.071509  -27.853226   63.890388  0
 12.243692  -27.540136   62.742424  0
 12.312142  -26.812918   60.952404  0
 10.308207  -28.108997   59.035606  0
 31.313530  -28.181059   61.013111  0
 32.659843  -27.615734   60.333019  0
 30.223370  -27.746321   61.048107  0
 27.566936  -26.376167   59.472019  0
 36.426086  -27.952728   58.631317  0
 37.632984  -28.499819   57.861855  0
  8.842052  -27.824852   57.552544  0
 24.225035  -26.694189   54.248249  0
  6.690701  -28.056711   53.888893  0
  7.032434  -27.117931   55.435349  0
  7.037754  -27.798967   52.025368  0
 22.844517  -26.582699   53.937164  0
 22.723442  -25.891712   52.194050  0
 42.563202  -26.886606   53.867672  0
 41.234497  -27.122452   52.923878  0
 39.714886  -27.561523   50.295139  0
 23.357092  -25.770199   52.406719  0
 46.199951  -27.944370   52.630360  0
 47.719505  -28.320471   51.452724  0
 38.950390  -27.859179   49.149803  0
 38.233097  -27.863550   47.473038  0
 51.285660  -28.166132   49.113380  0
 50.019264  -28.282770   49.938335  0
 49.127468  -29.301979   49.943764  0
 35.523899  -28.732441   46.438572  0
 54.926933  -28.387844   46.275669  0
 53.831512  -28.169445   47.135361  0
 43.004028  -28.202482   45.097023  0
 43.167160  -27.455162   46.549870  0
 44.051903  -27.103556   46.968113  0
 42.000076  -27.177095   46.068035  0
 34.728622  -28.657946   44.619194  0
 44.219627  -27.910398   44.995529  0
 41.043030  -27.470039   44.698139  0
 37.224785  -27.846119   44.856499  0
 54.635410  -28.223709   43.984100  0
 43.537170  -28.447622   43.931355  0
