#!ascii file
7225  7529  7531  0
7532  7531  7529  0
6922  7226  7518  0
7533  7518  7226  0
7228  7534  7220  0
7535  7534  7228  0
7536  7230  7224  0
7224  7531  7536  0
7537  7536  7531  0
7226  7237  7533  0
7538  7533  7237  0
7231  7227  7539  0
7228  6934  7535  0
7540  7535  6934  0
7541  7542  7232  0
7232  7230  7541  0
7230  7536  7541  0
7543  7233  7234  0
7233  7543  7235  0
7236  7235  7543  0
7231  7539  6650  0
6650  7539  7544  0
6650  7544  6938  0
6938  7544  7540  0
6938  7540  6934  0
6939  7238  7545  0
7545  7238  7546  0
7545  7546  7547  0
7232  7238  7229  0
7239  7548  7549  0
7239  7549  7234  0
7234  7549  7543  0
7241  7550  7538  0
7241  7538  7237  0
6944  7242  7551  0
7545  7247  6939  0
7545  7547  7552  0
7545  7552  7247  0
7244  7548  7239  0
7236  7553  7240  0
6949  7240  7553  0
7236  7554  7553  0
7245  7555  7550  0
7245  7550  7241  0
7556  7243  6945  0
6945  7246  7556  0
7557  7556  7246  0
7247  7552  6956  0
7248  7558  7559  0
7248  7559  7244  0
7248  6957  7558  0
7553  7554  7560  0
6949  7553  6963  0
7561  7562  7555  0
7561  7555  7249  0
7249  7555  7245  0
7246  7251  7563  0
7246  7563  7557  0
6665  7564  6957  0
6957  7564  7558  0
7553  7560  6963  0
7561  7249  7252  0
7561  7252  7565  0
7566  6956  7552  0
6665  7256  7567  0
6665  7567  7564  0
6959  7259  7258  0
7560  7261  6963  0
7263  7264  6965  0
7565  7268  7568  0
7268  7266  7569  0
7268  7569  7568  0
7268  7565  7252  0
6956  7566  7271  0
7258  7259  7282  0
7259  7283  7282  0
7261  7560  7570  0
7261  7570  7274  0
7571  7274  7570  0
7262  7572  7263  0
7573  7263  7572  0
7262  6971  7572  0
7263  7573  7264  0
7574  7264  7573  0
7264  7574  7275  0
7266  7284  7575  0
7266  7575  7569  0
7269  7254  7576  0
7269  7576  7276  0
7270  7577  7255  0
7271  7578  7277  0
7272  7281  7280  0
7281  7282  7579  0
7282  7283  7580  0
7283  7273  7580  0
7581  6971  6975  0
7581  6975  7287  0
7581  7582  6971  0
7572  6971  7582  0
7275  7574  6976  0
7583  6976  7574  0
7284  7276  7584  0
7284  7584  7575  0
7276  7576  7584  0
7270  7285  7577  0
7286  7280  7585  0
7280  7281  7585  0
7586  7585  7281  0
7579  7282  7587  0
7282  7580  7588  0
7282  7588  7587  0
7580  7273  7589  0
7590  7589  7273  0
7580  7589  7588  0
7273  7274  7590  0
7571  7590  7274  0
7591  7581  7287  0
6985  6976  7583  0
7592  6985  7583  0
6680  7291  7285  0
7593  6973  7277  0
6973  7593  6978  0
7594  6978  7593  0
6978  7594  6979  0
7595  6979  7594  0
6979  7595  7279  0
6980  7286  7288  0
7596  7288  7286  0
7286  7585  7596  0
7597  7596  7585  0
7587  7586  7579  0
6984  7294  7289  0
7289  7294  7598  0
7289  7598  7591  0
7289  7591  7287  0
6985  7592  7599  0
6985  7599  7290  0
7291  7600  7285  0
7288  7596  7601  0
7288  7601  7292  0
7293  7602  7294  0
6694  7290  7300  0
7300  7290  7603  0
7599  7603  7290  0
7296  7302  7291  0
7291  7302  7600  0
7308  7600  7302  0
7600  7308  7604  0
7605  7604  7308  0
7308  7307  7605  0
7298  7297  7606  0
7607  7606  7297  0
7297  7292  7607  0
7608  7607  7292  0
7601  7608  7292  0
7293  7299  7609  0
7003  7300  7304  0
7307  7610  7605  0
7611  7612  7298  0
7303  7298  7612  0
7611  7298  7613  0
6705  7304  7614  0
7307  7309  7610  0
7615  7610  7309  0
7612  7616  7303  0
7303  7616  7310  0
7001  7617  7002  0
7002  7617  7618  0
7316  7619  7620  0
7316  7620  7621  0
7316  7621  7622  0
7313  7614  7623  0
7313  7623  7619  0
7614  7313  6705  0
7615  7309  7318  0
7615  7318  7624  0
7625  7319  6721  0
7625  6721  6723  0
7625  6723  7626  0
6723  7627  7626  0
7627  6723  7320  0
7627  7320  7628  0
7629  7630  7631  0
7310  7616  7311  0
7322  7317  7632  0
7317  7316  7622  0
7317  7622  7632  0
7316  7315  7619  0
7619  7315  7009  0
7619  7009  7313  0
7321  7022  7633  0
7326  7322  7634  0
7635  7326  7634  0
7022  7636  7633  0
7023  7014  7637  0
7023  7637  7327  0
7014  7324  7637  0
6394  7328  7325  0
7018  7326  7635  0
7329  7018  7635  0
7022  6727  7638  0
7022  7638  7636  0
7327  7639  7640  0
7327  7640  7030  0
7327  7637  7639  0
7025  7641  7328  0
7025  7031  7642  0
7025  7642  7641  0
7031  7035  7642  0
6727  7033  7643  0
6727  7643  7638  0
7644  7330  7030  0
7035  7645  7642  0
7329  7331  7032  0
7036  7038  7332  0
7332  7646  7033  0
7643  7033  7646  0
7333  7330  7644  0
7645  7035  7041  0
7645  7041  7647  0
7329  7648  7331  0
7649  7331  7648  0
6739  7042  7038  0
7650  7038  7651  0
7038  7042  7651  0
7332  7038  7650  0
7652  7041  7040  0
7331  7649  7335  0
7653  7335  7649  0
7654  7655  7656  0
7654  7657  7655  0
7658  7655  7657  0
7659  7656  7655  0
7660  7655  7658  0
7655  7660  7659  0
7042  6742  7651  0
7338  7651  6742  0
7337  7336  6741  0
7661  6740  7336  0
7048  7039  7334  0
7040  7045  7652  0
6748  7335  7045  0
7045  7335  7652  0
7653  7652  7335  0
7654  7656  7662  0
7656  7659  7663  0
7659  7664  7663  0
7338  7339  7665  0
7043  6740  7661  0
7043  7661  7666  0
7667  7340  7044  0
7334  7668  7048  0
7656  7663  7669  0
7664  7669  7663  0
7670  7339  6750  0
7043  7666  7671  0
7043  7671  6752  0
7047  7667  7044  0
7048  7668  7672  0
7048  7672  7673  0
7048  7673  7049  0
7341  7670  6750  0
6752  7671  7674  0
6752  7674  7342  0
7675  7667  7047  0
7047  7051  7675  0
7343  7341  6443  0
7344  6759  7676  0
7677  7676  6759  0
6759  6760  7677  0
7347  7677  6760  0
7342  7678  7050  0
7679  7675  7051  0
7053  7679  7051  0
7680  7343  6766  0
7681  7350  7345  0
7055  7345  7350  0
7050  7682  6765  0
7680  6766  7351  0
7683  7680  7351  0
7058  7350  7352  0
7684  7348  7054  0
7054  7056  7684  0
6765  7682  6770  0
7056  7354  7685  0
7056  7685  7684  0
7354  6770  7685  0
7355  7357  7686  0
7356  7355  7687  0
7356  7687  7358  0
7353  7352  7360  0
7688  7360  7352  0
7689  7357  7359  0
7689  7690  7357  0
7686  7357  7690  0
7691  7360  7688  0
7689  7359  7692  0
7362  7692  7359  0
7360  7363  7361  0
7360  7691  7363  0
7362  7064  7693  0
7064  7065  7693  0
7065  7694  7693  0
7065  7363  7691  0
7065  7691  7694  0
7366  7695  7364  0
7696  7364  7695  0
7366  7697  7695  0
7697  7366  7367  0
7697  7367  7698  0
7697  7698  7699  0
7364  7700  7368  0
7701  7368  7700  0
7702  7368  7701  0
7368  7702  7373  0
7698  7367  7379  0
7374  7375  7378  0
7703  7373  7702  0
7373  7703  7376  0
7376  7703  7377  0
7379  7378  7704  0
7379  7704  7705  0
7378  7385  7704  0
7378  7375  7385  0
7375  7380  7385  0
7703  7706  7377  0
7377  7706  7707  0
7377  7707  7381  0
7381  7707  7072  0
7704  7385  7708  0
7706  7709  7707  0
7707  7710  7072  0
7072  7710  7384  0
7385  7382  7711  0
7709  7712  7713  0
7709  7713  7707  0
7707  7713  7710  0
7714  7710  7713  0
7710  7715  7384  0
7710  7714  7715  0
7716  7713  7712  0
7713  7716  7714  0
7717  7387  7384  0
7711  7382  7718  0
7386  7718  7382  0
7719  7711  7718  0
7720  7387  7717  0
7721  7389  7393  0
7389  7721  7394  0
7390  7718  7386  0
7722  7719  7718  0
7387  7720  7723  0
7387  7723  7391  0
7724  7393  7725  0
7393  7724  7721  0
7394  7726  7086  0
7394  7721  7726  0
7718  7390  7727  0
7718  7727  7722  0
7728  7395  7398  0
7395  7728  7393  0
7725  7393  7728  0
7086  7726  7087  0
7727  7390  7403  0
7088  7403  7390  0
7729  7727  7403  0
7730  7399  7391  0
7391  7723  7730  0
7397  7731  7398  0
7398  7732  7728  0
7733  7725  7728  0
7725  7733  7724  0
7087  7726  7402  0
7403  7404  7729  0
7406  7400  7401  0
7728  7732  7734  0
7728  7734  7733  0
7410  7402  7735  0
7404  7411  7729  0
7405  7399  7736  0
7405  7736  7412  0
7407  7408  7737  0
7738  7737  7408  0
7408  7409  7738  0
7415  7738  7409  0
7410  7739  7102  0
7102  7739  7108  0
7416  7740  7411  0
7413  7418  7741  0
7742  7741  7418  0
7407  7737  7743  0
7407  7743  7419  0
7737  7738  7744  0
7739  7745  7108  0
7108  7745  7109  0
7416  7109  7745  0
7412  7746  7417  0
7747  7417  7746  0
7111  6825  7425  0
7111  7425  7418  0
7419  7743  7748  0
7419  7748  7420  0
7743  7737  7744  0
7414  7112  7749  0
7417  7747  7110  0
7750  7110  7747  0
7110  7750  7424  0
7751  7424  7750  0
7117  7424  7751  0
7752  7420  7748  0
7112  7427  7749  0
7113  7428  7427  0
7421  7430  7429  0
7426  7435  7753  0
7426  7753  7754  0
7426  7754  7425  0
7420  7752  7432  0
7427  7428  7755  0
7429  7430  7437  0
7429  7437  7127  0
7430  7131  7437  0
7430  7120  7131  0
7125  7431  7434  0
7439  7432  7752  0
7126  7434  7756  0
7126  7756  7438  0
7122  7130  7757  0
7122  7757  7433  0
7436  7758  7435  0
7759  7129  7439  0
7129  7759  7441  0
7130  7134  7760  0
7130  7760  7757  0
7761  7440  7438  0
7762  7758  7436  0
7763  7138  7441  0
7134  7136  7760  0
7764  7760  7136  0
7440  7761  7442  0
7436  7444  7762  0
7138  7763  7139  0
7136  7445  7764  0
7442  7761  7446  0
7444  7443  7765  0
7444  7765  7762  0
7139  7763  7766  0
7139  7766  7448  0
7450  7767  7147  0
7146  7148  7445  0
7445  7148  7768  0
7457  7768  7148  0
7452  7149  7446  0
7455  7447  7143  0
7147  7767  7457  0
7452  7446  7769  0
7453  7458  7770  0
7454  7771  7154  0
7144  7448  7772  0
7144  7772  6861  0
7145  7157  7456  0
7773  7456  7157  0
7452  7769  7451  0
7451  7769  7774  0
7451  7774  7165  0
7775  7770  7458  0
7154  7771  7776  0
7154  7776  7461  0
7459  7463  7460  0
7162  7460  7463  0
7455  7169  7777  0
6861  7772  7462  0
7157  6878  7773  0
7778  7773  6878  0
7779  7163  6865  0
6865  7158  7780  0
6865  7780  7779  0
7158  7159  7781  0
7160  7781  7159  0
7158  7781  7780  0
7782  7174  7165  0
7782  7165  7774  0
7458  7175  7775  0
7461  7783  7161  0
7166  7161  7783  0
7463  7784  7785  0
7463  7785  7162  0
7162  7786  7464  0
7162  7785  7786  0
7169  7170  7777  0
7468  7777  7170  0
6878  6885  7778  0
7779  7466  7163  0
7781  7160  7787  0
7164  7787  7160  0
7174  7782  7470  0
7175  6887  7775  0
7463  7168  7784  0
7464  7786  7467  0
7464  7467  6882  0
7787  7164  7173  0
7787  7173  7474  0
7787  7474  7788  0
7470  7789  7176  0
6887  7475  7775  0
7166  7783  7790  0
7166  7790  7471  0
7168  7791  7784  0
7786  7792  7467  0
7473  7793  7181  0
7181  7793  7468  0
7479  7176  7789  0
7475  7184  7794  0
7775  7475  7795  0
7475  7794  7795  0
7791  7168  7472  0
7796  7177  7467  0
7177  7796  7476  0
7179  7476  7473  0
7473  7476  7797  0
7473  7797  7793  0
6590  7465  7798  0
6590  7798  6600  0
7799  7187  7469  0
7474  7478  7788  0
7800  6900  7479  0
6900  7800  7189  0
7189  7800  7480  0
7193  7481  7484  0
7484  7801  7482  0
7802  7482  7801  0
7484  7481  7803  0
7484  7803  7801  0
7482  7802  7491  0
7482  7491  7483  0
7802  7804  7491  0
7805  7491  7804  0
7806  7794  7807  0
7806  7807  7805  0
7794  7184  7485  0
7794  7485  7807  0
6897  6600  7798  0
7477  6896  7808  0
7187  7799  7488  0
7809  7190  7480  0
7192  7810  7481  0
7481  7810  7811  0
7481  7811  7803  0
7491  7805  7812  0
7491  7812  7490  0
7805  7807  7812  0
7807  7485  7813  0
7807  7813  7812  0
7485  7492  7813  0
7492  7194  7814  0
6905  7510  6896  0
7808  6896  7510  0
7815  7478  7489  0
7202  7498  7816  0
7817  7499  7202  0
7498  7818  7816  0
7498  7203  7818  0
7190  7809  7198  0
7819  7198  7809  0
7192  7500  7810  0
7820  7810  7500  0
7501  7490  7821  0
7822  7821  7490  0
7490  7812  7822  0
7813  7822  7812  0
7814  7813  7492  0
7194  7195  7823  0
7502  7823  7195  0
7503  7487  7824  0
7825  7824  7487  0
7487  7493  7825  0
7826  7825  7493  0
7493  7494  7826  0
7494  7495  7826  0
7827  7826  7495  0
7828  7196  7496  0
7829  7504  7488  0
7505  7815  7489  0
7499  7817  7830  0
7499  7830  7505  0
7198  7819  7508  0
7500  7199  7831  0
7832  7831  7199  0
7500  7831  7820  0
7833  7820  7831  0
7199  7501  7832  0
7821  7832  7501  0
7834  7822  7813  0
7194  7823  7814  0
7835  7823  7502  0
7836  7837  7815  0
7837  7838  7815  0
7815  7505  7836  0
7839  7836  7505  0
7505  7830  7839  0
7840  7507  7209  0
7209  7513  7840  0
7508  7841  7509  0
7842  7833  7831  0
7831  7832  7843  0
7844  7843  7832  0
7832  7821  7844  0
7821  7822  7844  0
7845  7844  7822  0
7502  7206  7517  0
7502  7517  7835  0
7503  7824  7514  0
7846  7514  7824  0
7824  7825  7846  0
7213  7847  7510  0
6924  7512  7520  0
7848  7520  7512  0
7512  7511  7849  0
7512  7849  7848  0
7528  7530  7850  0
7850  7851  7852  0
7850  7530  7851  0
7850  7837  7528  0
7836  7528  7837  0
7850  7852  7838  0
7850  7838  7837  0
7831  7843  7842  0
7843  7844  7853  0
7844  7845  7854  0
7517  7518  7855  0
7517  7855  7835  0
7213  7856  7847  0
7520  7848  7525  0
7848  7526  7525  0
7526  7848  7857  0
7526  7857  7527  0
7527  7857  7851  0
7527  7851  7530  0
7528  7836  7858  0
7528  7858  7529  0
7836  7839  7858  0
7839  7859  7858  0
7515  7522  7860  0
7515  7860  7513  0
7861  7842  7843  0
7861  7862  7842  0
7843  7853  7861  0
7853  7844  7863  0
7212  7514  6923  0
7864  6923  7514  0
7216  7856  7213  0
7216  7865  7856  0
7529  7858  7532  0
7522  7523  7866  0
7522  7866  7867  0
7522  7867  7860  0
7868  7523  7516  0
7861  7869  7862  0
7861  7853  7870  0
7861  7870  7871  0
7861  7871  7869  0
7853  7863  7872  0
7853  7872  7870  0
7844  7854  7863  0
6923  7864  7227  0
7220  7534  7524  0
7524  7873  7216  0
7865  7216  7873  0
7524  7534  7873  0
7531  7532  7537  0
7866  7523  7874  0
7866  7875  7867  0
7523  7876  7874  0
7523  7868  7876  0
7877  7876  7868  0
7871  7878  7869  0
7863  7854  7872  0
7879  7854  7880  0
7518  7533  7881  0
7518  7881  7855  0
7539  7227  7882  0
7873  7534  7883  0
7534  7535  7883  0
7884  7542  7541  0
7885  7542  7884  0
7541  7536  7886  0
7541  7886  7884  0
7536  7537  7886  0
7874  7887  7866  0
7876  7877  7874  0
7871  7888  7878  0
7870  7872  7889  0
7870  7889  7871  0
7872  7890  7889  0
7872  7854  7879  0
7872  7879  7890  0
7533  7538  7881  0
7891  7881  7538  0
7883  7535  7540  0
7546  7238  7542  0
7232  7542  7238  0
7885  7546  7542  0
7877  7887  7874  0
7889  7888  7871  0
7892  7878  7888  0
7890  7879  7893  0
7894  7893  7879  0
7895  7891  7538  0
7548  7896  7897  0
7548  7897  7549  0
7549  7898  7543  0
7236  7543  7898  0
7549  7897  7898  0
7899  7892  7888  0
7888  7889  7899  0
7900  7899  7889  0
7889  7890  7900  0
7901  7900  7890  0
7890  7893  7901  0
7895  7550  7555  0
7895  7555  7902  0
7562  7902  7555  0
7550  7895  7538  0
7903  7242  6937  0
6937  7243  7903  0
7547  7904  7552  0
7559  7548  7244  0
7559  7896  7548  0
7898  7905  7236  0
7554  7236  7905  0
7899  7900  7906  0
7900  7901  7907  0
7908  7907  7901  0
7901  7893  7909  0
7901  7909  7908  0
7910  7908  7909  0
7562  7893  7894  0
7894  7902  7562  0
6944  7551  6952  0
7551  7242  7911  0
7242  7903  7911  0
7912  7903  7243  0
7243  7556  7912  0
7898  7913  7905  0
7905  7913  7914  0
7899  7906  7892  0
7565  7909  7893  0
7893  7562  7565  0
7561  7565  7562  0
7915  7250  6952  0
6952  7551  7915  0
7916  7556  7557  0
7552  7904  7566  0
7905  7914  7570  0
7905  7570  7554  0
7554  7570  7560  0
7917  7909  7568  0
7565  7568  7909  0
7917  7910  7909  0
7917  7568  7918  0
7250  7919  7253  0
7557  7563  7916  0
7564  7567  7920  0
7570  7914  7571  0
7921  7922  7923  0
7921  7924  7922  0
7923  7568  7569  0
7923  7569  7921  0
7923  7922  7918  0
7923  7918  7568  0
7254  7253  7925  0
7253  7919  7925  0
7563  7251  7926  0
7566  7927  7271  0
7271  7927  7928  0
7271  7928  7578  0
7567  7256  7929  0
7567  7929  7920  0
7921  7569  7575  0
7921  7575  7924  0
7254  7925  7576  0
7251  7255  7930  0
7251  7930  7926  0
7929  7256  7931  0
7256  7278  7931  0
7571  7932  7590  0
7572  7933  7573  0
7934  7573  7933  0
7572  7582  7933  0
7573  7934  7574  0
7935  7574  7934  0
7574  7935  7583  0
7924  7575  7936  0
7924  7936  7937  0
7575  7584  7938  0
7575  7938  7936  0
7576  7939  7584  0
7285  7940  7577  0
7577  7930  7255  0
7577  7940  7930  0
7941  7277  7578  0
7279  7942  7278  0
7278  7942  7931  0
7281  7579  7586  0
7589  7590  7943  0
7944  7589  7943  0
7591  7945  7581  0
7582  7581  7945  0
7591  7598  7946  0
7591  7946  7945  0
7947  7583  7935  0
7938  7584  7939  0
7285  7600  7604  0
7285  7604  7948  0
7285  7948  7940  0
7277  7941  7593  0
7595  7949  7279  0
7950  7279  7949  0
7279  7950  7942  0
7585  7586  7951  0
7585  7951  7597  0
7586  7952  7951  0
7586  7587  7952  0
7587  7588  7953  0
7587  7953  7952  0
7588  7589  7953  0
7589  7944  7953  0
7294  7602  7598  0
7946  7598  7954  0
7598  7602  7954  0
7947  7592  7583  0
7604  7605  7948  0
7948  7605  7955  0
7956  7955  7605  0
7957  7595  7594  0
7949  7595  7957  0
7596  7597  7958  0
7959  7958  7597  0
7596  7958  7601  0
7960  7601  7958  0
7597  7951  7959  0
7961  7959  7951  0
7962  7961  7951  0
7951  7952  7962  0
7953  7962  7952  0
7293  7963  7602  0
7954  7602  7963  0
7964  7963  7293  0
7965  7966  7967  0
7967  7300  7603  0
7967  7603  7965  0
7599  7965  7603  0
7605  7610  7956  0
7968  7956  7610  0
7298  7606  7613  0
7606  7969  7613  0
7960  7608  7601  0
7609  7964  7293  0
7304  7967  7970  0
7970  7967  7971  0
7966  7971  7967  0
7967  7304  7300  0
7610  7615  7968  0
7969  7972  7613  0
7002  7618  7299  0
7299  7973  7609  0
7299  7618  7973  0
7970  7623  7304  0
7614  7304  7623  0
7615  7624  7968  0
7630  7974  7631  0
7631  7974  7975  0
7974  7630  7611  0
7612  7611  7630  0
7613  7974  7611  0
7311  7976  7312  0
7977  7001  7312  0
7001  7977  7617  0
7978  7617  7977  0
7617  7978  7979  0
7617  7979  7618  0
7621  7980  7622  0
7981  7621  7620  0
7619  7623  7620  0
7620  7623  7981  0
7970  7981  7623  0
7624  7318  7319  0
7624  7319  7625  0
7626  7624  7625  0
7628  7626  7627  0
7628  7320  7982  0
7629  7631  7983  0
7975  7983  7631  0
7630  7629  7984  0
7612  7630  7985  0
7612  7985  7616  0
7616  7986  7311  0
7312  7976  7977  0
7322  7632  7634  0
7632  7622  7980  0
7632  7980  7987  0
7632  7987  7988  0
7320  7321  7982  0
7321  7633  7982  0
7629  7983  7984  0
7634  7632  7988  0
7634  7988  7989  0
7633  7990  7991  0
7634  7992  7635  0
7993  7994  7995  0
7993  7995  7996  0
7996  7997  7998  0
7996  7998  7993  0
7996  7995  7999  0
7996  7999  7997  0
7997  7999  8000  0
7633  7636  7990  0
7324  7325  8001  0
7325  7328  8001  0
7635  7992  7329  0
7993  7998  8002  0
7993  8002  8003  0
7998  7997  8004  0
7998  8004  8005  0
7998  8005  8002  0
7997  8006  8004  0
7997  8000  8006  0
7636  7638  8007  0
7639  7637  8008  0
7637  7324  8008  0
7324  8001  8009  0
8001  7328  8010  0
7328  7641  8011  0
8012  7329  7992  0
8004  8006  8013  0
7030  7640  7644  0
7642  7645  8014  0
7642  8014  7641  0
7329  8012  7648  0
8015  7333  7644  0
7645  7647  8014  0
7648  8016  7649  0
8017  7658  8018  0
7658  7657  8018  0
7660  7658  8017  0
8019  7332  7650  0
7650  7651  8020  0
7332  8019  7646  0
7643  7646  8019  0
7647  7041  8021  0
7041  7652  8021  0
7654  8022  7657  0
7654  7662  8023  0
7654  8023  8022  0
8024  7660  8025  0
7660  8024  7659  0
8026  7659  8024  0
7651  7338  8020  0
7665  8020  7338  0
7336  7337  8027  0
7336  8027  7661  0
7333  8028  7334  0
8029  7334  8028  0
7652  7653  8030  0
7669  7662  7656  0
8031  8023  7662  0
8026  7664  7659  0
7670  7665  7339  0
8032  7666  7661  0
7661  8027  8033  0
8034  8027  7337  0
7337  7340  8034  0
7667  8034  7340  0
7334  8029  7668  0
7662  7669  8031  0
8035  8031  7669  0
7669  7664  8035  0
8036  8035  7664  0
8037  8036  7664  0
7666  8032  8038  0
7666  8038  7671  0
7668  8039  7672  0
7671  8038  7674  0
7673  8040  7049  0
8041  7343  7680  0
7343  8041  7341  0
7345  7344  8042  0
7676  8042  7344  0
7677  7347  8043  0
8044  8043  7347  0
7342  7674  7678  0
8045  7679  7053  0
8040  7346  7049  0
8040  8046  7346  0
7347  7348  8044  0
7678  7682  7050  0
7678  8047  7682  0
7053  7349  8045  0
8048  8045  7349  0
7349  7346  8048  0
8046  8048  7346  0
8049  8044  7348  0
6770  7682  7685  0
7358  7687  8050  0
8050  7683  7358  0
7351  7358  7683  0
7350  8051  7352  0
7348  7684  8049  0
8052  8049  7684  0
8053  8052  7684  0
7684  7685  8053  0
7682  8053  7685  0
7686  8054  7355  0
7355  8054  7687  0
7688  7352  8055  0
7690  8056  8054  0
7690  8054  7686  0
7690  7689  8057  0
7690  8057  8056  0
7688  8058  7691  0
7688  8059  8060  0
7688  8060  8058  0
7689  7692  8061  0
7689  8061  8057  0
8058  8062  7691  0
7692  7362  8063  0
7692  8063  8064  0
7692  8064  8061  0
7362  7693  8063  0
8062  7694  7691  0
8063  7693  8062  0
8063  8062  8065  0
7693  7694  8062  0
7697  8066  7695  0
8067  7695  8066  0
7697  8068  8066  0
7695  8067  7696  0
7696  7700  7364  0
8068  7697  7699  0
7696  8069  7700  0
7701  8070  7702  0
8069  8071  7700  0
8072  7700  8071  0
7700  8072  7701  0
8073  7701  8072  0
7701  8073  8070  0
8074  7702  8070  0
7702  8074  7703  0
7703  8075  7706  0
7703  8074  8075  0
8076  8075  8074  0
7705  7704  8077  0
7706  8075  7709  0
7704  7708  8077  0
8075  8076  7709  0
8077  7708  8078  0
7385  7711  7708  0
8076  8079  7712  0
8076  7712  7709  0
8076  8080  8079  0
7714  7716  8081  0
7714  8081  7715  0
7715  8081  7717  0
7715  7717  7384  0
7708  7711  7719  0
8080  8082  8079  0
8079  8083  7712  0
8084  7712  8083  0
7712  8084  7716  0
8085  7716  8084  0
7716  8085  8081  0
8081  7720  7717  0
8086  7720  8081  0
8087  8078  7708  0
8079  8088  8083  0
8089  8083  8088  0
8083  8089  8084  0
8086  8081  8085  0
8090  7723  7720  0
7708  7719  8087  0
7722  8087  7719  0
8091  8089  8088  0
8089  8092  8084  0
8089  8091  8092  0
8093  8085  8084  0
8085  8093  8086  0
8094  8086  8093  0
8095  7723  8090  0
8096  7721  7724  0
7721  8096  7726  0
7722  7727  8097  0
7729  8097  7727  0
7722  8097  8098  0
8099  8084  8092  0
8084  8099  8093  0
8100  8101  8093  0
7723  8095  7730  0
7400  8102  7396  0
7396  8103  7397  0
7731  7397  8103  0
7396  8102  8103  0
7732  7398  7731  0
8104  7724  7733  0
7724  8104  8096  0
7726  8096  8105  0
8104  8105  8096  0
8100  8093  8099  0
7736  7399  7730  0
7730  8106  7736  0
8107  8108  7400  0
8103  8109  7731  0
7731  8110  7732  0
8111  7732  8110  0
7731  8109  8112  0
7731  8112  8110  0
7734  7732  8111  0
7726  8113  7735  0
7726  7735  7402  0
7411  7740  7729  0
8092  8091  8114  0
8092  8114  8099  0
7400  7406  8107  0
7413  8107  7406  0
7734  8111  8115  0
7734  8115  8116  0
7734  8116  7733  0
7735  8117  7410  0
7740  7416  8118  0
7746  7412  7736  0
7736  8106  7746  0
7410  8117  8119  0
7410  8119  7739  0
7416  8120  8118  0
7416  7745  8120  0
7418  8121  7742  0
7418  7425  8121  0
7743  7744  8122  0
7743  8122  7748  0
7744  7738  8123  0
7738  7415  8124  0
7738  8124  8123  0
7415  7414  8124  0
7747  7746  8125  0
7747  8125  7750  0
7750  8125  8126  0
7750  8126  7751  0
7751  7431  7117  0
7751  8126  8127  0
7751  8127  7431  0
7425  7754  8121  0
7744  8123  8122  0
7414  7749  8124  0
7431  8127  8128  0
7431  8128  7434  0
7754  7753  8129  0
7748  8122  7752  0
8130  7752  8122  0
7749  7427  8131  0
7749  8131  8132  0
7427  7755  8131  0
7753  7435  8133  0
7753  8133  8134  0
7753  8134  8129  0
7752  8130  7439  0
7428  7433  8135  0
7428  8135  7755  0
7756  7434  8136  0
8137  7756  8136  0
7759  7439  8130  0
7433  7757  8138  0
7433  8138  8135  0
7438  7756  8139  0
7756  8137  8139  0
8140  8139  8137  0
7435  7758  8133  0
7763  7441  7759  0
7757  7760  8141  0
7757  8141  8138  0
7438  8139  7761  0
7760  7764  8141  0
7761  8139  8140  0
7761  8140  8142  0
7764  7445  7768  0
8143  7764  7768  0
7454  7453  8144  0
8144  7453  8145  0
8144  8146  7454  0
8147  7454  8146  0
7762  7765  8148  0
8149  8148  7765  0
7763  8150  7766  0
7767  7450  7449  0
8151  7768  7457  0
7761  8142  7446  0
7453  7770  8145  0
8152  8145  7770  0
7765  7443  8153  0
7765  8153  8149  0
7443  7447  8153  0
8154  7449  8155  0
7449  7456  8155  0
7449  8154  7767  0
8151  7767  8154  0
7767  8151  7457  0
7446  8156  7769  0
7454  8147  7771  0
8157  8153  7447  0
7447  7455  8158  0
7777  8158  7455  0
7447  8158  8157  0
7766  8159  7448  0
7772  7448  8159  0
7766  8150  8159  0
7769  8156  8160  0
7769  8160  7774  0
7770  7775  8152  0
8161  8152  7775  0
8162  8157  8158  0
7772  8159  8163  0
7774  8164  7782  0
8158  7777  8162  0
8165  8162  7777  0
7777  7468  8165  0
7772  8163  7462  0
8166  7778  6885  0
7779  7780  8167  0
7780  7781  8167  0
8168  8167  7781  0
7795  8169  8161  0
7461  8170  7783  0
7461  7776  8170  0
8171  7785  7784  0
7785  8171  7786  0
7462  8163  8172  0
7462  8172  7465  0
6885  7182  8166  0
8173  7172  7466  0
7466  7779  8173  0
7781  7787  8168  0
7470  8174  7789  0
8175  8176  8177  0
8178  8176  8175  0
8175  8177  8179  0
8161  7775  7795  0
7783  8170  8180  0
7784  7791  8181  0
7784  8181  8171  0
7786  8171  7792  0
7468  7793  8182  0
7468  8182  8183  0
7172  8173  7469  0
7787  7788  8184  0
7787  8184  8168  0
8175  8179  7804  0
8175  7804  7802  0
8175  7802  8178  0
8179  7795  7806  0
8179  7806  7804  0
7795  7794  7806  0
7783  8180  7790  0
7790  8180  8185  0
8181  7791  8186  0
7467  7792  7796  0
7182  7808  8166  0
7182  7477  7808  0
7469  8173  7799  0
7788  7478  8184  0
7479  8187  7800  0
7801  8188  7802  0
8178  7802  8188  0
7801  7803  8189  0
7801  8189  8188  0
7804  7806  7805  0
8190  7790  8185  0
7790  8190  7471  0
7471  8190  7472  0
8186  7472  8190  0
7472  8186  7791  0
7796  8191  7476  0
6897  7798  7496  0
7488  7799  7829  0
7478  8192  8184  0
7480  8193  7809  0
7803  7811  8189  0
7496  7798  7828  0
7510  8194  7808  0
8192  7478  7815  0
7202  7816  8195  0
7202  8195  7817  0
7816  7818  8196  0
7203  7506  8197  0
7203  8197  7818  0
7810  7820  7811  0
7811  7820  8198  0
7811  8198  8189  0
7813  7814  7834  0
7495  7196  8199  0
7495  8199  7827  0
7196  7828  8199  0
7504  7829  8200  0
7504  8200  7511  0
7815  7838  8192  0
7852  8192  7838  0
8201  7830  7817  0
7506  7507  8197  0
7840  8197  7507  0
7833  8202  7820  0
8203  8202  7833  0
8204  8205  7834  0
7834  7814  8204  0
7814  7823  8204  0
7835  8204  7823  0
7825  7826  8206  0
7827  8206  7826  0
7847  8194  7510  0
7511  8200  7849  0
8207  7508  7819  0
7833  7842  8203  0
8208  8203  7842  0
7822  7834  7845  0
8205  7845  7834  0
8209  7846  7825  0
7825  8206  8209  0
7849  7857  7848  0
7849  8200  7857  0
7857  8210  7851  0
7851  8210  7852  0
7839  7830  7859  0
7859  7830  8201  0
8211  7840  7513  0
7508  8207  7841  0
8205  8204  8212  0
8213  8212  8204  0
7835  8213  8204  0
7847  7856  8214  0
7860  8215  7513  0
7513  8215  8211  0
7509  7841  8216  0
7509  8216  7516  0
8212  7854  7845  0
7845  8205  8212  0
8213  7835  8217  0
7855  8217  7835  0
7514  7846  7864  0
7846  8209  8218  0
7846  8218  7864  0
7856  7865  8219  0
7532  7858  7859  0
7532  7859  8220  0
7860  7867  8221  0
7860  8221  8215  0
7516  8216  7868  0
7862  7869  8222  0
7854  8212  7880  0
8212  8213  8223  0
8213  8217  8223  0
7864  7882  7227  0
7864  8218  7882  0
7873  8224  8225  0
7873  8225  7865  0
7873  8226  8224  0
8227  7884  7886  0
7886  8228  8227  0
7886  7537  8228  0
8228  7537  8229  0
7537  7532  8220  0
7537  8220  8229  0
7869  7878  8230  0
7869  8230  8222  0
8212  8231  7880  0
8212  8223  8232  0
8212  8232  8231  0
8223  8217  7881  0
8217  7855  7881  0
7882  8233  7539  0
7883  8226  7873  0
7885  8234  7546  0
7875  7866  7887  0
7875  7887  8235  0
7875  8235  8236  0
7875  8236  7867  0
8232  8223  7891  0
8223  7881  7891  0
8233  7544  7539  0
8237  7544  8233  0
7544  8237  7540  0
7883  7540  8237  0
7546  8238  7547  0
8235  7887  8239  0
7887  7877  8240  0
7887  8240  8239  0
7878  7892  8241  0
7878  8241  8242  0
7878  8242  8230  0
8242  8243  8230  0
8242  8244  8243  0
7879  7880  7894  0
7880  8231  7902  0
8231  8232  7895  0
8231  7895  7902  0
8232  7891  7895  0
8245  8235  8239  0
8246  8236  8235  0
8239  8240  8245  0
7892  8247  8241  0
7907  8241  8247  0
8241  7907  8242  0
7908  8242  7907  0
8242  7908  8244  0
7902  7894  7880  0
7547  8248  7904  0
7559  8249  7896  0
7559  8250  8249  0
8251  8249  8250  0
7896  8249  7897  0
7913  7897  8249  0
7898  7897  7913  0
8235  8245  8246  0
7906  8247  7892  0
8247  7906  7907  0
7900  7907  7906  0
8252  7908  7910  0
7908  8252  8244  0
8253  8244  8252  0
8254  7551  7911  0
7927  7904  8248  0
7558  8250  7559  0
7558  7564  8250  0
8249  8251  7913  0
7914  7913  8251  0
7250  7915  7919  0
7556  7916  7912  0
7904  7927  7566  0
8255  7927  8256  0
8250  7564  8257  0
8258  8251  8259  0
8251  8258  7914  0
7917  7918  7910  0
8260  7910  7918  0
7910  8260  8252  0
8253  8252  8260  0
7916  7563  8261  0
8262  8261  7563  0
7564  7920  8257  0
8258  8259  8263  0
8259  8264  8263  0
8258  8265  7914  0
7922  8266  8267  0
7922  8267  7918  0
7918  8267  8260  0
7563  7926  8262  0
7927  8255  8268  0
7927  8268  7928  0
8269  8270  8263  0
8269  8263  8264  0
8263  8270  8258  0
8258  8270  8271  0
8258  8271  8265  0
8265  8271  7932  0
8265  7932  7914  0
7914  7932  7571  0
7922  7924  8272  0
7922  8272  8266  0
7925  7919  8273  0
7925  8273  7576  0
7928  8268  8274  0
7928  8274  7578  0
8270  8269  8275  0
8271  7943  7932  0
7932  7943  7590  0
7924  7937  8276  0
7924  8276  8272  0
7930  7940  8277  0
7930  8277  7926  0
7578  8274  7941  0
7931  7942  8278  0
8275  8279  8270  0
8275  8280  8279  0
8270  8279  8271  0
8271  8279  8281  0
8271  8281  7943  0
7943  8281  7944  0
7582  7945  8282  0
7582  8282  7933  0
7933  8282  7934  0
7934  7947  7935  0
8276  7937  8283  0
8276  8284  8272  0
7937  7936  8283  0
7939  8285  7938  0
7939  7576  8273  0
7948  7955  7940  0
7940  7955  8286  0
7940  8286  8277  0
7941  8287  7593  0
7950  8278  7942  0
7950  7949  8288  0
7954  8289  8290  0
7954  7963  8289  0
7954  8290  8291  0
7954  8291  7946  0
7946  8291  7945  0
7592  7947  7599  0
8276  8292  8284  0
7936  7938  8293  0
7936  8293  8294  0
7936  8294  8283  0
7938  8285  8293  0
7955  7956  8286  0
8286  7956  8295  0
7593  8287  7594  0
7957  7594  8287  0
8296  7949  7957  0
8288  7949  8296  0
7958  7959  8297  0
7958  8297  8298  0
7958  8298  7960  0
7962  8299  7961  0
7962  7953  8299  0
7953  7944  8299  0
7964  8289  7963  0
8300  8289  7964  0
8301  7966  7965  0
7965  7599  8302  0
8276  8303  8292  0
8276  8283  8294  0
8276  8294  8303  0
8304  7956  7968  0
7956  8304  8295  0
8295  8304  8305  0
8306  8305  8304  0
7606  7607  7969  0
7607  7608  8307  0
7959  7961  8308  0
7961  8299  8308  0
7609  7973  7964  0
7973  8300  7964  0
8309  8300  7973  0
7970  7971  7981  0
8301  8310  7971  0
7971  8310  7981  0
7971  7966  8301  0
7613  7972  7974  0
8311  7974  7972  0
7969  7607  8312  0
8307  8312  7607  0
7618  7979  7973  0
8313  7973  7979  0
7981  8310  7621  0
8314  7621  8310  0
7968  7624  8304  0
7626  8304  7624  0
7975  7974  8311  0
8315  7975  8311  0
7621  8314  7980  0
8316  7980  8314  0
7626  7628  8317  0
7628  7982  8318  0
7991  8318  7982  0
7983  7975  8319  0
8315  8319  7975  0
8320  7983  8319  0
7630  7984  7985  0
8321  7985  7984  0
7985  8322  7616  0
7986  7616  8322  0
8323  7311  7986  0
7311  8323  7976  0
7976  8323  7977  0
8316  7987  7980  0
8324  7988  7987  0
7633  7991  7982  0
7983  8320  7984  0
7989  7988  8325  0
8324  8325  7988  0
8326  7999  8327  0
7999  8328  8000  0
7999  8326  8328  0
7634  7989  7992  0
8329  7992  7989  0
7989  8325  8330  0
7989  8330  8329  0
7994  7993  8331  0
8003  8331  7993  0
7995  7994  8327  0
7995  8327  7999  0
8000  8332  8006  0
8013  8006  8332  0
8000  8328  8333  0
8000  8333  8332  0
7636  8334  7990  0
7990  8334  8335  0
8013  8332  8336  0
8334  7636  8007  0
8334  8007  8337  0
8334  8337  8338  0
7639  8008  7640  0
8008  7324  8339  0
7324  8009  8339  0
8001  8010  8009  0
8010  7328  8011  0
7992  8329  8012  0
8004  8013  8340  0
8004  8340  8005  0
8013  8336  8340  0
8007  7638  8337  0
8341  8015  7644  0
8341  7644  7640  0
7640  8008  8341  0
8011  8342  8010  0
8011  7641  8014  0
8011  8014  8342  0
8012  8016  7648  0
8012  8329  8343  0
8012  8343  8016  0
8344  7638  7643  0
8344  7643  8019  0
8344  8337  7638  0
8015  8341  8345  0
8014  7647  8346  0
8016  8343  8347  0
8016  8347  7649  0
8018  7657  8348  0
8017  8025  7660  0
8017  8018  8349  0
8017  8349  8025  0
8025  8350  8024  0
8025  8349  8351  0
8025  8351  8350  0
8350  8352  8024  0
8352  8353  8024  0
8352  8350  8354  0
8352  8354  8353  0
8353  8354  8355  0
7650  8020  8356  0
7650  8356  8019  0
8019  8356  8357  0
8019  8357  8344  0
8015  8028  7333  0
8015  8345  8028  0
7647  8021  8346  0
7649  8347  7653  0
8022  8348  7657  0
8024  8353  8026  0
8353  8355  8026  0
8020  7665  8356  0
8356  7665  8358  0
8356  8358  8357  0
8028  8359  8029  0
7664  8026  8037  0
7665  7670  8358  0
8360  8032  7661  0
8033  8027  8361  0
8027  8034  8361  0
8034  7667  8362  0
8039  7668  8029  0
7652  8030  8021  0
8031  8035  8363  0
8035  8036  8364  0
8035  8364  8363  0
8358  7670  8365  0
7670  7341  8366  0
7670  8366  8365  0
7667  8367  8362  0
7341  8041  8368  0
8366  7341  8368  0
8369  7674  8038  0
7667  7675  8367  0
8370  8040  7673  0
7345  8042  7681  0
8371  7681  8042  0
7676  7677  8372  0
8043  8372  7677  0
7678  7674  8369  0
7675  7679  8373  0
8040  8370  8046  0
7680  7683  8041  0
8374  8041  7683  0
8369  8047  7678  0
8050  8374  7683  0
7350  7681  8051  0
8375  8051  7681  0
8044  8049  8376  0
8377  8376  8049  0
7682  8047  8053  0
8047  8378  8053  0
8379  8053  8378  0
8374  8050  7687  0
7352  8051  8055  0
8049  8052  8377  0
8380  8377  8052  0
8052  8053  8379  0
8052  8379  8380  0
8054  8381  7687  0
8054  8382  8381  0
7688  8055  8059  0
8056  8382  8054  0
8383  8056  8057  0
8061  8383  8057  0
8058  8060  8065  0
8383  8061  8384  0
8064  8384  8061  0
8060  8385  8065  0
8065  8062  8058  0
8384  8064  8386  0
8387  8386  8064  0
8388  8064  8063  0
8064  8388  8389  0
8390  8391  8066  0
8067  8066  8391  0
8390  8066  8392  0
8393  8392  8066  0
8068  8393  8066  0
8067  8394  8069  0
8067  8069  7696  0
8067  8391  8394  0
8393  8068  8395  0
8068  7699  8395  0
8069  8394  8396  0
8069  8396  8071  0
7699  8397  8395  0
8072  8398  8073  0
8072  8071  8399  0
8072  8399  8398  0
8073  8400  8070  0
8070  8400  8074  0
7699  7698  8401  0
7699  8401  8397  0
8073  8398  8400  0
8074  8400  8402  0
8074  8402  8076  0
7698  7379  7705  0
7698  7705  8403  0
7698  8403  8401  0
7705  8077  8403  0
8402  8082  8080  0
8402  8080  8076  0
8077  8078  8403  0
8078  8087  8404  0
8086  8094  8090  0
8086  8090  7720  0
8087  7722  8098  0
8087  8098  8405  0
8088  8079  8406  0
8094  8093  8407  0
8090  8408  8095  0
8090  8094  8409  0
8090  8409  8408  0
8088  8410  8091  0
8088  8406  8410  0
8411  8410  8406  0
8093  8101  8407  0
7400  8412  8102  0
7400  8108  8412  0
7726  8105  8113  0
8097  7729  8413  0
8097  8413  8098  0
8414  8410  8411  0
8100  8415  8101  0
8416  7730  8095  0
8412  8108  8417  0
8108  8107  8417  0
8102  8418  8103  0
8419  8103  8418  0
8103  8419  8109  0
7733  8116  8104  0
8420  8104  8116  0
8421  8104  8420  0
8104  8421  8105  0
8105  8421  8113  0
7729  7740  8413  0
8114  8091  8410  0
7730  8416  8106  0
8422  8106  8416  0
8107  7413  8423  0
8424  7413  7741  0
8116  8425  8420  0
8426  7735  8113  0
7740  8118  8413  0
8427  8114  8410  0
8114  8428  8099  0
8429  8099  8428  0
8099  8429  8100  0
8430  8100  8429  0
8100  8430  8415  0
7741  7742  8424  0
8110  8112  8111  0
8431  8111  8112  0
8111  8431  8115  0
8425  8116  8115  0
7735  8426  8117  0
8114  8427  8428  0
8428  8432  8429  0
8106  8422  7746  0
8125  7746  8422  0
8422  8433  8125  0
8424  7742  8434  0
8435  7739  8119  0
7739  8435  7745  0
8120  7745  8435  0
8428  8427  8436  0
8428  8436  8432  0
8432  8437  8429  0
8429  8437  8430  0
8430  8437  8438  0
8125  8433  8126  0
8126  8433  8439  0
8126  8439  8127  0
7742  8121  8434  0
8440  8434  8121  0
8121  7754  8440  0
8129  8440  7754  0
8122  8123  8441  0
8123  8124  8442  0
8432  8436  8437  0
8127  8439  8443  0
8127  8443  8128  0
8122  8441  8130  0
8444  8130  8441  0
8445  8441  8123  0
8123  8442  8445  0
8132  8442  8124  0
8124  7749  8132  0
8128  8136  7434  0
8128  8443  8136  0
8446  8447  8129  0
8129  8134  8446  0
8131  7755  8135  0
8136  8448  8137  0
8134  8449  8446  0
8130  8444  8450  0
8130  8450  7759  0
8135  8138  8451  0
8137  8452  8140  0
8137  8448  8453  0
8137  8453  8452  0
8134  8133  8454  0
8134  8454  8449  0
7759  8450  8455  0
7759  8455  7763  0
8451  8138  8456  0
8138  8141  8456  0
8140  8452  8457  0
8452  8458  8457  0
8452  8453  8458  0
8133  7758  8459  0
8133  8459  8454  0
7763  8455  8460  0
8141  7764  8143  0
8141  8143  8461  0
8142  8140  8462  0
8140  8457  8463  0
8140  8463  8462  0
8457  8458  8464  0
8465  8466  8467  0
8465  8467  8468  0
8465  8469  8466  0
8465  8468  8470  0
8465  8470  8469  0
8466  8471  8467  0
8466  8469  8472  0
8466  8472  8471  0
8471  8473  8467  0
8471  8472  8473  0
8473  8472  8474  0
8473  8474  8475  0
8475  8144  8145  0
8475  8474  8144  0
8144  8474  8476  0
8144  8476  8146  0
7758  7762  8148  0
7758  8148  8477  0
7758  8477  8459  0
7763  8460  8150  0
8457  8464  8463  0
8478  8463  8464  0
8468  8467  8479  0
8467  8480  8479  0
8467  8473  8481  0
8467  8481  8480  0
8473  8475  8482  0
8473  8482  8481  0
8475  8145  8482  0
8146  8476  8147  0
8483  8147  8476  0
8148  8149  8484  0
8148  8484  8477  0
8151  8485  7768  0
8143  7768  8485  0
8142  8156  7446  0
8142  8462  8486  0
8142  8486  8156  0
8462  8463  8478  0
8462  8478  8486  0
8479  8480  8487  0
8480  8481  8487  0
8482  8145  8152  0
8488  8147  8483  0
8155  8489  8154  0
8490  8154  8489  0
8155  7456  7773  0
8155  7773  8489  0
8154  8490  8151  0
8491  8156  8486  0
8487  8481  8492  0
8481  8482  8493  0
8481  8493  8492  0
8482  8152  8493  0
8147  8488  8494  0
8147  8494  7771  0
8495  8159  8150  0
8156  8491  8160  0
8164  8160  8491  0
8487  8492  8496  0
8497  8496  8492  0
8169  8492  8493  0
8493  8152  8169  0
8161  8169  8152  0
7771  8494  7776  0
8498  7776  8494  0
8153  8157  8499  0
8162  8499  8157  0
8153  8499  8149  0
8159  8495  8163  0
7774  8160  8164  0
8492  8500  8176  0
8492  8176  8497  0
8177  8500  8492  0
8492  8169  8177  0
8501  7776  8498  0
8165  8499  8162  0
8502  8163  8495  0
8168  7779  8167  0
8164  8503  7782  0
8177  8176  8500  0
8177  8169  8179  0
7795  8179  8169  0
7776  8501  8170  0
8165  7468  8183  0
8165  8183  8504  0
8163  8502  8172  0
8505  8173  7779  0
7779  8168  8505  0
7470  7782  8174  0
8503  8174  7782  0
8176  8178  8497  0
8506  8497  8178  0
8170  8501  8180  0
8507  8180  8501  0
8181  8508  8171  0
8509  8183  8182  0
8172  8502  8510  0
8172  8510  7465  0
8505  8168  8511  0
8184  8511  8168  0
7789  8174  8512  0
7789  8512  7479  0
8180  8507  8185  0
8181  8186  8508  0
7792  8171  8513  0
7792  8513  7796  0
8182  7793  8514  0
8182  8514  8509  0
7465  8510  8515  0
7465  8515  7798  0
7808  8516  8166  0
8517  7799  8173  0
8173  8505  8517  0
7479  8512  8187  0
8187  8518  7800  0
7800  8518  7480  0
7480  8518  8519  0
7480  8519  8193  0
8188  8520  8506  0
8188  8506  8178  0
8188  8189  8521  0
8188  8521  8520  0
8185  8522  8190  0
7796  8513  8191  0
7476  8191  8523  0
7476  8523  7797  0
7797  8523  8514  0
7797  8514  7793  0
7798  8515  7828  0
7799  8517  7829  0
8511  8184  8192  0
8511  8192  8524  0
8185  8507  8525  0
8185  8525  8522  0
8190  8522  8526  0
8190  8526  8186  0
7828  8515  8527  0
7808  8194  8528  0
7808  8528  8516  0
7829  8529  8200  0
7829  8517  8530  0
7829  8530  8529  0
7818  8197  8531  0
7818  8531  8196  0
7809  8193  8532  0
7809  8532  7819  0
8189  8533  8521  0
8189  8198  8534  0
8189  8534  8533  0
7828  8527  8535  0
7828  8535  8199  0
8194  8536  8528  0
8200  8529  8537  0
8529  8538  8537  0
8529  8530  8524  0
8529  8524  8538  0
8538  8192  7852  0
8538  8524  8192  0
8539  8201  7817  0
7817  8195  8539  0
8197  8540  8531  0
8197  7840  8540  0
8202  8541  7820  0
8542  7820  8541  0
8202  8203  8541  0
7820  8542  8198  0
8534  8198  8542  0
8194  7847  8536  0
8200  8537  7857  0
8537  8210  7857  0
8537  8538  8210  0
8538  7852  8210  0
8201  8539  8543  0
7819  8532  8207  0
8544  8207  8532  0
8203  8208  8545  0
8203  8545  8541  0
8206  7827  8546  0
8206  8546  8209  0
7827  8199  8547  0
7827  8547  8546  0
8199  8535  8548  0
8199  8548  8547  0
8549  8547  8548  0
8535  8550  8548  0
7847  8214  8536  0
8551  7859  8201  0
8551  8201  8543  0
8211  8540  7840  0
8552  8207  8544  0
7842  7862  8208  0
8553  8208  7862  0
8208  8553  8545  0
8554  8545  8553  0
8555  8556  8553  0
8553  8556  8554  0
8209  8546  8557  0
8549  8546  8547  0
7856  8219  8214  0
7859  8551  8220  0
8558  8220  8551  0
8207  8552  7841  0
7841  8552  8216  0
8222  8553  7862  0
8553  8222  8555  0
8559  8555  8222  0
8560  8218  8209  0
8209  8557  8560  0
8561  8560  8557  0
8562  8219  8225  0
7865  8225  8219  0
8558  8229  8220  0
8563  8211  8215  0
8559  8222  8564  0
8218  8560  7882  0
8233  7882  8560  0
8560  8561  8233  0
8565  8566  8234  0
8238  8234  8566  0
8234  7885  8567  0
7884  8567  7885  0
8234  8567  8565  0
8567  7884  8227  0
8227  8228  8568  0
8229  8568  8228  0
8215  8221  8563  0
8569  8563  8221  0
8216  8570  7868  0
7877  7868  8570  0
8216  8571  8570  0
8222  8230  8564  0
8233  8561  8237  0
8237  8561  7883  0
7883  8561  8226  0
7546  8234  8238  0
8221  7867  8572  0
8236  8572  7867  0
8221  8572  8569  0
8570  8240  7877  0
8570  8571  8573  0
8570  8573  8240  0
8564  8230  8243  0
8564  8243  8559  0
8559  8243  8574  0
8238  8575  7547  0
8572  8576  8577  0
8572  8236  8576  0
8240  8573  8578  0
8243  8244  8579  0
8574  8243  8580  0
7547  8575  8248  0
8576  8246  8581  0
8576  8236  8246  0
8240  8578  8245  0
8243  8579  8580  0
8580  8582  8574  0
8246  8583  8581  0
8246  8245  8583  0
8244  8253  8579  0
8248  8256  7927  0
8253  8584  8579  0
8579  8584  8580  0
8580  8584  8582  0
7551  8254  7915  0
8254  7911  8585  0
8254  8585  8586  0
7903  7912  8587  0
7903  8587  7911  0
7912  7916  8588  0
7912  8588  8587  0
8250  8259  8251  0
8260  8589  8253  0
8253  8589  8584  0
8254  8586  7915  0
7916  8261  8590  0
7916  8590  8588  0
8257  7920  8264  0
8257  8264  8250  0
8250  8264  8259  0
8260  8267  8589  0
8589  8591  8584  0
7919  7915  8592  0
7915  8586  8592  0
7920  7929  8269  0
7920  8269  8264  0
8593  8266  8272  0
8266  8591  8267  0
8266  8593  8591  0
8594  8591  8593  0
8267  8591  8589  0
8595  7919  8592  0
8596  8262  7926  0
8268  8597  8274  0
8598  7929  7931  0
7929  8598  8269  0
8275  8269  8598  0
8593  8272  8594  0
8599  8594  8272  0
8595  8273  7919  0
8596  7926  8277  0
7941  8274  8600  0
8601  7931  8278  0
7931  8601  8598  0
8598  8601  8275  0
8280  8275  8601  0
7945  8602  8282  0
8603  8282  8602  0
8282  8604  7934  0
7947  7934  8604  0
8282  8603  8604  0
8605  8604  8603  0
7939  8273  8285  0
8277  8286  8596  0
8596  8286  8305  0
8600  8606  7941  0
8287  7941  8606  0
8607  8606  8600  0
7950  8288  8278  0
8298  8278  8288  0
8278  8608  8601  0
8278  8298  8608  0
8609  8608  8298  0
8601  8608  8280  0
8610  8280  8608  0
8280  8611  8279  0
8299  8279  8611  0
8279  8299  8281  0
7944  8281  8299  0
8290  8289  8612  0
8290  8613  8291  0
8614  8291  8613  0
8291  8614  7945  0
8602  7945  8614  0
8604  8302  7947  0
7599  7947  8302  0
8604  8605  8302  0
8615  8302  8605  0
8616  8294  8293  0
8293  8285  8616  0
8273  8617  8285  0
8305  8286  8295  0
8606  8607  8287  0
8618  8287  8607  0
8287  8618  7957  0
8619  7957  8618  0
7957  8619  8296  0
8620  8296  8619  0
8296  8620  8288  0
8621  8288  8620  0
8288  7960  8298  0
8288  8621  7960  0
8622  7960  8621  0
8298  8297  8609  0
8308  8297  7959  0
8610  8609  8297  0
8297  8308  8610  0
8280  8308  8611  0
8299  8611  8308  0
8280  8610  8308  0
8623  8289  8300  0
8612  8289  8623  0
8615  8301  7965  0
7965  8302  8615  0
8624  8292  8303  0
8303  8294  8624  0
8305  8306  8625  0
8626  8307  7608  0
7608  7960  8626  0
8622  8626  7960  0
8300  8309  8623  0
8627  8310  8628  0
8627  8628  8629  0
8310  8301  8628  0
8301  8630  8628  0
8301  8615  8630  0
8306  8631  8625  0
7972  7969  8632  0
7972  8632  8633  0
7972  8633  8311  0
7969  8312  8632  0
8307  8626  8312  0
7973  8634  8309  0
7973  8313  8634  0
8635  8314  8310  0
8635  8310  8627  0
8635  8627  8636  0
8635  8636  8314  0
8304  7626  8317  0
8304  8317  8306  0
8306  8317  8637  0
8306  8637  8631  0
8638  8319  8315  0
8638  8315  8311  0
8638  8311  8639  0
8638  8639  8319  0
7979  8640  8313  0
7979  7978  8641  0
7979  8641  8640  0
8316  8314  8636  0
8316  8636  8642  0
8316  8642  8643  0
8316  8643  7987  0
8317  7628  8644  0
8317  8644  8637  0
7628  8318  8644  0
8319  8639  8645  0
8319  8645  8320  0
7985  8321  8322  0
8322  8646  7986  0
8323  8647  7977  0
7977  8647  8641  0
7977  8641  7978  0
7987  8643  8324  0
7991  7990  8648  0
7991  8648  8318  0
7984  8320  8321  0
8321  8646  8322  0
7986  8646  8649  0
7986  8649  8323  0
8324  8650  8325  0
8324  8643  8651  0
8324  8651  8650  0
8650  8651  8652  0
8327  8653  8326  0
8326  8653  8654  0
8326  8654  8328  0
8328  8654  8655  0
8328  8655  8333  0
8333  8656  8657  0
8333  8655  8656  0
8658  7990  8335  0
8658  8648  7990  0
8325  8650  8659  0
8325  8659  8330  0
8331  8660  7994  0
7994  8660  8653  0
7994  8653  8327  0
8333  8657  8332  0
8661  8662  8663  0
8661  8663  8664  0
8661  8335  8334  0
8661  8334  8662  0
8330  8665  8329  0
8330  8659  8665  0
8659  8650  8666  0
8659  8666  8667  0
8659  8667  8665  0
8003  8668  8331  0
8003  8002  8669  0
8003  8669  8668  0
8002  8005  8670  0
8002  8670  8669  0
8340  8670  8005  0
8332  8657  8671  0
8332  8671  8336  0
8672  8663  8662  0
8338  8662  8334  0
8667  8673  8665  0
8340  8336  8674  0
8671  8674  8336  0
8675  8676  8677  0
8678  8677  8676  0
8679  8677  8678  0
8680  8672  8662  0
8662  8338  8680  0
8681  8338  8337  0
8341  8008  8682  0
8683  8682  8008  0
8008  8339  8683  0
8009  8010  8684  0
8685  8684  8010  0
8010  8342  8685  0
8329  8665  8343  0
8686  8343  8665  0
8665  8673  8686  0
8351  8349  8687  0
8688  8687  8349  0
8687  8689  8351  0
8690  8354  8691  0
8354  8675  8692  0
8354  8690  8675  0
8675  8677  8692  0
8679  8692  8677  0
8337  8344  8681  0
8357  8681  8344  0
8341  8693  8345  0
8694  8685  8342  0
8342  8014  8694  0
8695  8694  8014  0
8014  8346  8695  0
8696  8695  8346  0
8343  8686  8697  0
8343  8697  8347  0
8698  8018  8348  0
8018  8688  8349  0
8691  8350  8351  0
8350  8691  8354  0
8354  8692  8355  0
8699  8355  8692  0
8692  8700  8699  0
8701  8699  8700  0
8692  8679  8700  0
8359  8028  8345  0
8702  8696  8346  0
8347  8697  7653  0
8703  7653  8697  0
8704  8348  8022  0
8348  8704  8698  0
8705  8698  8704  0
8355  8699  8026  0
8706  8026  8699  0
8357  8358  8707  0
8346  8021  8702  0
8030  7653  8708  0
8703  8708  7653  0
8022  8023  8704  0
8031  8704  8023  0
8704  8031  8705  0
8363  8705  8031  0
8709  8705  8363  0
8037  8026  8706  0
8365  8707  8358  0
7661  8033  8360  0
8361  8034  8710  0
8362  8710  8034  0
8039  8029  8359  0
8021  8030  8711  0
8363  8364  8709  0
8036  8037  8706  0
8036  8706  8712  0
8036  8712  8364  0
8032  8360  8038  0
8713  8038  8360  0
8714  8368  8041  0
8038  8715  8369  0
8038  8713  8715  0
7675  8373  8367  0
7673  8716  8370  0
8042  7676  8717  0
8042  8717  8371  0
7676  8372  8717  0
8372  8043  8718  0
8043  8044  8376  0
8043  8376  8719  0
8043  8719  8718  0
