#!ascii file
-20.340857   54.247650   24.830221  0
-32.072605   53.626839   28.453743  0
-34.681789   53.039124   28.626635  0
-33.363743   53.617859   28.553928  0
 -8.203962   51.643661   23.901590  0
 -8.699847   51.850941   22.888216  0
-17.942032   53.714298   24.842142  0
-22.726465   54.730034   24.365801  0
-23.727757   54.129318   24.329002  0
-21.608269   54.799850   24.534664  0
-24.661238   55.190784   25.864828  0
-27.147259   55.384708   26.478849  0
-29.547709   55.629074   26.636288  0
-28.593752   55.634983   26.815439  0
-36.008766   54.275906   28.417681  0
-20.014921   54.247620   22.883102  0
-30.311615   55.173077   25.439028  0
-31.336981   55.698318   24.827646  0
-31.750307   56.328686   26.414173  0
-36.633232   52.926746   28.326178  0
-37.433361   53.142811   27.791826  0
-37.066616   55.479561   27.389109  0
-32.098248   55.665821   23.818394  0
-33.350975   57.235504   26.046515  0
-33.359455   56.858444   24.331295  0
-38.558041   54.795818   26.095697  0
-39.148983   55.620995   24.725088  0
-34.204086   57.636822   23.638060  0
-32.402813   56.754749   22.229954  0
-33.996952   58.322319   22.590330  0
-38.897808   56.492840   23.110697  0
 -8.126403   52.012760   20.049444  0
-19.362625   53.195950   21.228104  0
-32.950523   58.591591   21.655508  0
-38.552963   54.456467   20.708977  0
-37.933334   57.158825   21.307901  0
-20.901911   52.289455   20.803614  0
-32.210201   58.583153   20.605541  0
-37.889748   55.713654   19.988468  0
-37.363926   54.323284   19.117455  0
-21.974787   52.897068   20.591202  0
-24.375614   51.535595   21.157534  0
-27.333937   51.042282   20.114985  0
-28.524046   51.463406   18.830086  0
-31.330658   57.470078   19.830978  0
-37.583794   51.885277   17.385721  0
-36.963726   53.348030   18.180820  0
-28.214752   51.012318   16.861553  0
-29.503580   54.567375   17.355349  0
-27.825190   52.847469   15.070084  0
-40.319447   48.958714   14.310046  0
-41.432552   49.963444   14.498224  0
-41.014465   51.032520   15.618520  0
-42.301876   51.640125   14.922501  0
 -9.563840   52.312813   12.927440  0
-39.874783   49.238220   12.599283  0
-42.811279   50.969162   14.360229  0
-26.686125   52.620102   13.586690  0
-41.960926   49.817268   13.253268  0
 -0.011457   53.087753   13.334682  0
 -1.726974   53.598064   13.830252  0
 -4.294846   53.663883   13.183083  0
 -7.064790   52.546432   12.320104  0
 -8.388882   52.713772   11.992117  0
 -9.335673   52.953758   12.250686  0
-22.394655   53.250549   10.776315  0
  0.405829   52.173321   11.291849  0
  0.264879   51.190720    8.999576  0
 -0.070297   49.630070    7.742717  0
 -1.425351   49.231716    6.504758  0
 -3.392404   49.137779    6.437237  0
-39.705551   49.504250   10.731336  0
-42.434650   49.349815   11.606506  0
-44.884495   50.026909   11.584164  0
 -0.178374   50.427265    7.095751  0
 -6.911909   49.828148    6.919800  0
-46.454952   50.459141   10.677662  0
-47.663975   52.104259    9.389304  0
 -6.657752   49.953098    6.123756  0
-48.684845   52.818230    7.750993  0
-49.089130   52.632648    6.206629  0
-41.156685   51.608963    3.992913  0
-40.272453   51.927425    3.736742  0
-45.234272   52.783188    4.476780  0
-40.645493   51.205360    2.697426  0
-41.758221   50.779629    2.044706  0
-44.382664   50.290020    0.785366  0
-10.559088   51.785042   -1.167849  0
-46.030159   51.622318   -0.331827  0
-35.375748   50.167595   -2.292947  0
-39.385174   48.485493   -2.396113  0
-37.129131   50.174564   -2.501562  0
-39.908665   50.679359   -3.430876  0
-41.501484   49.396400   -3.389608  0
-44.951443   49.169655   -3.623561  0
-46.572315   49.994301   -3.208399  0
-46.941666   51.244881   -2.478146  0
-10.154268   52.058712   -4.619854  0
-43.280022   49.212399   -3.750589  0
-45.462982   50.637398   -4.255839  0
 -9.822319   51.994007   -7.092498  0
-35.365944   50.779766   -3.514615  0
 -9.912137   51.613140  -10.597216  0
-39.654621   54.469105  -12.949767  0
 -9.820403   52.417088  -10.547995  0
-35.687126   54.117016  -13.260791  0
-37.321117   54.046455  -13.261535  0
-38.240349   54.104279  -13.490513  0
-39.231857   54.231411  -13.775236  0
-41.297016   55.150913  -13.334538  0
-43.128296   54.996033  -13.889778  0
 -8.940833   51.852016  -13.278996  0
-40.254959   54.539814  -14.137226  0
-41.427914   54.456722  -15.303551  0
-43.744923   54.711819  -15.029893  0
-35.088573   52.447418  -14.301621  0
-36.503387   51.917572  -15.624002  0
 -0.382620   51.452389  -16.102472  0
 -1.738419   50.746021  -14.810855  0
 -1.088674   52.261139  -15.405908  0
 -5.177816   49.764908  -14.867339  0
 -4.270322   50.431087  -13.933016  0
 -7.506811   50.820435  -14.763720  0
-38.790936   51.904057  -17.260273  0
 -0.618379   51.592819  -18.186924  0
-40.655804   51.882790  -18.256910  0
-29.096136   49.721424  -22.174200  0
-31.708775   51.944580  -20.565710  0
-42.326317   52.274937  -18.986671  0
 -1.341217   52.409138  -20.768438  0
 -1.584324   52.773987  -22.242392  0
 -5.874964   53.036251  -23.036623  0
-26.869005   49.284737  -24.511051  0
-29.224768   49.871613  -24.078707  0
-30.032352   50.562370  -23.193083  0
-30.704870   50.978680  -22.001560  0
-34.426979   52.187954  -21.359676  0
-43.337570   53.794357  -19.766895  0
-45.511311   53.887600  -18.643217  0
-48.617130   54.748867  -18.654421  0
-49.476379   54.284950  -19.226826  0
-49.735161   53.578587  -19.478764  0
 -2.707594   53.099609  -23.436163  0
 -9.236783   52.555695  -20.558161  0
-21.606791   51.700558  -22.043844  0
-23.016171   50.951225  -22.335287  0
-24.248407   50.315258  -23.273800  0
-25.751499   50.153114  -24.435928  0
-34.897877   52.145401  -23.106148  0
-48.322681   53.793140  -22.156363  0
-46.648209   53.338520  -23.822281  0
-36.158157   50.293774  -28.266436  0
-43.601494   52.560310  -25.534170  0
-42.731567   52.434540  -26.049316  0
-45.229801   52.973495  -24.916670  0
-23.751333   52.477940  -29.961767  0
-35.789501   50.442471  -29.957766  0
-36.646999   49.751884  -30.495687  0
-40.955181   52.361427  -28.070234  0
-39.802128   52.206791  -29.524637  0
 -6.795093   51.978447  -25.154280  0
-22.558046   52.741196  -30.620531  0
-36.850086   50.886497  -30.620487  0
-38.638462   51.545799  -30.498329  0
 -1.291647   51.143887  -27.835663  0
 -1.178424   51.795967  -28.746775  0
 -2.507584   51.852829  -27.119261  0
 -4.200637   50.679756  -27.180580  0
-20.163830   53.081924  -30.303556  0
 -2.063494   51.835087  -30.849100  0
 -1.869046   52.492599  -32.954849  0
 -7.592028   54.558853  -33.272198  0
 -7.287687   52.849594  -33.463867  0
 -6.843093   52.802670  -34.249847  0
 -8.199804   53.996002  -32.760197  0
 -1.621237   53.181686  -34.941387  0
 -1.652527   53.069134  -35.941280  0
 -2.192545   53.574215  -35.785488  0
 -7.879338   54.426956  -33.221985  0
-15.294057   54.896252  -32.819275  0
-14.641507   54.514061  -33.731483  0
 -7.681767   54.788078  -34.173538  0
 -7.822835   55.485050  -35.315540  0
-14.167606   53.338608  -34.922474  0
-13.996602   54.271568  -36.174603  0
 -7.891616   54.221050  -35.753979  0
-12.784694   54.252373  -37.048592  0
 -8.848097   53.177532  -36.448029  0
 -6.614958   55.135731   39.022144  0
 -8.901956   54.979900   38.171131  0
 -2.059981   54.204300   36.062233  0
-11.167949   54.041298   37.475307  0
-16.505854   53.865337   37.599339  0
-14.812443   53.681385   37.702698  0
-12.531672   53.060448   37.324795  0
-19.387527   54.433239   36.761723  0
-20.076603   54.681015   35.718697  0
-21.142246   54.260811   32.960930  0
-20.809231   53.650455   31.581362  0
 -1.612850   53.432655   29.875999  0
-18.872030   53.462864   29.752270  0
-17.952385   53.846130   28.454437  0
 -0.807480   52.452583   27.559509  0
 -0.746566   52.337734   26.038265  0
-23.571989   56.708664   29.747549  0
-24.304850   56.798279   30.361147  0
-23.367373   56.284794   28.363064  0
-26.511215   56.081898   30.304951  0
-28.114605   55.905174   29.082054  0
 -1.831444   51.873871   24.336781  0
-17.956493   53.842903   26.928310  0
-22.058643   55.162083   26.652960  0
-23.317513   55.706535   26.370914  0
-30.529810   55.214848   28.749153  0
-31.375265   54.976101   28.509081  0
-32.599773   54.914711   28.369202  0
-25.972393   56.477623   27.399628  0
-24.166840   56.587761   27.719042  0
-27.678589   56.304676   27.826763  0
-34.624855   54.606953   28.998289  0
 -7.329675   52.198444   24.025888  0
 -5.744475   52.351448   24.028055  0
-29.380182   56.003464   27.840935  0
-30.517523   56.074551   27.045206  0
-31.864321   56.080097   27.738411  0
-32.649204   57.017262   26.993446  0
-33.649872   57.118088   27.560760  0
-34.648281   57.751358   27.104364  0
-18.428541   53.693909   22.844639  0
-35.725719   57.827652   25.685261  0
-36.103317   57.327354   26.956209  0
-35.249702   56.858036   27.830299  0
-37.700356   56.422695   26.402462  0
-37.563301   57.909588   24.455833  0
-38.028877   56.732239   25.659502  0
-36.611614   58.513287   22.883072  0
-18.672749   53.867771   21.779676  0
-35.352051   58.978870   21.570976  0
-33.502151   59.302948   20.563118  0
-36.556568   58.581024   20.741491  0
-36.788170   57.686241   19.629719  0
-35.018616   59.140965   20.113714  0
-37.289371   56.362972   19.300247  0
-36.510059   55.676842   18.545280  0
-20.143177   53.974571   20.749311  0
-25.842562   51.755135   21.340780  0
-23.922764   52.473278   21.229153  0
-32.721233   58.628826   19.521902  0
-36.001144   54.632126   17.444534  0
 -8.564129   51.314293   16.326527  0
 -8.224310   51.614792   17.758041  0
-22.755560   53.769253   20.956678  0
-29.155159   52.117298   17.639011  0
-28.752314   52.238941   16.349897  0
-31.670536   57.129570   19.353653  0
-35.975437   54.118916   16.304523  0
 -7.885427   52.141384   15.509710  0
-31.127934   56.434135   18.620132  0
-37.146973   53.208797   15.611165  0
-38.861565   51.779476   16.145824  0
-35.742588   54.697987   15.413745  0
 -9.227662   52.688671   14.273992  0
-27.675364   52.947899   15.379278  0
-26.058752   52.553226   14.200408  0
-37.238205   53.641132   15.111546  0
 -9.749007   53.835533   13.140245  0
-23.797541   53.267731   13.293295  0
-38.779934   52.940712   15.600956  0
-40.537342   52.319603   15.942329  0
-41.762554   52.309345   15.386919  0
-43.112404   52.932510   15.423846  0
-28.573338   54.882721   16.697523  0
-27.186708   54.320183   15.078420  0
-43.665508   52.372467   14.825376  0
-22.615900   53.152359   12.097330  0
-25.791725   54.520916   13.902640  0
-43.668839   50.680901   14.115242  0
-44.426254   51.757523   14.428924  0
 -2.752005   54.696083   13.210894  0
 -0.936947   54.427044   13.265409  0
-23.843636   54.994370   12.715120  0
-44.260647   50.444775   13.139665  0
  0.115790   53.647854   12.580036  0
  0.021402   53.853359   11.113328  0
 -5.123951   55.055653   12.822760  0
 -7.006838   54.481262   12.311957  0
-22.569288   54.384541   10.933289  0
-23.618761   54.266472   12.096231  0
-45.807404   51.709423   12.526939  0
-45.636738   52.379997   13.775783  0
-46.391144   51.767071   10.998999  0
-45.805828   53.760132   10.903056  0
  0.016433   51.601467    8.052525  0
 -0.099502   52.371372    9.066312  0
-22.421864   54.310455   11.189145  0
-22.317043   55.250683   10.194080  0
-46.807930   53.567032    9.426029  0
 -0.850049   50.180080    5.774706  0
 -0.407538   51.054783    6.010752  0
 -0.388492   51.639702    6.935350  0
 -2.578027   49.847515    5.252467  0
 -4.415826   49.535625    5.456480  0
-47.291439   54.323105    8.010033  0
 -1.528314   50.669170    4.675734  0
 -5.339914   49.823261    4.430685  0
 -3.319188   49.848038    4.311664  0
 -7.752153   50.670132    5.112065  0
 -9.169494   51.057537    4.645487  0
-46.077610   54.046200    4.991555  0
-44.838089   55.635590    5.798508  0
-42.752708   54.980457    5.527971  0
-47.390228   54.698635    6.144455  0
-41.151974   53.351528    4.504689  0
-39.768898   54.593796    5.183384  0
-39.746510   53.075691    3.077640  0
-10.463612   52.128269    0.080852  0
-44.263050   52.990368    1.015593  0
-36.593349   51.502945   -3.788868  0
-38.381382   51.456024   -3.573355  0
 -9.910373   52.749878   -4.025618  0
-38.548840   52.649250   -5.047262  0
-43.533669   50.117775   -4.198201  0
-43.683270   51.486950   -5.233256  0
-46.223503   51.576717   -3.724777  0
 -9.939808   52.950554   -6.374290  0
-38.161919   51.953884   -7.294043  0
-40.160606   54.641178  -12.271635  0
-39.177784   55.070602  -13.277412  0
-41.769970   55.070755  -14.617976  0
-34.827881   53.778038  -13.577831  0
 -7.636064   51.784325  -13.609174  0
 -2.487633   52.037460  -13.898289  0
 -1.932631   53.742981  -15.149692  0
 -1.393405   53.344742  -16.583969  0
 -3.116839   51.081558  -13.549086  0
-35.450443   53.307945  -15.136382  0
 -1.329862   52.698769  -18.172226  0
-37.306595   52.918339  -16.513830  0
 -1.558357   52.385792  -19.321913  0
-40.353516   53.542747  -19.312532  0
 -1.427075   53.975365  -20.295111  0
 -1.449169   54.453529  -22.173214  0
-41.722809   53.366905  -20.036737  0
 -3.123607   55.007366  -22.701202  0
 -4.069140   53.644718  -23.386292  0
 -5.553547   54.287205  -22.308388  0
 -8.173141   53.869625  -20.197306  0
-10.445455   53.656780  -20.955452  0
-10.029487   53.725868  -19.739752  0
-28.698442   49.853546  -25.762177  0
-30.075811   51.478649  -25.373922  0
-30.362576   51.781555  -23.387281  0
-30.801289   51.982422  -21.624435  0
-31.742119   53.285698  -20.504522  0
-32.994972   53.216953  -20.689796  0
-45.104065   54.787956  -19.518873  0
-47.771774   55.521141  -19.663078  0
-23.914646   51.604759  -22.495516  0
-24.959839   51.531509  -23.701021  0
-26.242800   51.393612  -25.600491  0
-27.620821   50.538498  -26.782003  0
-28.345247   50.078300  -26.574759  0
-27.453018   51.859669  -27.398617  0
-29.144606   50.649666  -27.512728  0
-33.509277   53.578495  -21.863091  0
-42.488789   54.735714  -20.576496  0
-44.441971   55.362213  -20.509951  0
-46.351036   55.780197  -20.340334  0
-48.707626   55.424152  -20.518860  0
-49.071999   54.745956  -21.116209  0
-21.099869   52.994717  -22.547745  0
-21.238331   52.476349  -24.787653  0
-34.298443   52.782944  -24.714209  0
 -9.847940   54.063343  -21.892349  0
-28.428921   50.344692  -28.062723  0
-27.794724   51.294956  -27.890537  0
-34.597141   51.934914  -27.077967  0
-47.857563   55.557117  -22.917118  0
-46.755493   54.371964  -24.727341  0
-34.393269   51.592369  -29.165026  0
-45.422047   54.025318  -25.658598  0
-44.212120   54.137493  -26.533102  0
-42.479954   53.250454  -26.458843  0
-23.184225   52.613880  -27.445873  0
-34.323929   51.716705  -30.146046  0
-42.067429   54.147545  -27.414618  0
-40.484146   54.130112  -29.128225  0
-24.126966   53.367313  -28.830828  0
-35.367805   51.743591  -30.703939  0
-34.342953   52.524929  -30.642685  0
-39.495663   53.243301  -29.939445  0
-38.030640   53.003540  -30.565123  0
-18.435089   54.090179  -30.176704  0
-21.834631   53.762501  -29.640127  0
-23.443264   53.337315  -29.928213  0
-35.297298   53.245430  -31.041454  0
 -1.205493   52.443909  -27.447529  0
-36.869209   54.002674  -30.966928  0
 -1.749080   52.947269  -29.721739  0
 -2.350111   52.843479  -31.491528  0
 -6.732625   53.506062  -34.216255  0
 -5.020587   54.824368  -34.726791  0
 -1.988929   53.974102  -33.361359  0
 -2.042405   54.762630  -34.515949  0
 -2.775256   54.894680  -35.189518  0
 -8.292635   56.081139  -33.899368  0
-13.853239   55.444046  -35.535179  0
 -8.340721   56.827538  -35.392094  0
-13.002264   56.162064  -36.817986  0
 -9.256973   55.648331  -36.761509  0
-11.150448   56.256233  -37.215237  0
-10.165697   53.724106  -37.063286  0
 -4.399434   56.471481   38.347649  0
 -3.158800   56.022263   38.198376  0
 -2.076422   55.579750   37.103447  0
 -1.522269   55.383564   35.850956  0
 -1.219443   55.266430   34.537613  0
 -9.106006   56.101238   37.300545  0
-18.596375   54.778690   37.184669  0
-14.714870   54.998852   37.374855  0
-17.021971   55.410305   37.429951  0
-18.229664   55.955547   37.168941  0
 -1.392785   53.692749   30.960976  0
 -0.565278   55.207748   32.163330  0
-13.468527   54.286327   37.565697  0
-20.113617   55.680569   33.508694  0
-10.589199   55.597164   37.232964  0
-20.641283   54.957108   31.702972  0
 -0.750288   53.826088   28.338604  0
 -0.670254   52.807568   24.897581  0
-24.788588   57.132389   29.125359  0
-26.161201   56.894989   29.156071  0
 -3.812009   52.382286   23.307663  0
-17.932999   54.199081   25.636208  0
-33.736645   55.851269   28.451311  0
 -6.789649   52.834087   23.263195  0
-17.266811   54.852448   24.713736  0
 -8.057573   52.581989   23.039156  0
 -8.192045   52.029953   18.826725  0
-18.808672   54.347713   20.703398  0
-24.629200   52.232162   21.876207  0
-28.656755   52.284931   20.480225  0
-29.652159   52.878395   19.126471  0
-29.489450   53.539413   17.414164  0
-34.090435   58.232090   18.591543  0
-35.167698   56.858719   18.036436  0
 -7.132081   51.895523   16.987455  0
-21.601582   54.193981   20.798313  0
-23.859480   53.141335   21.759624  0
-32.532139   57.608624   18.878653  0
-35.009605   55.636337   16.840302  0
-34.109608   56.979698   17.134266  0
 -8.164356   53.471916   14.922494  0
-26.631241   53.725101   15.017052  0
-30.259859   56.160568   18.164930  0
-35.493694   56.065556   15.602499  0
-25.098265   53.960999   14.451539  0
-36.689594   54.903271   15.028056  0
-38.266300   54.026958   15.470802  0
-40.215321   53.237885   16.390028  0
-41.932388   53.106052   16.096548  0
-22.991989   54.320293   12.867801  0
-40.080799   54.694317   17.135572  0
-41.997501   54.104321   17.196247  0
-43.680515   54.267998   16.326891  0
-44.333252   53.119064   15.511781  0
-45.062157   52.841476   14.983513  0
-44.530426   54.088596   15.540207  0
-45.436966   54.343594   14.435240  0
 -9.050366   54.502449   12.325439  0
-22.677483   55.979019   11.959827  0
-45.456612   54.653122   12.282893  0
 -0.435906   55.064907   12.377637  0
 -2.171634   55.818043   12.806519  0
 -3.609337   55.646736   13.143694  0
-22.662443   55.676804   11.479306  0
-22.391987   55.991413   10.830810  0
 -0.565527   54.064228    9.720735  0
 -1.085627   53.164284    8.272527  0
-22.284565   55.294334   10.547176  0
-46.057549   55.172958    8.951777  0
 -0.985529   52.791962    6.135253  0
 -0.828296   51.488213    5.160644  0
-46.100533   56.040524    7.425613  0
 -1.227826   52.091270    5.208712  0
 -2.153457   51.111916    4.034369  0
-45.268120   56.612423    6.823144  0
 -4.368818   49.922390    3.669799  0
 -6.052654   50.426853    3.420196  0
 -8.517241   51.510498    3.777190  0
 -9.768389   51.688793    3.050229  0
-39.200130   53.938980    4.027381  0
-40.358372   53.831722    2.522555  0
 -9.649703   52.396160    0.706896  0
-42.343876   53.045311    1.881736  0
-45.455482   53.169174    0.055700  0
-45.761654   52.799496   -1.131692  0
 -9.973948   52.779778   -1.300134  0
-41.179695   52.038353   -5.068277  0
-45.949352   52.633110   -2.712077  0
-45.618107   53.231861   -4.221395  0
-37.862034   52.545044   -5.849868  0
-45.053112   51.828144   -5.182449  0
-45.419559   52.133007   -4.553431  0
-46.176113   53.129536   -5.848635  0
-42.571758   52.183567   -6.332392  0
-44.808674   52.177963   -6.182100  0
-39.653236   52.063164   -8.799140  0
-40.772694   53.225433  -10.661466  0
-34.855896   55.051437  -12.904799  0
-35.494549   55.348488  -12.504872  0
-37.005524   55.006927  -12.901874  0
-36.193367   55.728809  -11.883301  0
-34.371147   54.966599  -13.381838  0
 -5.428022   51.716797  -12.796802  0
 -3.931603   51.438972  -13.046790  0
 -3.526457   51.987209  -12.489833  0
 -2.391654   53.293400  -13.566618  0
 -6.563147   52.330574  -12.207682  0
-34.758305   54.910313  -14.391703  0
 -1.984088   54.237019  -16.268961  0
 -1.744293   54.101799  -18.407604  0
 -1.815689   55.369347  -17.702892  0
 -1.253593   56.446735  -19.641943  0
-38.095055   53.954044  -17.132019  0
 -1.079282   55.822315  -21.193975  0
 -1.340892   56.624565  -21.682581  0
 -6.032135   56.189926  -21.269197  0
 -9.614894   55.001659  -19.027811  0
 -4.784002   55.828030  -22.241356  0
-10.932221   54.452927  -19.929773  0
-24.026979   53.823627  -21.122183  0
-24.850368   53.424759  -22.244354  0
-22.990955   53.898987  -20.810511  0
-29.783342   53.391636  -24.658064  0
-29.294533   53.148094  -26.724569  0
-29.975779   53.211231  -22.262842  0
-30.079645   53.957336  -21.259644  0
-41.511429   54.843845  -20.415577  0
-22.140762   54.380604  -20.906122  0
-25.687248   52.635414  -24.676357  0
-26.681681   52.450920  -26.479538  0
-33.465981   53.812683  -23.681822  0
-43.856750   56.193325  -21.192062  0
-42.994892   56.450657  -20.892723  0
-46.117245   56.737209  -21.236216  0
-47.687931   56.310253  -21.195150  0
-21.687849   54.769890  -22.865192  0
-21.658619   53.762943  -24.052048  0
-28.516401   51.427425  -28.090733  0
-44.167877   57.400051  -21.471678  0
-45.881229   58.042297  -21.870729  0
-47.389202   57.259869  -22.110275  0
-33.654503   53.322025  -26.261072  0
-46.574459   58.665073  -22.649340  0
-47.153790   57.732510  -23.750740  0
-46.654373   56.062557  -25.227201  0
-23.463758   53.913883  -26.697712  0
-33.648949   53.195198  -27.959719  0
-45.317802   54.928085  -26.562609  0
-43.903961   55.002747  -27.066488  0
 -6.945713   53.661652  -23.831388  0
-33.597656   54.119358  -29.594593  0
-42.329346   55.343098  -27.997223  0
 -6.182921   53.189827  -24.783903  0
-24.148472   54.170399  -29.649197  0
-34.371422   54.446671  -31.081457  0
-39.426403   55.138874  -30.410791  0
 -4.787947   53.699066  -25.244278  0
 -3.469729   52.869278  -26.327095  0
-17.191477   55.073246  -30.969622  0
-20.297575   55.035843  -28.900759  0
-23.192112   54.632828  -29.562449  0
-36.256962   55.084785  -31.640324  0
-38.324238   54.516788  -30.729265  0
 -0.780097   53.388329  -27.678345  0
-15.442397   56.330368  -32.055969  0
 -2.424069   53.396301  -30.620596  0
 -2.581613   53.821484  -31.842669  0
 -6.994254   54.532066  -34.301216  0
 -8.209829   55.926620  -33.207458  0
-13.688072   57.054039  -34.379913  0
 -9.842406   57.537987  -35.461430  0
 -9.051796   57.051414  -34.277386  0
-13.878764   56.505505  -35.153572  0
 -9.087677   57.096176  -36.335716  0
-12.566728   57.301476  -35.975517  0
-11.463393   57.486412  -36.879444  0
 -6.136579   56.981884   37.844349  0
 -2.243193   57.082806   37.115303  0
-15.660931   56.198879   37.030800  0
-17.531824   56.841080   36.470791  0
 -1.161445   56.748245   35.681854  0
 -0.174227   56.559650   33.749500  0
-18.953442   56.407864   35.849400  0
 -8.896358   58.122971   36.067238  0
-11.748975   55.913906   37.254585  0
-19.861748   56.189537   31.824484  0
 -1.053681   55.139214   29.971931  0
 -1.072518   55.126255   28.484943  0
-18.832586   55.427376   30.141665  0
-17.820423   55.040737   28.341724  0
 -0.297341   54.038982   27.222418  0
 -0.246629   54.320381   25.416475  0
 -0.286522   54.966286   27.150906  0
-17.707443   55.043770   26.488798  0
 -0.699591   53.453671   23.761986  0
 -1.816640   52.451370   23.581194  0
-17.413387   55.054070   22.994499  0
 -7.176614   52.530563   21.527176  0
-17.816725   54.796024   21.584238  0
 -6.905931   52.512005   19.321022  0
 -6.122000   52.526764   18.661596  0
 -5.450151   52.733109   17.839397  0
 -5.772293   53.016705   16.821342  0
-20.731554   54.678139   20.186470  0
-19.554625   55.075611   20.041851  0
-24.748901   53.029598   22.245926  0
-28.354277   53.020939   21.706650  0
 -6.351993   53.990086   15.917177  0
-28.047720   54.400078   16.340609  0
-32.670956   57.284973   18.199028  0
 -8.961474   55.002182   14.733293  0
 -9.495464   55.776348   14.330835  0
-26.774090   55.576874   15.125278  0
-28.443737   56.136135   17.139082  0
-36.197403   56.768547   15.952423  0
-37.990337   55.725426   16.241501  0
-41.740578   55.821926   17.852570  0
-43.304070   55.449364   17.046844  0
-44.418423   55.718842   15.401965  0
 -9.208542   55.552959   13.299435  0
-22.648613   56.014423   12.723947  0
-22.280560   56.103298   11.380078  0
-23.512894   56.403271   13.139082  0
-25.157526   57.039566   14.401271  0
-45.101978   55.708042   14.237275  0
-22.834322   56.790379   12.186105  0
-22.915527   57.345833   10.902785  0
 -0.517631   55.801762   11.262322  0
 -1.172498   56.400032   11.796296  0
 -0.574137   55.388790   10.248634  0
-22.772148   57.002121   10.168834  0
-45.308243   55.435520   10.219151  0
-44.763023   56.732521    8.936817  0
 -1.379370   56.289326    9.398201  0
-22.401243   56.095470    9.653515  0
-28.394707   56.400925    8.971508  0
-28.596056   56.191998    9.790726  0
-26.700891   57.045059    9.150582  0
-27.723303   57.245205    8.827994  0
-30.017136   55.961975    9.414916  0
 -1.814506   54.276814    7.054210  0
 -2.244783   56.193951    8.115623  0
-22.809923   56.764706    9.083293  0
-30.357885   57.066307    9.060147  0
-30.883909   56.334896    9.586971  0
-31.106632   57.386055    8.871780  0
-44.133625   57.080276    7.190261  0
-43.353352   57.680183    8.993820  0
-41.822414   57.063080    7.541668  0
 -1.298097   54.086437    6.116372  0
-29.960049   57.667023    8.973357  0
-39.407700   56.439060    6.950428  0
-38.981075   56.201385    5.936471  0
 -3.585855   50.228161    3.131454  0
 -1.611804   53.026897    4.602586  0
 -5.221910   50.583809    2.361917  0
 -3.892549   50.321865    1.959619  0
 -2.365076   50.682434    2.689998  0
 -7.044476   51.412903    2.306988  0
-39.282425   54.595814    3.604605  0
 -2.870241   50.360733    1.815143  0
 -8.561373   52.050854    1.956714  0
 -5.909939   51.445278    1.038833  0
 -7.606820   52.506901    0.068339  0
-43.220055   54.810577    1.817004  0
-43.972263   55.810558    1.522493  0
-44.371410   54.852779    0.625394  0
-44.395351   54.591236   -0.364394  0
-42.093098   54.834812   -1.820678  0
-43.192562   55.058506   -0.888970  0
-41.856670   55.587715   -0.935219  0
 -9.180650   53.330166   -3.672359  0
-40.435825   55.818581   -1.970671  0
-42.662468   54.958771   -3.006261  0
-44.258022   53.958935   -3.259575  0
-40.194290   52.777779   -6.204213  0
-45.300152   54.629353   -4.124557  0
-46.323978   54.485836   -5.271698  0
 -9.175992   53.559246   -6.631238  0
-44.140656   52.214325   -7.356018  0
-46.648876   53.537514   -7.871788  0
-47.608986   54.715481   -7.091804  0
-40.536541   52.420853   -7.555866  0
-45.275383   53.057228   -8.489939  0
-40.728386   52.492928   -9.006395  0
-41.908268   53.696648  -10.500266  0
-42.170841   52.537987   -8.500463  0
-44.029488   53.326550   -9.448856  0
-44.047009   54.927540  -11.093350  0
-41.075077   54.680439  -12.239876  0
-41.657223   55.217243  -12.151167  0
-42.844204   55.847042  -11.981855  0
 -8.974923   53.174995  -10.642584  0
-34.530083   56.084415  -11.329902  0
-38.598877   56.015118  -12.553496  0
-40.092384   55.620514  -12.718370  0
 -7.730452   52.961075  -11.365345  0
 -2.401956   52.596790  -12.225134  0
 -1.905346   53.768227  -12.241872  0
 -2.286850   55.040577  -14.149233  0
 -4.822735   51.988167  -12.048272  0
 -5.043105   52.249298  -11.281653  0
 -2.320407   56.231533  -15.690320  0
 -2.019604   55.721706  -16.485510  0
-37.029343   54.753464  -16.105639  0
 -1.409813   57.305286  -17.505861  0
-40.283932   54.734261  -18.757532  0
 -1.152702   57.968067  -20.644945  0
 -8.134779   56.072021  -19.535852  0
 -5.855767   58.032280  -20.428034  0
 -4.110826   57.237831  -21.756781  0
-10.796145   55.598660  -18.790981  0
-11.415654   56.734715  -18.488113  0
 -2.067654   57.554665  -21.673992  0
-25.883953   54.173248  -24.427057  0
-29.316545   55.043034  -22.667519  0
-30.223600   55.449181  -21.288698  0
-31.814335   54.672104  -21.122417  0
-21.512543   55.334835  -21.348465  0
-27.371353   54.371872  -26.750751  0
-28.035105   52.997005  -27.498709  0
-28.555590   54.414700  -26.950102  0
-32.158878   55.170063  -22.105211  0
-42.781464   56.670353  -20.628225  0
-43.406502   58.388737  -21.782846  0
-11.539480   56.822147  -19.827467  0
-22.897999   55.022606  -25.299698  0
-32.516739   55.329002  -23.694448  0
-44.662209   58.637444  -21.708481  0
 -8.864877   54.644913  -22.650517  0
-32.982323   54.616333  -25.427500  0
-44.946472   59.667843  -22.324162  0
-46.435425   59.407909  -23.606449  0
-46.117290   57.728058  -25.929455  0
-24.682775   55.203255  -27.927017  0
-33.159851   54.758007  -27.383892  0
-32.845905   55.992691  -26.675827  0
-33.277843   57.285862  -28.336971  0
-45.588070   56.197342  -26.618269  0
-24.814621   55.336292  -29.023001  0
-34.004704   56.480526  -30.234322  0
-44.692375   56.658848  -27.355738  0
 -5.430118   54.544178  -24.073523  0
-35.091133   55.925976  -31.434082  0
-40.888134   56.033562  -29.146975  0
-43.181759   56.942219  -27.883158  0
-44.830685   57.715786  -27.299492  0
 -1.844906   53.422474  -26.633070  0
 -1.139090   54.495548  -26.734673  0
 -2.489405   53.945782  -25.618292  0
-18.845650   55.427917  -29.476919  0
-17.530092   55.920719  -30.561607  0
-21.729799   54.993637  -28.956060  0
-23.826576   56.150669  -29.110981  0
-37.794586   55.929943  -31.442656  0
 -0.821757   54.613487  -28.206726  0
 -2.735273   54.513073  -30.928148  0
 -2.518582   55.424538  -33.171608  0
 -2.310853   55.631409  -34.477821  0
 -6.143514   55.573654  -34.181915  0
 -7.566985   56.465389  -34.023960  0
 -7.871144   56.146080  -33.362839  0
 -6.359571   56.364914  -34.140759  0
 -3.022169   55.973011  -34.339142  0
 -4.465553   56.476120  -34.280045  0
-11.495411   57.809727  -34.983700  0
-10.048298   56.992905  -37.085518  0
 -3.113798   57.236050   37.644981  0
 -6.746351   58.548409   36.301758  0
 -3.378928   59.635918   36.177902  0
  0.056320   58.393398   34.299503  0
-12.092264   57.006714   37.063335  0
-18.828001   56.674446   34.164276  0
  0.282274   58.125462   33.025024  0
 -0.136003   56.752022   30.962524  0
 -9.316034   59.148495   35.616524  0
-18.542528   56.948040   31.128277  0
-17.819914   56.243179   29.632429  0
 -1.138757   56.648605   29.149549  0
-17.167917   56.196453   28.409164  0
 -1.352524   56.215958   27.771345  0
 -0.566987   56.087914   25.900620  0
 -0.406850   55.130074   24.431641  0
 -1.683322   53.127998   22.422089  0
 -0.686285   54.191715   22.821098  0
-16.826738   56.470673   26.610491  0
-16.863518   55.864841   24.643543  0
 -3.167796   52.658054   21.865665  0
 -5.221871   52.628010   22.183933  0
 -4.814232   52.527802   20.195906  0
 -3.219333   52.813301   20.072748  0
 -3.272429   53.491241   17.755709  0
 -4.178682   54.233459   16.661743  0
-26.532051   53.427959   22.552084  0
-29.866632   53.787716   20.982307  0
-30.015959   54.606121   19.006773  0
 -5.091805   55.503632   15.958357  0
-23.117615   54.087387   21.431980  0
-23.197054   54.666073   21.962219  0
-29.067104   55.482800   17.890730  0
-27.377504   56.203770   17.319715  0
 -7.297673   55.200798   15.369557  0
-25.303328   55.493927   15.843664  0
-23.743586   55.263943   14.387805  0
-30.293819   57.143013   19.018623  0
-31.145350   56.946621   19.014717  0
-34.455433   57.853924   17.143606  0
-26.638420   57.919910   15.923059  0
-39.672470   56.294125   17.563421  0
-43.158897   56.737381   17.072252  0
-43.941631   57.284092   14.826274  0
 -8.818667   56.722427   13.880334  0
-23.214643   57.997295   12.379841  0
-24.259386   58.266151   13.801866  0
-44.320881   57.094181   11.726566  0
-29.449341   57.082424   10.870681  0
-26.445993   57.874435   10.008899  0
-30.255152   56.254128   10.475964  0
 -1.885201   57.268776   12.451253  0
 -2.905778   57.595242   13.559611  0
 -4.271013   57.011364   13.768911  0
 -5.865912   57.104389   13.921767  0
 -7.754854   57.059643   13.712466  0
-22.659542   56.691456    9.393064  0
-24.159950   57.664730    9.551146  0
-25.051590   57.606541    9.484112  0
-24.523537   58.509777   10.608442  0
-25.385582   57.979366    9.730164  0
-31.222311   56.638931   10.171546  0
-42.852871   58.133102   11.462432  0
-41.816074   58.077316    9.252213  0
-41.329731   58.548237   10.674415  0
 -1.214353   57.001305   10.508236  0
-31.286076   57.574764    9.118316  0
-40.760349   57.382706    8.334100  0
-39.640907   57.638390    8.943455  0
 -2.635970   56.732285    7.238080  0
-31.727289   57.599068    7.910447  0
 -2.174840   56.627384    7.186121  0
-22.818357   57.256893    8.217788  0
-23.851246   57.653755    8.875822  0
-26.996868   58.107658    9.045613  0
-38.926739   57.620419    8.117455  0
 -1.856162   57.002121    7.117809  0
-25.581957   58.084351    8.846496  0
 -1.375134   55.193806    6.061548  0
 -0.810874   54.490582    4.720236  0
-31.872118   57.491947    5.245687  0
-31.420082   57.114441    6.155868  0
-32.092197   57.612011    6.218861  0
 -1.418544   52.486263    3.265134  0
 -0.635514   53.421196    3.746001  0
-31.007635   56.952271    4.109653  0
-30.225527   56.585396    4.286602  0
-39.375065   56.404694    5.117142  0
-40.668922   55.718895    3.207582  0
 -0.728505   53.869022    3.466856  0
 -1.072568   52.731857    2.067255  0
 -1.649769   51.420750    1.839461  0
-29.972683   56.902401    3.309014  0
 -3.438733   50.695232    1.275652  0
 -2.600882   51.740307    1.062940  0
-43.164890   56.257053    2.406085  0
 -4.521159   51.462254   -0.005541  0
-43.910858   56.926437    0.966236  0
-43.750458   56.342205    0.040589  0
 -3.359497   52.197548    0.100667  0
 -8.537090   53.191513   -2.018037  0
-42.200500   56.890335    0.129295  0
-40.124134   56.191315   -0.480431  0
 -4.837608   52.038548   -0.725372  0
 -5.942854   52.716564   -1.566951  0
-38.993046   56.316757   -0.884128  0
-41.132660   56.441864   -2.501906  0
 -7.984587   53.527199   -5.499796  0
-44.161903   55.938267   -3.924010  0
-46.591881   55.974445   -5.663506  0
-48.155174   56.401855   -7.553094  0
-48.476009   55.732403   -8.466789  0
-48.356777   56.158279   -9.478238  0
 -7.918726   53.684235   -6.991235  0
-46.724010   55.525314  -10.337310  0
 -7.735333   53.504333   -8.171346  0
-36.342247   56.174759   -9.729079  0
-38.648052   56.519531  -11.220489  0
-38.667667   56.795753   -9.780641  0
-47.107475   57.118114  -10.998627  0
-35.196590   56.256741   -9.468690  0
-34.597370   57.017269   -9.598548  0
-44.956985   56.668575  -11.873497  0
 -2.233329   52.862202   -9.972445  0
 -3.272602   52.585930  -10.002688  0
 -2.128967   52.908638  -10.897025  0
 -4.936860   52.628296  -10.303215  0
 -3.459691   52.581657   -9.057829  0
 -1.302485   53.880821  -10.237157  0
 -4.903717   52.553364   -9.383402  0
 -5.578145   52.806065   -8.160389  0
-40.776974   56.682987  -12.046079  0
-43.272476   57.476734  -12.043876  0
-45.257240   57.725754  -11.807654  0
 -3.075111   52.530140  -11.396044  0
 -1.274028   54.694092  -11.450536  0
 -1.647624   55.357208  -12.603670  0
 -2.106618   55.715778  -13.502357  0
 -2.552308   56.515339  -15.149976  0
 -2.488611   57.079090  -14.740917  0
 -1.974389   58.079544  -16.087872  0
-34.241776   56.118855  -13.124129  0
 -1.568391   58.016991  -16.793867  0
 -1.183113   58.772404  -18.109549  0
 -9.207366   56.381985  -18.336584  0
 -7.097669   58.226307  -18.852648  0
-10.420898   56.181446  -18.107679  0
-39.586807   55.128998  -17.518469  0
 -1.769138   58.703506  -21.205997  0
 -3.358241   58.810337  -21.359976  0
-41.496674   55.351162  -19.932850  0
-41.447582   55.587875  -18.636900  0
-22.423380   56.052105  -19.996630  0
-23.457014   55.611641  -20.205320  0
-24.500612   55.373138  -21.129122  0
-29.067839   55.137028  -26.046616  0
-31.176897   56.087166  -21.823561  0
-26.473248   54.928123  -25.564022  0
-31.932989   56.545734  -23.173105  0
-21.566505   55.957535  -22.329681  0
-22.543573   56.067753  -24.446699  0
-32.574623   56.415298  -25.646755  0
-32.568821   57.616913  -24.751347  0
-43.717968   59.391636  -22.172600  0
 -9.476221   56.810894  -22.158689  0
-33.222839   57.919430  -26.737875  0
-45.328671   59.873112  -23.480402  0
-46.041084   59.388496  -24.818239  0
 -8.046938   55.848133  -22.835566  0
-24.231386   56.389168  -27.300341  0
-33.869228   59.214787  -27.762846  0
 -5.733532   55.638947  -23.441916  0
-24.525482   56.312489  -28.667477  0
-34.258785   59.399036  -28.668001  0
-34.549717   58.358841  -29.678894  0
-45.107529   58.592178  -26.588552  0
 -3.940576   55.381042  -23.672552  0
-35.514160   57.518669  -30.699596  0
-42.343559   57.538990  -28.060038  0
-40.189651   57.123993  -29.137056  0
-38.846863   56.258492  -30.870811  0
-44.031010   58.655125  -26.967682  0
 -1.431900   55.687538  -26.078657  0
 -2.146156   55.108852  -25.458958  0
 -0.745379   56.027222  -27.445486  0
 -2.977076   54.631702  -24.612204  0
-18.213127   56.199757  -30.145308  0
-21.293940   56.680382  -28.372465  0
-36.222584   56.607063  -31.426394  0
 -2.226039   55.234509  -29.796967  0
 -1.406879   55.978275  -28.803282  0
-16.238659   57.496475  -31.058138  0
 -2.943888   55.711109  -31.501633  0
 -2.601943   56.641300  -33.670296  0
 -5.218527   57.144669  -34.096947  0
 -7.320325   57.103462  -34.819401  0
 -9.197452   58.241665  -35.315174  0
-10.246332   57.816494  -34.921711  0
 -3.123453   58.281029   37.013100  0
-17.827106   57.191498   35.494659  0
 -1.515984   59.092762   36.030457  0
-17.544184   57.214024   34.329857  0
-18.258137   57.385044   32.823883  0
-16.044546   58.110092   33.375252  0
-17.285809   57.787224   31.917271  0
  0.048647   59.190720   31.855844  0
-10.707108   59.072174   36.251125  0
-16.787842   57.255928   30.086143  0
-16.236553   58.106419   31.408386  0
 -0.459950   58.019485   30.077900  0
 -2.328325   57.796661   27.545280  0
 -1.674227   57.278034   26.212181  0
 -0.979938   56.627090   24.031925  0
 -0.783963   54.113079   21.899290  0
 -0.584078   55.404480   22.112270  0
 -1.104193   54.116161   20.999565  0
 -0.226479   55.435535   20.539179  0
-17.593813   56.159035   23.311436  0
 -1.173320   54.114094   19.635408  0
 -2.321749   53.412350   18.997936  0
 -0.286132   55.298237   18.954264  0
 -1.122990   54.692867   18.053345  0
-18.260008   55.199409   20.864758  0
-28.478313   54.137791   22.928509  0
-26.697809   54.483459   23.356413  0
-24.695093   54.233829   22.753942  0
-29.824984   54.879749   22.327974  0
-30.304770   55.662998   20.902512  0
 -1.903663   55.220741   17.001719  0
-21.680294   55.403187   20.528851  0
-23.738165   55.609993   22.301836  0
-30.112228   55.679867   19.474865  0
 -2.577588   56.181801   16.070570  0
-29.705257   55.515732   18.657495  0
 -6.450672   56.404552   15.927157  0
 -9.091578   56.807865   15.640397  0
-23.661108   57.024975   15.717667  0
-22.586529   57.156300   14.054345  0
-31.557407   57.695210   19.427458  0
-31.850016   57.448368   18.839725  0
-32.874165   57.984631   18.695574  0
-22.452324   57.241653   12.343492  0
-29.149849   57.619316   18.342361  0
-35.885410   58.269779   17.461266  0
-38.330143   57.510746   17.835840  0
 -8.815564   58.129383   14.153590  0
 -9.919565   57.327717   14.788598  0
-40.707268   57.604061   17.832485  0
-42.652332   57.397472   17.164812  0
-42.699627   57.881710   16.337439  0
-24.186605   59.481678   12.591691  0
-41.777157   58.706985   13.557208  0
-23.559574   58.602535   11.610122  0
-27.171301   59.183441   11.146873  0
-31.413755   57.807114   11.093750  0
 -1.533131   58.535236   11.821956  0
 -2.078441   59.374386   13.116574  0
 -1.690125   58.870110   10.712618  0
 -4.085589   59.154652   13.881437  0
 -6.289175   59.535896   13.637510  0
 -7.865944   58.914513   13.658763  0
-22.450674   57.570644    9.713116  0
-32.124317   58.554932   10.129874  0
-40.231312   59.081085   11.879949  0
 -2.367532   58.507881    9.499813  0
 -2.552536   57.403561    8.758434  0
-31.910042   58.815453    8.929307  0
-39.021843   58.502777   10.211386  0
 -3.134675   58.587345    8.142484  0
 -3.469634   58.858620    7.218919  0
-32.106598   59.087872    7.948853  0
 -3.149954   58.719810    6.894311  0
-32.443710   58.838421    6.516039  0
-32.557877   59.641651    7.462498  0
-24.014484   57.955868    7.765740  0
-25.584440   58.546555    8.697910  0
-31.360708   58.440300    8.913330  0
-31.673868   58.086250    7.542858  0
 -1.873955   57.519287    6.907803  0
 -1.643142   56.189003    6.065128  0
-22.971176   57.862988    6.809491  0
-22.147472   57.847359    7.332293  0
 -1.726894   56.947414    5.699040  0
 -1.604501   56.097771    4.288515  0
-30.194391   57.321720    4.968119  0
-31.079893   58.198612    4.044676  0
-40.752827   57.720104    5.164557  0
 -0.960535   54.925789    2.752580  0
-28.488989   57.937668    3.300799  0
-42.497017   57.283363    3.544404  0
 -1.634498   53.065491    0.903943  0
-28.675381   57.444542    2.647526  0
-29.390945   58.403290    2.606276  0
-43.973942   57.026855    2.014436  0
-43.733498   58.055271    3.017917  0
 -2.454999   53.507641   -0.069357  0
 -1.469836   54.734482    1.012472  0
-27.796379   58.868732    1.338891  0
 -3.829453   52.736931   -0.927882  0
 -2.315454   54.183395   -0.689380  0
-40.596207   57.788860    0.819185  0
-37.859638   57.786270    0.722474  0
-37.020954   58.293354    0.532898  0
 -3.988973   52.994759   -2.152453  0
 -2.247759   53.444309   -1.988415  0
 -1.423167   54.996033   -1.139460  0
-37.925858   57.618397   -0.912550  0
 -2.474501   53.203709   -3.701861  0
 -1.183057   54.213062   -2.459804  0
 -4.063927   52.812473   -3.866751  0
 -1.308103   53.939190   -3.829623  0
 -6.471510   53.059383   -3.776839  0
 -3.822854   53.012733   -5.000842  0
 -2.452611   53.249939   -5.473156  0
 -5.398385   52.869053   -4.754547  0
-43.577175   56.911297   -3.364274  0
-45.117100   57.033131   -4.363525  0
 -3.386154   53.154972   -6.555911  0
 -1.541922   54.528175   -5.628260  0
 -4.923825   52.750134   -6.810212  0
-46.823429   57.474461   -5.810752  0
-47.601105   57.538845   -7.080081  0
 -1.963306   53.510239   -7.035139  0
 -1.248148   54.450249   -8.152725  0
 -1.049672   55.857693   -6.754299  0
 -6.446898   53.039288   -6.895303  0
-48.203934   57.639622   -8.539553  0
 -3.257422   53.353416   -7.779015  0
 -1.829956   53.359261   -8.575164  0
-35.218224   56.918804   -7.781548  0
-36.387978   56.823311   -7.074700  0
-37.694977   56.776752   -7.665496  0
-39.889957   57.485111   -8.124210  0
-40.264591   57.545208   -9.899500  0
-47.706440   57.973507   -9.944942  0
 -4.298755   52.925747   -8.193085  0
-40.127502   57.210560  -11.190615  0
-41.713978   58.066570  -11.343598  0
-41.565903   58.630230  -10.294328  0
 -1.089570   54.987553   -9.458470  0
 -0.784921   55.370644  -10.534917  0
 -0.743484   56.353165   -8.544620  0
 -0.505133   56.810261   -9.771749  0
-43.548443   58.407948  -11.565717  0
-43.273602   58.911907  -10.768093  0
-46.382122   58.800659  -10.541100  0
 -0.895985   56.463070  -11.156940  0
 -1.806286   56.732800  -12.491588  0
 -2.235801   56.626751  -13.197895  0
 -2.231966   57.793011  -14.266253  0
 -1.864299   58.753609  -15.384137  0
 -1.895235   59.262657  -16.421268  0
-35.163826   56.404995  -14.197680  0
 -1.877387   59.570576  -17.630548  0
 -7.440059   58.729385  -17.378027  0
 -8.905005   57.580280  -16.816217  0
 -5.610173   59.684990  -17.945587  0
-37.252342   56.358330  -15.645232  0
-10.021824   57.422089  -16.132374  0
-10.924751   57.152321  -16.814013  0
-39.315338   56.254303  -16.456707  0
 -1.458248   59.585827  -19.129141  0
 -1.792506   59.439720  -20.467564  0
 -4.997525   59.380341  -19.508986  0
-40.689293   55.846771  -17.373102  0
 -3.209572   59.458195  -20.715778  0
-43.269302   56.541340  -18.434923  0
-43.775707   57.172169  -19.456612  0
-21.120546   57.256374  -20.116379  0
-24.735281   56.869553  -21.774328  0
-25.729214   56.284733  -24.298107  0
-26.672003   55.940098  -26.074268  0
-29.263031   55.967987  -24.883034  0
-29.244423   56.410072  -23.118383  0
-29.401194   56.299965  -21.975668  0
-30.372051   56.881748  -21.689814  0
-43.466042   58.472782  -21.709679  0
-43.955585   58.192577  -20.564396  0
-43.519848   59.219891  -21.523651  0
-20.843182   56.978233  -20.659805  0
-20.743004   57.059372  -21.540993  0
-28.178608   55.684120  -26.814899  0
-31.492552   57.752151  -22.532673  0
-42.419388   59.089138  -22.442270  0
-10.733139   57.463348  -21.033899  0
-21.695034   57.264275  -23.238174  0
-43.637657   59.605953  -23.243349  0
-33.774834   59.552536  -25.597054  0
-34.521992   59.926826  -26.988928  0
-23.263422   57.109699  -26.234596  0
-34.970654   60.537128  -28.016493  0
-35.656307   60.824635  -28.723778  0
-35.651184   59.974701  -29.241005  0
-36.746727   60.557045  -28.660141  0
-37.133434   59.621563  -29.341051  0
-36.421082   60.930138  -27.821674  0
-37.874989   60.126808  -27.670006  0
-38.981449   58.615192  -27.644199  0
-39.060200   59.086178  -26.554995  0
-40.573978   58.720013  -26.127911  0
-39.746922   57.865814  -28.229891  0
-41.629730   58.088142  -27.534216  0
-42.771210   59.066288  -25.604219  0
 -4.024333   56.643600  -22.484108  0
 -5.667398   56.739906  -22.985598  0
 -7.225403   56.519535  -23.004936  0
-36.035557   58.819542  -30.104567  0
-37.608608   57.938744  -30.262203  0
 -1.480927   56.112843  -25.561817  0
 -2.301409   55.610493  -24.213182  0
 -2.728815   56.618832  -23.020624  0
-23.539770   57.351688  -27.877594  0
-23.124157   57.186546  -28.549328  0
-18.231853   57.595238  -29.884005  0
-19.639694   57.172070  -28.679844  0
 -0.868067   57.106964  -28.188181  0
 -2.993405   56.512867  -30.872288  0
-15.248354   59.780514  -30.883135  0
-14.553388   58.386555  -32.643692  0
 -3.378862   57.194061  -33.894894  0
 -2.873168   57.212093  -32.846401  0
 -8.164824   58.176151  -35.661362  0
-10.921152   58.668461  -35.387852  0
-13.337213   58.704659  -34.413902  0
-12.328188   58.603546  -35.550797  0
 -0.312552   60.169384   34.954544  0
 -1.134073   60.367393   35.898098  0
 -4.335815   60.796429   35.208328  0
  0.132640   59.871521   33.459061  0
 -6.990734   60.492504   34.652004  0
-15.774439   58.824749   32.565086  0
-16.232141   58.790417   31.596561  0
-15.986423   57.850319   29.364254  0
 -1.874125   57.812908   24.904999  0
 -2.964557   58.481155   25.700954  0
-16.524710   57.858337   28.055399  0
-16.831669   56.779736   25.605600  0
 -2.310452   58.255932   23.500717  0
 -1.315390   57.086292   22.913198  0
 -0.660827   57.018986   21.877249  0
-19.190744   56.076973   21.147202  0
-28.108698   54.905640   23.893137  0
-29.411060   55.160263   23.599592  0
-30.171278   56.220032   22.906752  0
 -0.320706   56.037556   17.798988  0
  0.044760   57.140995   18.486027  0
-20.739550   55.841026   20.496403  0
-25.157440   55.261238   23.238300  0
 -0.723837   56.807468   16.876423  0
-22.645899   56.094868   21.517721  0
-29.944553   56.777912   20.532322  0
-28.897360   56.857174   19.267757  0
 -2.592301   58.008110   15.410914  0
 -5.327465   57.242405   15.945857  0
-27.413723   57.457829   18.594137  0
 -8.418166   58.722267   16.792637  0
-25.230280   57.696705   17.229336  0
 -9.873919   57.842598   15.797992  0
-30.304035   59.240017   20.051968  0
-31.332804   58.703255   20.172310  0
-28.326748   59.236443   17.717356  0
-32.373756   58.939312   19.276382  0
-34.471489   59.215271   18.379370  0
 -9.732965   59.217625   14.177837  0
-10.252982   58.542492   14.982720  0
-22.117207   57.947933   13.005847  0
-25.307209   59.344845   14.769832  0
-26.640142   59.386826   15.969316  0
-36.953354   58.867420   18.893486  0
-39.379326   58.152832   18.757488  0
-40.096687   58.468773   18.361416  0
-40.191517   59.169537   17.075680  0
 -9.069451   58.938297   13.966899  0
-24.980469   60.037708   13.814995  0
-41.025826   58.646889   16.029572  0
-39.785175   59.445839   14.296062  0
-22.564377   57.788017   10.985345  0
-26.236637   60.430374   12.225950  0
-25.545546   60.788933   13.105029  0
-28.462042   59.737930   11.921598  0
-30.474693   58.752174   11.809044  0
-30.072615   60.591251   12.758713  0
-32.089870   60.032780   12.496135  0
