#!ascii file
 32.972427  -19.821674   50.079758  0
 31.985579  -19.954578   50.270401  0
 23.486010  -21.627220   50.489399  0
 10.671803  -19.530392   50.370125  0
  0.249292  -20.917274   49.724754  0
  1.459591  -20.454502   48.063499  0
 32.879471  -19.395288   48.491016  0
 33.699951  -19.147167   47.669674  0
 31.512808  -19.734707   47.873394  0
 23.335255  -21.882799   47.555958  0
 20.690413  -20.200470   48.003395  0
  2.901578  -20.769312   47.159573  0
  3.332843  -19.825417   46.422249  0
 43.155674  -21.530306   49.281448  0
 42.739338  -21.140703   50.016403  0
 44.262257  -21.288803   49.388466  0
 24.466103  -23.024441   45.288170  0
 45.678947  -21.617691   48.567509  0
 21.696184  -21.238459   46.421982  0
 47.850315  -21.790607   47.179955  0
 49.237061  -22.068855   45.833183  0
  2.362984  -19.615913   44.219582  0
 23.620804  -22.680058   43.687881  0
 21.839905  -22.046331   42.753708  0
 12.033874  -21.847794   40.987427  0
  1.595416  -20.316029   42.246094  0
  1.365569  -21.355141   41.847851  0
 49.217400  -21.768110   42.889851  0
 49.622738  -22.103924   44.533108  0
 42.799759  -23.299635   41.144119  0
 38.533005  -21.920994   40.811260  0
 37.578735  -22.297861   41.152699  0
 23.410955  -22.133247   41.829170  0
 21.976318  -21.949808   41.064381  0
 10.678967  -21.844746   41.223434  0
  7.420726  -23.477978   40.116032  0
 50.589016  -20.535885   39.360420  0
 40.838261  -22.359993   41.174206  0
 36.411896  -22.094919   40.283257  0
 13.134221  -21.290304   39.594902  0
  5.109302  -23.331158   38.804867  0
  4.193353  -22.704634   38.619659  0
  2.969316  -21.693066   39.221313  0
  1.952336  -21.155766   40.541981  0
 23.821785  -22.157948   39.994568  0
 44.014484  -23.610939   39.219410  0
 23.914286  -22.200869   38.827423  0
 13.894992  -20.701841   37.131363  0
 48.830791  -21.056128   34.259846  0
 49.927200  -22.017721   35.622833  0
 14.121857  -20.764835   34.467972  0
 43.042751  -19.787567   31.158052  0
 14.455430  -22.230875   31.668589  0
 41.265064  -20.410652   30.517914  0
 14.326377  -21.559723   30.597704  0
 40.334358  -18.960800   29.964134  0
 40.899204  -20.050529   29.402885  0
 42.564991  -20.613237   28.011143  0
 54.047798  -21.623215   33.092125  0
 43.739197  -20.836603   25.800062  0
  2.059727  -21.493469   31.082558  0
  0.387143  -22.789450   30.004475  0
 46.367752  -20.395140   28.195723  0
 43.396923  -21.255695   24.604647  0
 36.348370  -22.299364   24.434246  0
  7.334512  -22.504293   29.785929  0
  9.320430  -21.479671   29.800510  0
  5.573354  -21.556297   30.564508  0
 -0.478732  -22.802982   28.135227  0
 58.601978  -20.898548   26.162228  0
 42.028786  -21.593773   23.979952  0
 38.673489  -21.645369   23.921764  0
 13.375517  -19.839968   28.542276  0
 12.043230  -20.854046   28.774162  0
 11.015653  -21.295492   29.275969  0
  9.833266  -21.975161   29.177616  0
 -0.626835  -21.872252   26.346064  0
 58.361168  -22.167919   24.141874  0
 58.842087  -21.056232   24.457254  0
 44.944557  -20.920387   25.900637  0
 43.961418  -20.489071   24.972734  0
 -0.213168  -22.788532   24.749952  0
 -0.453426  -21.243471   24.464321  0
 57.685772  -21.319220   23.367016  0
 56.295788  -21.591442   22.874495  0
 43.403633  -20.324121   24.217773  0
 -0.080148  -21.871740   23.229347  0
  0.090852  -20.519197   23.039419  0
 52.596443  -20.938452   21.836260  0
  0.418488  -19.206751   20.433851  0
  0.060259  -19.107534   18.426863  0
 50.551464  -21.067205   20.151993  0
  0.412339  -19.434412   17.008545  0
 58.492867  -19.180027   18.522379  0
  5.718356  -18.273968   17.698860  0
 59.716381  -18.934792   17.595106  0
 56.930435  -18.689032   18.119497  0
 59.468826  -19.265184   16.979258  0
 59.188400  -18.773172   16.663292  0
 57.247696  -19.773932   15.460144  0
 55.347618  -20.498343   14.715448  0
 53.230335  -21.111744   13.914723  0
 53.349598  -22.123646   12.920288  0
  3.385442  -21.580862   15.711216  0
 53.238789  -25.197948   10.555254  0
  2.785018  -21.595783   15.078176  0
  2.555701  -21.146383   14.050530  0
 53.086006  -24.602240    9.756400  0
 51.144547  -23.664925    9.361257  0
 53.792473  -24.486397   11.097234  0
 49.417908  -22.939110    9.675745  0
 48.383938  -22.187437    9.122063  0
 40.929161  -19.339853   10.691458  0
 41.525986  -19.092220   10.056224  0
 37.941856  -19.270216   11.139925  0
 55.595116  -23.481657    9.830212  0
 54.332310  -24.516239    9.730724  0
 54.945843  -23.757828    8.790834  0
 53.586021  -24.048006    8.597230  0
 55.906631  -22.539869   10.734497  0
 54.666225  -23.588497   11.178144  0
 52.499874  -23.407225    8.488991  0
 51.307312  -22.255726    8.600807  0
 49.951565  -21.956879    8.840100  0
 46.030041  -22.172821    7.332415  0
 45.238338  -21.183254    6.804123  0
 44.038479  -20.966360    6.874149  0
 35.003044  -19.036804   10.094732  0
 57.713257  -22.309149    8.227874  0
 57.415230  -22.311319    9.264872  0
 54.061077  -23.491859    7.974095  0
 53.124035  -22.602320    8.024374  0
 55.972565  -22.325653    7.559800  0
 35.523769  -19.402172    7.665493  0
 33.353516  -18.893261    7.887544  0
 34.030777  -18.834738    7.208768  0
 37.748474  -19.120356    6.962965  0
 41.362186  -19.655827    6.215816  0
 43.644463  -19.902855    6.171130  0
  0.128518  -18.790051    4.514081  0
 52.993332  -20.840187    4.811267  0
  1.266243  -20.982149    1.674971  0
  0.970115  -20.210468    2.013620  0
 61.561970  -21.651701    3.600334  0
 57.521496  -21.004677    3.858847  0
 54.266800  -20.179777    3.909536  0
 50.463203  -19.043188    3.772703  0
 49.481140  -20.015921    4.373193  0
 45.552513  -19.968851    5.614666  0
 46.818260  -19.796263    5.031070  0
 49.163002  -18.979504    4.812836  0
  1.421311  -21.081488   -0.184290  0
 63.152924  -20.960516    0.003686  0
  1.271983  -19.716249   -1.858511  0
 51.308548  -20.966331   -4.849003  0
  1.630062  -19.916466   -3.244293  0
 61.956226  -21.622503   -3.942701  0
 61.957985  -20.912107   -2.788951  0
 59.538227  -21.332205   -6.676123  0
 61.096001  -21.692450   -5.438997  0
 40.483032  -21.559614   -6.560948  0
  4.482349  -20.118519   -6.914532  0
  3.804112  -20.865620   -6.552385  0
  7.985769  -19.604570   -8.786861  0
  7.180599  -19.622217   -8.571381  0
  6.696828  -19.584650   -8.040271  0
  6.075605  -19.547266   -7.589198  0
 40.047928  -21.024355   -8.332380  0
 18.396769  -21.724318   -9.621728  0
 15.920910  -20.638206   -9.520430  0
 12.861112  -20.851667   -8.440856  0
 13.108815  -20.404358   -8.542853  0
 19.328325  -21.005434  -11.060235  0
 23.422876  -20.707289  -12.376326  0
 24.654802  -19.957602  -14.117780  0
 57.232136  -19.722290  -10.274968  0
 54.976322  -19.466570  -10.680891  0
 25.957794  -20.137638  -15.245420  0
 58.672390  -20.081676  -11.513538  0
 50.772541  -19.053898  -14.216034  0
 52.569756  -19.363621  -13.105934  0
 57.709606  -19.609293  -12.004760  0
 58.433258  -20.287737  -12.763138  0
 11.672621  -19.311255  -16.289438  0
 10.991996  -19.432507  -17.241993  0
 49.686852  -18.529898  -15.964188  0
 46.330166  -17.864347  -14.579511  0
 27.796566  -20.600573  -17.577215  0
 13.260134  -19.713533  -16.509737  0
 56.310986  -21.671185  -17.193228  0
 48.266258  -18.018003  -16.063951  0
 27.807472  -20.846045  -18.109562  0
 25.549414  -19.778534  -18.898403  0
 15.194528  -19.352543  -17.596825  0
 12.938181  -18.744377  -17.315018  0
 10.756422  -19.824442  -18.935936  0
 58.382572  -22.315508  -17.001051  0
 59.356476  -21.637459  -15.724446  0
 26.260988  -19.449574  -19.027920  0
 17.159691  -18.643787  -18.827681  0
 62.131084  -21.924763  -19.339588  0
 61.545341  -22.034721  -18.072737  0
 60.140736  -22.650402  -16.975538  0
 31.235586  -21.595900  -21.173901  0
 30.142986  -22.033733  -21.159035  0
 28.351904  -21.966539  -21.880472  0
 21.613228  -19.661642  -19.299137  0
 19.189896  -19.072903  -19.972225  0
 11.285726  -19.534779  -21.006092  0
 33.799511  -20.246094  -23.009573  0
 23.177891  -18.480722  -20.596766  0
 20.923264  -18.920271  -20.762728  0
 26.278772  -21.527618  -23.736692  0
 28.670374  -21.036097  -23.280825  0
 11.597244  -20.267851  -22.119888  0
 34.049465  -18.721012  -25.135220  0
 24.441908  -21.765909  -25.355135  0
 13.313612  -19.605482  -23.682173  0
 14.665103  -20.032930  -24.671841  0
 60.502613  -21.062483  -23.543188  0
 42.958519  -24.101519  -26.308758  0
 22.559887  -22.781870  -26.794041  0
 16.400854  -22.156391  -26.180069  0
 59.211296  -19.890871  -26.054688  0
 44.563938  -25.087545  -28.194960  0
 43.332321  -24.102152  -27.839043  0
 24.073261  -21.711313  -27.269726  0
 21.386381  -23.255116  -28.083878  0
 19.662807  -23.497465  -28.012928  0
 17.444004  -21.952381  -27.366220  0
 57.869522  -20.010071  -28.152613  0
 58.235851  -19.086597  -26.695971  0
 56.655220  -19.318403  -27.373032  0
 56.548351  -19.358955  -28.888285  0
 44.600697  -24.772560  -29.489170  0
 42.820656  -23.105654  -30.147322  0
 32.764389  -19.573763  -26.298353  0
 20.374926  -22.351494  -28.755632  0
 21.678419  -22.639294  -28.827341  0
 18.944763  -21.678171  -28.291389  0
 44.412762  -24.171389  -31.384912  0
 31.672983  -19.439911  -27.938715  0
 57.051643  -18.263296  -31.835583  0
 55.606255  -18.218328  -29.536764  0
 45.420834  -24.515570  -32.578045  0
 40.983841  -21.397295  -29.762602  0
 29.794266  -19.609447  -27.512333  0
 27.688383  -19.641100  -27.481237  0
 57.281693  -18.293165  -32.978779  0
 56.379501  -18.406780  -33.583492  0
 50.142078  -22.458088  -35.328358  0
 49.210880  -23.853445  -35.678917  0
 48.343586  -23.974918  -35.679947  0
 46.753193  -24.404869  -34.381897  0
 29.453608  -19.165487  -28.427420  0
 26.926380  -19.156124  -28.295458  0
 25.780216  -18.422365  -29.675270  0
 24.214718  -19.918518  -30.513699  0
 56.856396  -20.272970  -35.745945  0
 56.459267  -19.337217  -35.049122  0
 29.363617  -18.348911  -28.929569  0
 27.707502  -18.461290  -28.863806  0
 54.308197  -19.472000  -34.570911  0
 41.264244  -20.571457  -31.770924  0
 28.375027  -22.373964  -35.422256  0
 27.378677  -21.873924  -35.367798  0
 26.799459  -21.092785  -34.726151  0
 24.895029  -19.441776  -32.195175  0
 30.536200  -22.214823  -36.500530  0
 28.754601  -22.022335  -36.150692  0
 27.694355  -20.782787  -36.219734  0
 33.914673  -21.903713  -37.600933  0
 32.235477  -22.871929  -36.689793  0
 31.609280  -21.324156  -37.194477  0
 29.474077  -21.394054  -36.609341  0
 37.131374  -21.005289  -38.727909  0
 34.834171  -21.193419  -38.199043  0
 47.028061  -21.637226  -37.880909  0
 47.147697  -21.921947  -39.718891  0
 39.669048  -21.995514  -40.090954  0
 40.901604  -21.539165  -40.922466  0
 46.067963  -22.192303  -40.587250  0
 46.847343  -21.207836  -40.362186  0
 47.877979  -20.647833  -39.088337  0
 42.775780  -21.243963  -40.997749  0
 45.237415  -21.617960  -40.945183  0
 16.565781  -17.275732   59.357689  0
 18.224163  -18.578276   59.306747  0
 13.889988  -17.097984   59.549839  0
  8.697948  -18.763903   58.835365  0
 21.380590  -18.638203   56.445187  0
 19.932209  -18.917849   58.178188  0
 21.883339  -19.015625   55.173458  0
  8.851910  -18.042585   57.358227  0
 21.591890  -18.797125   53.630558  0
  9.863429  -17.991247   54.736755  0
 11.284735  -18.581421   53.995323  0
 10.333273  -16.993145   56.015732  0
 27.235201  -19.490221   53.607445  0
 25.309160  -18.709295   54.121185  0
 20.785992  -19.306129   51.349804  0
 12.494155  -18.245176   53.441719  0
 12.781584  -18.170408   52.397186  0
  4.062909  -19.198246   55.157856  0
  0.345624  -19.818607   53.069424  0
 28.876925  -19.371321   52.660706  0
 24.073681  -20.632820   52.993401  0
 23.899706  -19.081266   53.910610  0
 11.697735  -18.819662   50.758152  0
 12.698712  -18.081001   50.515530  0
  6.793544  -20.023216   54.430153  0
 29.427614  -19.096981   51.064941  0
 23.088104  -20.796631   52.157391  0
 20.186489  -20.097778   49.472591  0
 12.085632  -18.535774   49.767551  0
  0.106622  -19.455555   51.670654  0
 37.232609  -18.177738   50.304348  0
 30.062382  -19.174810   48.913616  0
 13.136507  -18.569332   48.639996  0
 11.657103  -18.826797   49.323734  0
 39.379097  -18.708759   51.795082  0
 38.896030  -18.252266   51.250935  0
 36.102921  -18.116133   49.507355  0
  0.607078  -20.208508   48.821438  0
 40.440651  -19.602959   50.173508  0
 41.070950  -20.410458   50.129017  0
 35.801579  -17.966097   47.519604  0
 36.773331  -17.649244   48.910831  0
 30.226082  -19.073305   47.267529  0
 13.107001  -18.436178   47.505249  0
  2.455032  -19.217854   47.287228  0
 42.850342  -20.275562   49.022549  0
 41.378376  -19.955364   49.548767  0
 44.288040  -19.980742   49.176128  0
 34.684849  -18.450319   46.685623  0
 32.369373  -19.645687   46.473007  0
 29.457170  -18.761126   45.602859  0
  3.224524  -18.579517   45.898102  0
 45.726646  -20.330254   49.049835  0
 47.392540  -20.432819   48.263935  0
 33.944584  -19.043335   45.310017  0
 30.743374  -19.120586   44.789013  0
 22.986692  -22.260275   44.406609  0
  3.079284  -17.957762   45.063564  0
 48.626362  -20.811489   46.900707  0
 32.421455  -19.204567   44.688961  0
 33.470383  -18.847178   44.231853  0
 29.615860  -18.418737   43.334946  0
 49.632179  -21.609001   44.998333  0
 48.989841  -20.746794   45.444553  0
 32.780895  -18.422939   43.492931  0
 31.244003  -18.592140   43.421360  0
  1.791250  -19.023443   42.658276  0
 49.278542  -20.411533   42.426605  0
 49.230270  -21.100163   43.896015  0
 11.434091  -20.803919   39.987663  0
  9.917092  -21.273148   40.379379  0
  1.484426  -19.136379   40.681923  0
 50.855766  -20.392906   40.184277  0
 42.082977  -22.403160   39.959251  0
 40.071228  -21.766069   40.060268  0
 22.415079  -21.701746   41.360031  0
 10.585464  -20.469604   38.660591  0
  9.281389  -21.572540   39.691673  0
  8.172399  -22.732897   39.178257  0
  1.966993  -20.287321   39.153568  0
 50.044357  -21.326481   38.331726  0
 37.863304  -21.638845   39.406555  0
 12.932250  -20.450247   38.353237  0
  7.653615  -22.712175   38.058777  0
  6.162093  -22.453539   37.207455  0
  4.080917  -21.763577   37.389671  0
 40.655022  -22.063648   38.926289  0
 49.473667  -21.108324   34.966972  0
 45.533947  -19.316175   32.900970  0
 43.396000  -18.869955   31.794172  0
 13.120284  -21.038347   31.165976  0
 14.095140  -20.201925   29.720297  0
 43.094505  -20.025991   27.191551  0
 41.720592  -19.481894   29.271667  0
  5.255822  -19.916449   30.669880  0
  3.740390  -21.064821   31.073317  0
  1.727514  -20.480356   30.882555  0
 49.834301  -21.368891   31.785526  0
 47.971741  -20.278425   29.961468  0
 16.362122  -19.104063   27.871119  0
 11.807488  -18.615061   28.885735  0
 10.621527  -19.881252   29.596256  0
  8.492054  -20.174158   30.090117  0
  0.141868  -21.521809   28.643538  0
  0.652445  -19.893414   29.419270  0
 56.074532  -20.564238   30.219620  0
 57.472801  -19.774427   27.909466  0
 45.590286  -20.432861   26.790731  0
 43.507511  -20.305698   24.873695  0
 14.985775  -18.684528   28.129572  0
 13.676641  -18.202183   28.104033  0
 -0.150226  -20.214653   26.996389  0
 59.363853  -20.265020   25.354149  0
 59.348656  -19.163370   25.506954  0
 59.672935  -19.362194   24.176558  0
 42.346355  -20.325457   23.483450  0
 40.535015  -20.402000   23.003351  0
 38.326012  -21.080256   23.174725  0
 15.689684  -17.680180   26.500467  0
 -0.113583  -20.426798   25.322905  0
  0.046290  -19.660397   23.926691  0
 58.998653  -19.258146   23.022295  0
 57.332203  -19.514929   22.245886  0
 43.577293  -19.776121   24.382906  0
  0.474609  -19.347248   22.204344  0
 55.193893  -20.450855   22.113136  0
 52.345825  -19.975899   20.694254  0
  0.267725  -18.132391   17.737741  0
  4.600497  -18.125181   17.478310  0
  2.237787  -18.249754   17.242878  0
 58.934887  -18.428516   17.668085  0
 55.630066  -18.232983   17.998018  0
 54.063591  -18.773203   18.424845  0
 54.756405  -19.626307   14.076493  0
 53.838367  -20.031170   13.294312  0
  3.360829  -20.729971   15.938386  0
 53.717564  -23.397530   12.245471  0
  2.711942  -21.252592   15.567200  0
  1.928948  -20.226236   13.992233  0
  2.147407  -19.544432   14.599689  0
  1.880642  -18.172134   14.816881  0
 40.876003  -18.601109   11.436919  0
 54.709415  -22.056446   11.989819  0
 43.265030  -19.119837    8.322546  0
 42.324356  -18.699284    9.198069  0
 57.236717  -21.660339   10.446020  0
 55.866348  -21.433754   11.343503  0
 48.857651  -21.210722    7.742054  0
 46.588028  -20.535975    6.563892  0
 44.392841  -19.795586    6.939226  0
 33.690239  -19.043247    9.179070  0
 61.260864  -21.265762    9.036061  0
 60.835979  -21.477663    7.517536  0
 62.157349  -20.712963    8.142405  0
 58.863979  -21.714409    9.315917  0
 50.409298  -20.931658    7.872212  0
 51.784813  -21.439135    8.021082  0
 48.039433  -20.246185    6.521804  0
 45.436684  -20.028994    6.361523  0
 58.441833  -21.665169    7.217282  0
 54.525028  -22.301441    7.608626  0
 -0.115009  -16.741922    8.898038  0
 35.838123  -18.365831    6.770219  0
 34.849876  -18.015335    6.220354  0
 33.765083  -17.435205    5.789405  0
 38.702225  -18.292532    5.925937  0
 36.724854  -17.929861    5.637464  0
 41.588181  -17.974018    5.410563  0
 40.062687  -18.138838    5.708057  0
 44.822796  -18.757187    5.839942  0
  0.926632  -18.912563    2.170777  0
 60.033195  -20.397724    3.069546  0
 58.167885  -19.554905    2.738892  0
 55.718128  -18.981251    2.216917  0
 54.537258  -19.233284    2.637071  0
 47.340439  -18.798603    5.558591  0
  1.171888  -19.783880    0.289760  0
 61.805302  -19.443596    2.628565  0
 53.033871  -18.473101    2.133121  0
 52.066860  -17.391260    2.033891  0
 53.521656  -20.511791   -5.087243  0
 61.673504  -20.964012   -4.956154  0
 57.934097  -20.482458   -7.399452  0
 55.919044  -19.798101   -6.461576  0
 59.723957  -20.266844   -7.090903  0
 50.205818  -20.644199   -5.659748  0
 44.256866  -20.847004   -5.673943  0
  2.547525  -19.453217   -4.005588  0
  3.512013  -18.916029   -4.521579  0
 60.708050  -20.939947   -6.344239  0
 41.977566  -20.621199   -6.085985  0
  5.866697  -19.039267   -6.760223  0
 40.317017  -20.489191   -7.002470  0
 39.720707  -20.863291   -7.700959  0
  9.384081  -19.699562   -7.735406  0
 10.417547  -19.606075   -8.157773  0
 22.066338  -20.423298  -12.579208  0
 17.291323  -20.052149  -12.143811  0
 42.102451  -19.931324  -11.037702  0
 42.289280  -19.131168  -12.748773  0
 20.214956  -20.455549  -12.546154  0
 42.102448  -18.619898  -13.437052  0
 23.600588  -19.814714  -13.969448  0
 20.777533  -19.866173  -14.479565  0
 55.608959  -18.885532  -12.009883  0
 22.255449  -18.952503  -16.339903  0
 57.099773  -18.952532  -12.065612  0
 57.870064  -18.974766  -12.269393  0
 53.788300  -18.521812  -13.373959  0
 51.836819  -18.667162  -14.857633  0
 55.248737  -18.094652  -13.081556  0
 27.608555  -18.854740  -16.528198  0
 60.685490  -20.212450  -13.054926  0
 59.293949  -21.135187  -14.278563  0
 60.629955  -20.850845  -14.752121  0
 59.933247  -19.382612  -12.189522  0
 52.730778  -18.067430  -15.007272  0
 44.603924  -17.579721  -13.991599  0
 28.009579  -19.611069  -17.503019  0
 61.504063  -19.728643  -16.095568  0
 60.796749  -21.314138  -16.509642  0
 61.623844  -19.817516  -14.302451  0
 51.073921  -18.359161  -16.144218  0
 49.143616  -17.897455  -17.028200  0
 28.276075  -19.172932  -18.459803  0
 13.789593  -18.343809  -18.136379  0
 12.170609  -18.760641  -19.100260  0
 61.367825  -20.504398  -17.748539  0
 50.245617  -17.253647  -17.964464  0
 51.814117  -17.581520  -16.572094  0
 26.231087  -18.745607  -20.008152  0
 16.610205  -18.633036  -18.580717  0
 15.553001  -18.445230  -18.465912  0
 14.562618  -17.593925  -18.695915  0
 61.921459  -20.896805  -19.071190  0
 61.500084  -21.099569  -21.075666  0
 61.128716  -20.147007  -19.282831  0
 32.653065  -19.463676  -22.727598  0
 30.649109  -20.863789  -22.328131  0
 25.202387  -18.092411  -21.184788  0
 17.912867  -18.320211  -19.782320  0
 12.127645  -18.828613  -22.385908  0
 60.529881  -20.268696  -22.202339  0
 59.201359  -19.751427  -20.689411  0
 23.852497  -17.695278  -22.039892  0
 59.249729  -19.526817  -22.932606  0
 29.799135  -20.218708  -24.186205  0
 28.276093  -20.671694  -24.765560  0
 22.331036  -17.711338  -22.239286  0
 13.067592  -18.168989  -23.359673  0
 59.837990  -19.775787  -24.163551  0
 26.211945  -20.700422  -26.193985  0
 16.194845  -20.434694  -25.839211  0
 58.774662  -18.653316  -25.236702  0
 57.533485  -18.232206  -25.931387  0
 57.448273  -17.974592  -24.333918  0
 55.953655  -17.660364  -25.244751  0
 54.695450  -18.990437  -26.771660  0
 22.977629  -22.356596  -28.009233  0
 54.583042  -18.652281  -27.968939  0
 53.618572  -18.431288  -26.875534  0
 42.370399  -22.855688  -28.692989  0
 33.159863  -19.139387  -27.583223  0
 25.106390  -20.579542  -27.581335  0
 22.550413  -22.159147  -28.836655  0
 18.073196  -20.888660  -27.768791  0
 43.278233  -22.673889  -32.000008  0
 41.955330  -21.536888  -30.101381  0
 21.748690  -21.413301  -29.342321  0
 20.417765  -21.070524  -29.043764  0
 55.798782  -17.688595  -31.450472  0
 44.837620  -23.563364  -33.145065  0
 42.093792  -20.850412  -31.394709  0
 41.310863  -21.079103  -29.657028  0
 55.066273  -18.266870  -33.473225  0
 48.895126  -23.049768  -36.018974  0
 47.242771  -23.915705  -35.640797  0
 47.964088  -23.072567  -36.123619  0
 45.051785  -22.459242  -34.086811  0
 31.593330  -18.658432  -28.825426  0
 33.416626  -18.150715  -28.373363  0
 53.838932  -18.836775  -34.066429  0
 51.857021  -20.955822  -35.340958  0
 49.250748  -22.105116  -35.994190  0
 50.530914  -21.523447  -35.545605  0
 26.969633  -17.333544  -30.036665  0
 24.699358  -18.438499  -31.198006  0
 25.386864  -17.239838  -31.620949  0
 52.703716  -19.657656  -34.146538  0
 29.990337  -16.863802  -29.532993  0
 28.501347  -16.962265  -29.732100  0
 25.686598  -19.414055  -33.977966  0
 25.146688  -17.514389  -33.201576  0
 42.567287  -20.288166  -33.612080  0
 26.470402  -19.475660  -35.564705  0
 25.785339  -18.123354  -34.459225  0
 27.517763  -18.377884  -36.696339  0
 44.215111  -19.620752  -34.895237  0
 46.429138  -20.722006  -36.240005  0
 35.475582  -20.433037  -38.970398  0
 31.900845  -20.234604  -37.616482  0
 29.939278  -19.237814  -36.851620  0
 38.929878  -20.077076  -40.587921  0
 39.666763  -20.869432  -41.282578  0
 47.919968  -19.579092  -39.563931  0
 43.059692  -20.321558  -41.616932  0
 45.434105  -20.374138  -40.985153  0
 12.095984  -16.716118   59.253288  0
 10.484775  -17.453802   58.890324  0
 20.736137  -17.313721   57.938278  0
 19.868612  -17.701609   58.307552  0
 18.396780  -17.311758   58.716438  0
 10.230791  -17.086298   57.992840  0
 11.582030  -17.008781   55.080719  0
 13.259245  -16.112295   54.777721  0
 14.052972  -16.557955   53.338142  0
 25.704395  -17.771252   53.906391  0
 21.240065  -18.479937   53.145134  0
  8.171907  -19.020021   54.410519  0
  6.040107  -18.882292   55.341850  0
  2.766530  -17.704016   55.102840  0
  1.147391  -18.231930   53.849239  0
  0.438788  -18.029959   52.370060  0
 26.859020  -17.945383   53.049770  0
 22.831230  -19.852564   53.162407  0
 13.640388  -17.208256   50.652519  0
  8.743150  -19.501505   53.504822  0
 10.464238  -18.908766   51.830524  0
  0.175734  -18.577707   50.475727  0
 28.019232  -18.108604   51.450779  0
 22.245266  -20.158781   51.687000  0
 20.250050  -19.148312   50.593475  0
 13.979599  -17.882463   48.307671  0
  0.570847  -19.339058   49.079277  0
 38.409363  -17.331345   49.913200  0
 37.584866  -17.172764   49.517391  0
 28.388008  -18.356491   48.128086  0
 27.183390  -17.793482   48.445641  0
 22.297195  -20.732725   48.503586  0
 21.748253  -19.861378   49.211472  0
  1.399099  -18.374853   48.024937  0
 41.026058  -19.344887   50.231445  0
 40.812988  -18.409264   49.811638  0
 39.564724  -17.869059   50.366161  0
 41.841114  -18.768644   48.898861  0
 37.990772  -16.622667   49.010941  0
 37.456306  -16.623024   48.057606  0
 21.382742  -20.253431   47.604866  0
 15.035592  -16.455816   46.032993  0
 14.595039  -16.308113   48.494705  0
 12.417406  -18.247318   47.440357  0
  2.071308  -17.996004   47.277447  0
 43.093754  -18.588955   48.512993  0
 44.752762  -18.694315   48.331787  0
 36.715691  -17.138628   46.329575  0
 27.483337  -17.468086   45.734787  0
 21.865753  -21.082647   47.118073  0
 14.202756  -17.255636   46.295021  0
 46.740990  -18.839828   48.334152  0
 47.931992  -19.614487   47.862583  0
 35.213486  -18.215097   45.106171  0
 47.897076  -19.117834   46.854286  0
 48.354294  -19.687613   44.250450  0
 34.519527  -18.276791   44.019039  0
 28.103184  -17.585913   42.496658  0
  2.069728  -17.918613   43.828686  0
 48.714771  -20.568241   43.821278  0
 33.837986  -18.127934   43.512524  0
  1.312319  -18.020245   42.129234  0
 50.259029  -19.812346   41.082909  0
 33.578983  -17.968983   42.267181  0
 31.754816  -18.262089   41.461628  0
 29.445610  -18.184948   41.859535  0
 50.966133  -19.739910   40.180763  0
 29.467451  -18.270372   39.713524  0
 28.086111  -17.987059   40.711967  0
 47.694443  -20.342363   40.149052  0
 33.161850  -17.854317   40.197201  0
 31.801117  -18.139776   39.635670  0
 28.283281  -18.015882   39.580448  0
 27.154991  -17.223412   40.504452  0
 11.881465  -19.947701   37.538780  0
  9.540447  -20.803564   37.448021  0
  8.885488  -21.912668   38.132915  0
  1.100140  -18.737068   37.695210  0
 30.640738  -18.009031   38.806904  0
 12.931802  -19.846909   36.598537  0
  8.061854  -21.868370   36.553364  0
  1.817801  -19.908836   37.353992  0
 30.974894  -17.659475   38.547127  0
 31.926773  -17.500086   38.812008  0
 28.915075  -17.517746   37.877682  0
 10.061171  -20.156830   36.014431  0
  6.848549  -21.353653   34.256496  0
  8.077010  -21.151936   34.829205  0
  5.214023  -21.495913   35.057606  0
  3.553141  -20.569942   35.218948  0
  1.787942  -19.031174   35.463287  0
 30.155190  -17.520077   37.728474  0
 13.796019  -20.147207   35.514961  0
  4.980488  -20.595005   33.839809  0
  3.064537  -19.360029   34.148033  0
 46.983166  -19.303122   34.177650  0
 12.891327  -19.917070   34.237022  0
 13.295685  -20.717045   32.735432  0
 44.261204  -17.677456   33.704243  0
 42.259899  -17.937485   31.052477  0
 41.636074  -18.013575   30.369619  0
 40.221355  -18.296476   29.670399  0
 54.624775  -20.680525   32.925652  0
 55.172535  -20.527618   31.794243  0
 53.117485  -21.506878   33.694721  0
 40.713043  -18.487036   29.750479  0
 56.573544  -19.039642   30.611076  0
 58.055954  -17.794941   27.540499  0
 48.868019  -20.132956   31.134708  0
  9.973548  -19.020012   29.539600  0
  7.675564  -18.228060   30.016048  0
  3.121570  -18.879017   30.851439  0
  1.497170  -19.098677   30.721176  0
 58.469242  -18.397959   26.327322  0
 59.092770  -17.203608   25.566946  0
 46.647236  -19.781984   29.295824  0
  0.380148  -18.677498   29.498264  0
 60.762444  -16.936069   24.241449  0
 61.022102  -17.468960   23.603790  0
 44.709080  -19.635567   25.113178  0
 14.672359  -17.521179   26.933659  0
 12.957185  -17.555504   27.805708  0
  0.199117  -19.117128   27.812168  0
  0.103523  -18.874304   25.509323  0
 60.834419  -17.354448   22.569153  0
 59.975254  -16.990751   21.428091  0
 55.309906  -19.198685   21.257587  0
 52.672592  -19.420740   19.665642  0
  2.853015  -16.631372   17.875450  0
  0.772081  -17.482389   17.660263  0
 58.796787  -17.449135   17.629602  0
 57.701836  -19.048597   15.277372  0
  5.756076  -17.065207   17.797832  0
  5.014112  -18.151882   16.949327  0
  4.048104  -18.903639   16.295841  0
  2.443973  -18.807766   15.049323  0
  0.660579  -18.004389   13.526091  0
 54.656044  -20.049662   12.536681  0
 42.639973  -17.898283   10.562047  0
 43.292553  -17.984552    9.317826  0
 42.146389  -18.000710   11.526875  0
 37.561539  -18.815027   10.924849  0
 55.323570  -20.374722   11.939494  0
 43.606293  -18.158745    8.413847  0
 62.557602  -19.245279   10.930765  0
 61.585503  -20.150570   11.059543  0
 62.693626  -18.739910   10.120461  0
 59.074749  -20.511370   10.904886  0
 56.656307  -20.245197   11.596581  0
 44.309170  -18.643246    7.769393  0
 45.721134  -18.588316    6.692416  0
 32.736221  -17.899689    7.840948  0
 34.176708  -17.989931    8.845313  0
 50.697308  -19.826002    6.836401  0
 49.389351  -19.601030    6.187997  0
 47.078781  -19.078785    6.058057  0
 54.126259  -20.773615    7.470552  0
 57.124622  -20.806633    6.746190  0
 52.300903  -20.433535    7.603500  0
 47.915405  -18.371977    5.802601  0
 61.386795  -20.056791    6.822551  0
 59.079556  -20.361694    6.317505  0
 32.953831  -17.616543    6.523855  0
 32.485603  -16.836603    6.719070  0
 43.172096  -18.337133    5.597395  0
 38.895889  -17.235582    4.758675  0
 37.693348  -17.500360    5.041735  0
 35.476189  -17.751335    4.964785  0
 34.673691  -17.359579    4.528532  0
 40.740467  -17.118746    4.864191  0
 39.560986  -16.990171    4.754736  0
 37.111446  -17.120245    3.649022  0
  0.939703  -16.851055    3.426197  0
 46.112907  -18.486433    5.871427  0
 39.654163  -16.839920    3.475411  0
 47.346294  -17.574434    5.719281  0
  1.563176  -17.970829    0.371274  0
 62.523964  -19.012943    1.785725  0
 59.365208  -18.151302    2.455588  0
 57.587597  -18.417591    2.220245  0
 51.297756  -17.124058    2.707125  0
 50.184750  -17.008617    4.216606  0
 48.549881  -17.004353    5.107591  0
 47.896336  -17.707081    5.539674  0
 62.654713  -18.993580    0.393032  0
 61.996235  -19.343929   -1.746631  0
 62.122791  -19.983095   -3.944734  0
 52.875626  -20.134686   -5.439563  0
  1.959740  -18.469570   -2.322838  0
 58.152058  -19.199162   -7.199888  0
 54.249805  -19.349401   -5.904524  0
 47.353951  -21.035492   -6.315324  0
 62.358135  -19.986053   -5.228109  0
 61.643044  -20.204845   -6.344583  0
 44.058685  -20.380522   -6.289141  0
 42.424252  -19.951996   -6.996382  0
  4.941009  -18.801558   -6.084187  0
  7.786550  -18.876211   -6.719660  0
  7.289131  -18.658886   -6.444457  0
 40.479275  -20.194790   -8.133342  0
  8.747679  -19.239571   -7.425025  0
 12.958904  -19.675461  -10.111675  0
 14.209112  -19.985752   -9.554524  0
 10.685963  -19.381155   -9.417934  0
  9.090614  -18.949648   -8.969025  0
  9.484912  -19.131245  -10.890854  0
  7.846358  -18.490217  -10.414029  0
 11.860332  -19.443035  -12.369878  0
  8.594257  -18.656036  -12.020332  0
 15.529107  -19.757837  -12.802882  0
 13.911661  -19.640642  -13.670520  0
 16.522797  -19.316704  -15.029439  0
 11.166538  -18.884083  -14.116808  0
 24.547836  -18.671280  -16.057487  0
 25.899437  -18.761204  -15.873899  0
 13.708796  -18.733976  -15.657603  0
 61.531681  -19.247120  -13.433506  0
 60.964184  -19.104765  -12.879403  0
 60.214790  -18.353891  -12.260236  0
 41.758640  -16.549454  -14.155211  0
 41.859623  -17.839958  -13.757953  0
 18.823366  -18.569626  -17.126869  0
 11.835916  -18.111212  -15.730658  0
 62.066006  -18.906639  -14.275368  0
 61.978333  -18.038912  -13.894301  0
 59.038521  -18.253099  -12.329330  0
 56.729282  -17.408426  -13.173149  0
 42.803886  -16.348925  -14.221857  0
 28.622166  -18.209372  -18.024775  0
 16.923813  -18.016726  -17.533175  0
 54.040833  -16.655241  -15.530807  0
 32.292351  -18.359339  -18.900852  0
 29.627970  -18.599754  -18.618639  0
 31.546631  -17.853106  -18.267509  0
 60.314686  -19.305288  -17.826550  0
 61.589096  -17.765688  -15.186848  0
 60.316551  -18.386827  -16.974260  0
 32.252522  -18.431778  -19.708450  0
 29.489346  -18.879766  -19.872215  0
 29.392609  -17.566576  -18.428900  0
 59.082981  -19.223255  -19.367390  0
 57.901756  -18.382929  -19.483158  0
 26.795990  -18.265812  -20.656933  0
 15.950459  -17.848867  -19.103537  0
 13.073691  -17.695669  -20.229797  0
 57.524330  -18.894030  -20.768736  0
 55.751373  -17.587059  -22.095675  0
 29.385010  -18.302586  -20.973703  0
 31.851564  -17.895058  -20.801676  0
 26.623062  -17.357164  -21.736382  0
 16.634588  -17.496088  -19.592106  0
 15.711267  -16.924913  -19.319094  0
 15.011104  -16.550774  -20.026348  0
 12.460465  -17.868633  -21.407352  0
 57.255230  -18.647112  -22.115402  0
 55.364086  -17.348866  -23.672792  0
 33.931610  -18.580690  -23.845585  0
 20.355316  -17.713614  -21.454922  0
 17.582684  -16.892893  -20.640562  0
 18.948910  -16.867355  -21.093353  0
 16.337139  -16.565285  -20.049364  0
 31.912439  -19.236609  -23.443855  0
 25.455812  -16.966656  -22.548920  0
 24.026955  -17.103632  -23.405563  0
 54.553474  -17.299685  -25.016508  0
 53.922375  -18.285477  -26.154776  0
 30.886902  -18.818186  -25.335503  0
 22.023014  -16.486912  -22.953796  0
 20.094419  -16.420200  -21.778574  0
 14.131479  -17.660549  -24.450514  0
 15.404491  -18.365143  -25.817671  0
 29.096920  -19.629608  -25.777920  0
 17.354088  -19.422586  -27.103868  0
 28.017986  -19.314028  -26.810152  0
 26.341358  -19.792484  -27.678905  0
 23.704966  -20.259020  -28.431717  0
 23.125479  -20.976824  -28.427113  0
 53.505180  -17.522438  -27.094368  0
 54.827282  -17.275831  -28.240627  0
 34.117245  -17.743124  -27.175907  0
 24.690290  -19.693798  -28.902227  0
 23.199326  -20.158728  -29.622356  0
 21.389313  -20.211870  -29.692173  0
 19.216702  -19.790821  -28.654306  0
 55.619995  -17.166534  -29.526651  0
 41.299004  -19.587009  -30.926174  0
 55.419083  -17.706459  -32.672230  0
 46.737587  -22.799490  -35.795841  0
 42.674129  -20.055975  -32.496048  0
 33.037376  -17.379868  -28.992647  0
 48.500931  -21.767342  -36.896713  0
 50.326687  -20.948689  -36.222080  0
 44.556473  -20.734018  -33.955406  0
 46.057480  -21.381113  -35.539253  0
 31.404200  -16.655533  -29.425915  0
 52.379913  -20.035984  -35.406681  0
 25.959923  -16.357599  -32.076927  0
 28.294758  -16.119869  -30.974911  0
 25.343542  -16.344547  -33.092056  0
 42.432156  -19.335903  -33.541962  0
 26.537205  -17.822077  -36.215595  0
 26.104755  -17.547840  -35.508472  0
 25.858871  -16.198845  -33.835472  0
 46.822105  -19.272554  -36.180569  0
 34.673374  -19.623730  -39.100739  0
 36.069748  -19.763418  -39.721062  0
 32.049393  -19.053165  -38.199665  0
 30.702517  -18.444893  -37.382469  0
 37.798370  -18.942640  -40.770191  0
 40.303444  -19.880632  -41.911407  0
 48.930248  -18.235678  -38.465015  0
 48.253166  -19.340023  -37.468594  0
 46.488331  -18.270321  -39.817261  0
 48.073048  -17.830193  -39.168297  0
 42.865692  -19.275913  -41.578983  0
 14.998647  -15.253954   59.344990  0
 12.614237  -15.176601   58.876560  0
 11.377570  -16.132854   58.360455  0
 18.803280  -16.171118   58.472000  0
 20.261820  -16.218519   58.251804  0
 21.158592  -16.605562   57.227596  0
 12.282768  -15.556909   55.849979  0
 11.287922  -15.881563   57.054764  0
  4.785967  -17.161917   55.841160  0
 24.250872  -17.301027   54.330299  0
  7.272336  -18.065636   55.546097  0
  1.351044  -16.758139   54.261566  0
  0.423571  -16.251221   53.073616  0
 22.084530  -19.017113   53.212284  0
  0.113089  -16.187767   50.563740  0
 26.870958  -17.373989   51.836094  0
 15.615791  -15.073275   51.434814  0
 15.146256  -15.527767   48.782726  0
  0.266845  -17.324682   49.030212  0
  0.240165  -15.824812   48.785004  0
 26.910490  -17.372772   50.111889  0
 25.960470  -16.909128   50.197216  0
 21.083385  -19.262583   51.156403  0
 20.863956  -19.498144   48.937813  0
 26.387390  -17.134489   48.126080  0
 25.413382  -16.418598   48.375153  0
  1.554742  -16.702011   46.614059  0
 41.595291  -16.843126   49.072018  0
 40.105175  -16.755571   49.785725  0
 25.809612  -16.341461   46.115013  0
 15.819512  -15.452267   47.140797  0
 43.877884  -16.227732   48.162117  0
 45.557480  -17.202019   47.848118  0
 38.353870  -15.701755   47.134640  0
 15.578946  -15.681633   45.990871  0
 12.239529  -17.804249   48.016926  0
 47.047421  -17.827917   47.954887  0
 46.896568  -17.256954   47.331795  0
 26.369099  -16.400879   43.893185  0
 25.419937  -15.467757   44.469391  0
 16.496485  -15.447904   44.903603  0
 38.122471  -16.001831   45.261730  0
 36.677437  -17.319206   44.262024  0
 26.599951  -16.475542   41.791653  0
 38.104080  -16.792738   43.549179  0
 36.655384  -17.346050   42.938560  0
 34.701077  -17.446554   42.052094  0
 25.652836  -15.617606   42.626762  0
  0.983080  -17.098516   42.843948  0
 36.785984  -17.279371   41.160892  0
 35.394848  -17.194193   41.599361  0
  0.572711  -16.323698   41.697842  0
  0.746663  -17.051107   39.538338  0
 50.400219  -19.402798   40.681732  0
 34.887074  -17.316187   40.036240  0
 27.430742  -16.966253   39.037910  0
 26.258190  -15.990453   39.640099  0
  1.010695  -16.856724   37.068138  0
 36.474487  -16.825777   38.858150  0
 33.026196  -16.935942   38.194469  0
  1.124913  -17.825989   36.356514  0
 33.901840  -16.483408   37.597668  0
 11.459652  -19.677465   35.314610  0
 49.793510  -22.428314   35.384983  0
 49.509987  -20.307150   35.580635  0
 49.958420  -21.584007   35.800209  0
 33.588371  -16.246748   36.465649  0
 32.004772  -16.816557   36.064098  0
 34.566372  -16.442989   37.019085  0
 34.811092  -16.234636   36.122356  0
 31.052643  -17.138359   36.876503  0
 27.354069  -16.917658   37.519779  0
  8.979088  -20.421707   33.412777  0
 48.507774  -19.847813   34.834126  0
 29.102867  -17.487272   36.510330  0
  3.720052  -18.090422   32.631462  0
  2.404861  -17.576601   33.973576  0
 46.349495  -18.300112   34.900295  0
 32.669788  -16.429949   34.808537  0
 33.619358  -16.096951   34.388199  0
 10.607095  -20.197540   32.644524  0
  9.091777  -20.185236   31.619967  0
  7.279404  -19.845816   32.149647  0
 30.905458  -16.938919   35.255951  0
 29.406040  -17.246716   35.694683  0
 27.490082  -16.921442   36.395088  0
 11.478695  -20.542835   31.276688  0
  8.668007  -19.582655   30.724869  0
  6.001825  -18.056250   31.792004  0
  4.333279  -17.466619   32.106834  0
 42.898891  -17.098612   32.739601  0
 32.184662  -16.297466   34.237278  0
  7.385830  -18.278711   31.153921  0
 12.558538  -19.846609   29.645823  0
 11.753876  -20.263863   30.131866  0
 40.761711  -17.406010   29.711470  0
 15.237812  -19.374981   28.776907  0
 13.645593  -18.605289   28.766684  0
 15.589460  -18.534027   27.902239  0
 55.154640  -18.861185   32.958241  0
 54.217892  -19.833344   34.188835  0
 55.476395  -17.592165   33.255470  0
 56.825935  -16.834839   31.321131  0
 53.158424  -20.638178   34.925930  0
 51.222099  -21.638464   33.303848  0
 51.829559  -21.400333   34.010277  0
 57.564499  -16.284687   28.708298  0
 50.343807  -20.944164   32.981960  0
 42.782417  -19.827713   28.616240  0
 42.195129  -19.076775   29.959227  0
 41.158867  -18.104212   29.827339  0
 40.358170  -17.013739   29.264894  0
 57.946178  -16.070728   26.741564  0
  9.645583  -17.502672   29.029135  0
  5.179004  -17.656061   30.253166  0
 11.522955  -16.961067   27.849840  0
  9.725536  -16.446224   28.378347  0
  1.269717  -18.124907   30.293682  0
 61.672142  -15.584123   23.202551  0
 60.091866  -15.659291   24.351955  0
 58.368828  -15.703653   25.429661  0
 45.399254  -19.866547   27.343428  0
 43.757149  -19.631525   25.357414  0
 42.964497  -19.950336   23.842911  0
 15.961268  -16.932543   26.078831  0
 12.994560  -17.086739   26.539932  0
 10.769181  -16.217068   26.933847  0
 -0.043623  -18.339766   27.295816  0
 61.874550  -15.574383   22.082565  0
 15.549705  -16.770700   24.822556  0
 15.009533  -17.411030   25.168434  0
 13.096676  -16.920012   25.269810  0
 -0.035361  -17.551327   25.752672  0
 61.111347  -15.788701   21.279316  0
 57.986614  -17.099688   20.522158  0
  0.229042  -17.489851   22.618565  0
  0.076869  -17.117495   20.417690  0
 59.252979  -15.558990   20.113180  0
 55.057465  -18.159895   19.879206  0
 43.378807  -19.397110   23.917192  0
  0.017453  -16.492088   19.099083  0
 56.808937  -16.923044   18.543236  0
 57.616684  -16.391619   19.275438  0
  0.606995  -16.296936   18.223455  0
  4.655994  -16.655584   18.133183  0
  6.130752  -16.656563   18.168190  0
 58.975327  -15.807136   18.060595  0
 59.828552  -16.616224   17.306717  0
 60.858391  -17.705427   16.964041  0
 60.525253  -18.385420   16.215799  0
  5.181642  -16.358551   17.961279  0
 56.780766  -18.751698   14.177458  0
 58.966545  -18.484787   14.949351  0
  4.340045  -17.399549   16.984797  0
 56.003342  -18.851427   13.300601  0
  1.357681  -16.145493   15.345569  0
 56.789211  -19.066969   12.716155  0
 44.155804  -16.868568   10.302391  0
 44.264782  -17.607422    8.611322  0
 59.977661  -19.173912   12.394564  0
 45.888458  -16.485899    8.622875  0
 -0.098371  -16.654072   11.505939  0
 62.144501  -19.218750    8.273775  0
 62.545807  -17.602867   10.386221  0
 61.563030  -16.920124    9.951269  0
 46.921280  -17.940516    6.248934  0
 61.032146  -17.850124    8.729001  0
 61.107208  -18.263847    7.383173  0
 54.787552  -19.505127    6.873328  0
 52.738976  -19.200420    6.797544  0
 48.655815  -18.436321    5.478175  0
 60.196014  -19.546318    6.125248  0
 61.143383  -19.158171    6.254356  0
 60.466248  -18.397690    6.185162  0
 56.872124  -19.159285    5.852297  0
 54.241108  -17.748135    5.242507  0
 51.565060  -17.864719    5.518706  0
 49.792625  -17.998875    5.424352  0
  0.509229  -16.275255    5.476892  0
 58.541153  -18.720137    5.355196  0
 32.486172  -16.366852    5.924112  0
 32.934608  -16.090950    5.322652  0
 33.484863  -16.320026    4.081996  0
 43.291668  -17.156765    5.232123  0
 41.813885  -16.804487    4.749418  0
 47.527386  -16.347954    5.071767  0
 46.474636  -16.442478    5.415417  0
 44.964504  -16.507193    5.290889  0
 43.888626  -16.587061    5.233463  0
 41.349148  -16.422314    3.109391  0
 35.324955  -16.419695    3.431430  0
 38.201973  -16.600754    2.397672  0
 36.930244  -16.269369    2.601325  0
 36.063194  -15.439740    3.197547  0
 61.213482  -17.551849    2.142917  0
 61.947872  -17.219975    0.975977  0
 55.439091  -17.186001    1.494986  0
 53.761017  -17.307095    1.376481  0
 50.959774  -15.604068    3.345809  0
 62.012661  -17.855680   -1.097587  0
 57.451149  -16.680122    2.098448  0
 53.114944  -15.973886    1.644033  0
 39.150249  -16.355150    0.969635  0
 37.887909  -15.778936    1.978910  0
 62.124466  -18.200012   -3.235223  0
  2.544744  -16.827318   -0.384356  0
 62.673080  -18.840605   -4.853362  0
 62.428211  -19.206202   -6.195467  0
 56.271358  -18.449661   -6.602640  0
 51.573685  -19.780937   -6.951949  0
  3.735784  -16.604435   -2.683201  0
 61.084805  -19.048738   -7.180942  0
 47.992004  -20.729408   -7.907599  0
 46.143337  -20.770737   -7.374340  0
 44.931320  -20.429504   -8.094967  0
  4.209320  -16.891514   -3.754716  0
 50.041744  -19.541138   -9.006136  0
 41.472275  -19.857906   -8.081667  0
  7.094475  -17.783543   -6.630401  0
 48.229942  -19.529476  -10.045161  0
 46.193489  -19.968988   -9.655385  0
 43.943447  -19.924913   -9.198681  0
 42.656414  -19.972218   -9.303646  0
  7.876446  -18.212990   -7.735306  0
 46.454308  -19.360119  -11.518978  0
 44.287422  -19.679333  -11.302123  0
 43.120071  -19.767481  -10.788325  0
 41.796616  -20.145620   -9.422309  0
  6.187299  -16.691525   -9.568874  0
  6.261979  -16.612564   -6.920330  0
  6.908049  -17.661465  -11.173536  0
  7.282815  -17.119074  -12.711453  0
  9.571030  -17.892353  -14.416967  0
  8.589457  -16.722895  -14.494684  0
 61.389084  -17.842676  -13.301201  0
 26.116543  -17.347307  -17.250364  0
 10.948502  -16.886810  -16.289284  0
 60.075920  -17.367788  -12.855435  0
 58.621616  -16.874264  -13.077847  0
 57.400387  -15.932598  -14.221252  0
 27.648066  -17.358690  -17.450115  0
 24.256350  -17.478220  -18.094393  0
 14.471054  -17.137669  -17.453600  0
 45.777073  -16.073345  -14.155827  0
 32.531113  -16.991037  -18.749788  0
 31.345901  -16.398619  -18.504644  0
 28.513536  -16.073187  -18.499205  0
 22.481283  -17.326517  -18.783241  0
 59.879955  -17.354631  -17.032053  0
 52.416534  -15.828144  -18.193583  0
 51.410858  -15.613218  -18.865093  0
 47.888859  -17.106941  -15.498771  0
 33.600269  -16.479345  -20.447226  0
 56.871841  -17.122328  -20.302475  0
 50.416424  -15.804935  -18.672937  0
 49.640919  -16.094910  -17.860149  0
 48.876392  -17.120852  -16.616251  0
 33.122864  -16.690233  -21.105988  0
 13.945935  -16.013935  -21.319695  0
 54.219315  -15.985803  -23.749029  0
 30.414173  -17.169256  -21.892298  0
 27.452448  -16.236176  -22.777309  0
 16.976570  -15.922043  -20.345919  0
 16.188457  -15.385649  -20.701813  0
 19.052073  -16.140701  -21.533325  0
 17.795652  -15.562409  -21.004755  0
 13.335520  -16.466743  -22.306561  0
 53.215778  -17.008556  -25.743212  0
 34.208759  -17.041187  -26.088205  0
 32.875191  -17.367340  -25.216240  0
 23.081495  -16.659098  -23.582964  0
 20.731901  -15.805931  -22.353710  0
 20.033800  -15.192204  -22.157320  0
 19.072388  -15.297782  -21.392876  0
 13.723151  -16.539505  -23.401569  0
 24.074924  -16.064835  -24.414886  0
 21.680084  -15.578500  -22.788254  0
 29.540964  -17.670660  -27.499813  0
 26.250565  -18.603907  -28.184298  0
 16.931055  -18.316774  -27.306074  0
 27.571842  -18.088638  -27.943544  0
 25.318048  -19.244505  -28.914915  0
 34.245335  -16.838757  -28.408817  0
 23.592703  -19.145054  -30.258888  0
 22.257574  -19.450775  -30.289061  0
 20.271358  -19.117498  -30.109472  0
 17.863966  -18.135616  -29.316174  0
 41.799339  -18.750355  -31.426353  0
 33.656498  -16.336103  -29.138247  0
 54.408588  -18.171965  -34.060478  0
 47.899467  -20.871973  -37.212181  0
 43.632977  -18.155685  -33.429371  0
 44.593037  -19.071386  -33.934479  0
 32.180866  -15.445324  -29.916380  0
 53.234543  -19.260149  -35.713005  0
 51.266182  -19.964367  -36.851746  0
 49.274387  -20.454065  -37.413071  0
 46.721172  -20.239811  -36.175022  0
 48.277187  -19.797846  -37.400539  0
 45.870029  -19.360029  -34.857891  0
 30.111284  -15.656900  -30.479748  0
 47.111744  -19.118832  -36.085148  0
 41.727196  -18.612877  -31.554235  0
 28.608515  -15.106519  -32.152122  0
 30.927086  -14.744143  -31.370659  0
 26.540844  -15.496959  -32.817715  0
 25.965067  -16.173067  -33.117649  0
 41.962090  -18.480764  -32.193806  0
 42.831284  -17.957394  -33.017170  0
 43.372627  -18.424055  -33.959820  0
 26.437540  -16.301870  -35.233807  0
 45.159264  -17.977451  -35.173645  0
 31.986794  -18.087385  -38.844337  0
 29.730877  -17.357374  -37.224964  0
 28.831251  -17.169441  -37.143234  0
 27.454523  -16.320044  -36.308620  0
 48.764587  -17.873600  -36.597404  0
 38.877041  -18.426445  -41.723980  0
 40.018349  -18.631273  -42.110264  0
 35.530746  -18.468462  -40.466393  0
 33.602028  -17.541958  -39.895699  0
 30.047295  -17.354992  -37.992653  0
 41.280048  -18.501507  -41.819130  0
 48.069057  -16.397984  -39.111012  0
 49.608765  -16.253021  -37.995502  0
 49.661488  -17.224075  -37.389042  0
 43.372467  -17.214567  -40.299377  0
 11.864993  -15.162522   57.580875  0
 17.109224  -15.468210   58.669270  0
 12.672130  -14.804309   56.928215  0
  3.435102  -15.385231   55.512909  0
  1.715587  -14.931418   54.247715  0
 25.596676  -16.566853   52.866806  0
 24.755157  -16.067877   53.698517  0
 23.566652  -15.746129   54.572681  0
 22.773006  -17.500303   54.311661  0
  8.714031  -18.090649   55.178474  0
  9.478192  -18.285471   54.093140  0
  0.668296  -15.175282   53.452366  0
 30.441874  -18.626217   50.885326  0
 29.208338  -18.543137   51.239166  0
 29.588421  -18.778130   49.185070  0
 28.352461  -18.196095   49.871830  0
 25.162951  -16.072769   50.850227  0
 24.279730  -14.754351   53.123009  0
 32.740849  -18.438734   50.941883  0
 31.550043  -18.854582   48.605633  0
 33.458660  -18.972715   48.982006  0
 24.256092  -15.165590   49.823921  0
 24.626003  -15.447463   47.293861  0
 23.122684  -14.753938   48.532593  0
 11.871756  -18.237602   50.613079  0
 39.030437  -16.063454   49.071064  0
 29.480043  -18.668415   46.340034  0
