#!ascii file
40941  41224  41053  0
40941  41223  41224  0
41138  41049  41222  0
41225  41222  41049  0
41054  41053  41226  0
41053  41224  41226  0
41227  41140  41050  0
41050  41051  41227  0
41228  41227  41051  0
41051  40942  41228  0
41142  41228  40942  0
41049  41052  41225  0
41054  41226  41229  0
41054  41229  41143  0
41052  41144  41225  0
41055  41143  41148  0
41144  41145  41230  0
41231  41230  41145  0
41232  41147  41057  0
41057  41148  41232  0
41146  41145  41058  0
41233  41149  41064  0
41150  41234  41068  0
40968  41152  41151  0
41235  41151  41152  0
41153  41151  41235  0
41063  41236  41064  0
41063  41155  41236  0
41064  41236  41233  0
41068  41234  41156  0
41156  41237  40970  0
41152  41067  41158  0
41152  41158  41235  0
41153  41235  41238  0
41153  41238  41061  0
41061  41238  41239  0
41061  41239  41154  0
41154  41239  41155  0
41240  41073  41069  0
41240  41241  41073  0
41069  41157  41240  0
41157  40970  41237  0
41158  41159  41242  0
41158  41242  41235  0
41159  41076  41243  0
41159  41243  41242  0
41073  41241  41160  0
41076  41077  41243  0
41077  41071  41161  0
41163  41164  41244  0
41163  41244  41165  0
41162  41176  41164  0
41164  41176  41177  0
41164  41177  41244  0
41166  41165  41245  0
41166  41245  41170  0
41170  41245  41246  0
41170  41247  41173  0
41170  41173  41004  0
41170  41246  41247  0
41173  41247  41171  0
41171  41247  41248  0
41171  41248  41172  0
41172  41248  41174  0
41174  41179  41085  0
41174  41248  41179  0
41168  41175  41249  0
41168  41249  41169  0
41169  41249  41095  0
41169  41095  41162  0
41162  41095  41176  0
41177  41178  41250  0
41177  41250  41244  0
41178  41097  41251  0
41178  41251  41250  0
41249  41175  41252  0
41249  41252  41095  0
41095  41252  41181  0
41097  41101  41253  0
41097  41253  41251  0
41101  41102  41254  0
41101  41254  41253  0
41255  41180  41179  0
41099  41105  41182  0
41099  41182  41252  0
41099  41252  41175  0
41181  41252  41182  0
41102  41104  41256  0
41102  41256  41254  0
41257  41180  41255  0
41257  41255  41258  0
41257  41258  41259  0
41257  41260  41183  0
41257  41183  41180  0
41257  41259  41260  0
41104  41106  41261  0
41104  41261  41256  0
41260  41262  41184  0
41260  41184  41183  0
41106  41110  41263  0
41106  41263  41261  0
41184  41262  41185  0
41185  41262  41264  0
41185  41264  41186  0
41110  41188  41265  0
41110  41265  41263  0
41266  41193  41192  0
41188  41111  41201  0
41188  41201  41267  0
41188  41267  41265  0
41268  41187  41186  0
41187  41268  41189  0
41192  41190  41269  0
41192  41269  41266  0
41270  41195  41193  0
41195  41270  41199  0
41195  41199  41194  0
41270  41271  41120  0
41270  41120  41199  0
41272  41271  41270  0
41271  41200  41120  0
41271  41272  41200  0
41273  41200  41272  0
41200  41273  41122  0
41274  41122  41273  0
41122  41274  41196  0
41275  41196  41274  0
41196  41275  41197  0
41276  41197  41275  0
41197  41276  41123  0
41190  41203  41269  0
41205  41123  41276  0
41201  41125  41207  0
41201  41207  41277  0
41202  41198  41278  0
41203  41204  41279  0
41204  41126  41210  0
41204  41210  41280  0
41204  41280  41281  0
41204  41281  41279  0
41280  41210  41282  0
41280  41282  41283  0
41280  41283  41281  0
41282  41284  41283  0
41284  41282  41285  0
41284  41286  41283  0
41207  41208  41287  0
41207  41287  41277  0
41208  41202  41288  0
41208  41288  41287  0
41210  41209  41289  0
41210  41289  41282  0
41282  41289  41212  0
41282  41212  41285  0
41285  41212  41214  0
41285  41214  41290  0
41285  41290  41284  0
41214  41215  41290  0
41290  41215  41291  0
41209  41220  41292  0
41209  41292  41289  0
41289  41292  41293  0
41289  41293  41213  0
41289  41213  41212  0
41219  41140  41292  0
41219  41292  41220  0
41293  41294  41213  0
41213  41294  41141  0
41218  41221  41295  0
41292  41140  41227  0
41292  41227  41228  0
41292  41228  41293  0
41293  41228  41294  0
41294  41228  41142  0
41294  41142  41141  0
41295  41221  41296  0
41221  41222  41297  0
41221  41297  41296  0
41298  41226  41224  0
41229  41226  41298  0
41222  41225  41299  0
41222  41299  41297  0
41300  41143  41229  0
41225  41144  41299  0
41143  41300  41148  0
41232  41148  41300  0
41231  41145  41146  0
41146  41147  41301  0
41146  41301  41231  0
41147  41232  41302  0
41147  41302  41301  0
41233  41303  41149  0
41233  41304  41303  0
41149  41303  41150  0
41234  41150  41303  0
41305  41236  41155  0
41236  41306  41233  0
41304  41233  41306  0
41235  41242  41238  0
41307  41238  41242  0
41238  41307  41239  0
41308  41239  41307  0
41239  41308  41155  0
41305  41155  41308  0
41309  41310  41240  0
41240  41310  41241  0
41240  41157  41309  0
41237  41309  41157  0
41242  41311  41307  0
41242  41243  41311  0
41312  41308  41307  0
41161  41160  41313  0
41310  41313  41160  0
41160  41241  41310  0
41243  41077  41314  0
41077  41161  41314  0
41313  41314  41161  0
41244  41250  41165  0
41165  41250  41245  0
41251  41245  41250  0
41245  41251  41246  0
41315  41246  41251  0
41316  41247  41246  0
41247  41316  41248  0
41317  41248  41316  0
41179  41248  41317  0
41251  41253  41315  0
41318  41315  41253  0
41255  41317  41319  0
41317  41255  41179  0
41253  41254  41318  0
41318  41254  41319  0
41258  41319  41254  0
41319  41258  41255  0
41259  41254  41256  0
41254  41259  41258  0
41320  41259  41256  0
41260  41259  41320  0
41256  41261  41320  0
41321  41320  41261  0
41320  41321  41260  0
41262  41260  41321  0
41261  41263  41321  0
41322  41321  41263  0
41321  41322  41262  0
41323  41262  41322  0
41264  41262  41323  0
41263  41265  41322  0
41324  41322  41265  0
41325  41264  41323  0
41264  41325  41186  0
41266  41326  41193  0
41270  41193  41326  0
41266  41327  41326  0
41328  41326  41327  0
41272  41270  41326  0
41328  41272  41326  0
41274  41273  41329  0
41330  41329  41273  0
41329  41331  41274  0
41275  41274  41331  0
41332  41275  41331  0
41265  41267  41324  0
41268  41186  41325  0
41268  41333  41189  0
41198  41189  41333  0
41266  41269  41334  0
41272  41328  41273  0
41330  41273  41328  0
41275  41332  41276  0
41277  41267  41201  0
41267  41277  41324  0
41335  41324  41277  0
41333  41278  41198  0
41336  41278  41333  0
41279  41269  41203  0
41337  41269  41279  0
41279  41281  41337  0
41281  41283  41337  0
41338  41337  41283  0
41339  41338  41283  0
41283  41286  41339  0
41340  41339  41286  0
41341  41340  41286  0
41276  41342  41205  0
41343  41335  41277  0
41202  41278  41288  0
41336  41288  41278  0
41290  41286  41284  0
41286  41290  41341  0
41344  41341  41290  0
41277  41287  41343  0
41287  41288  41343  0
41336  41343  41288  0
41290  41291  41344  0
41345  41218  41295  0
41218  41345  41223  0
41223  41345  41224  0
41346  41224  41345  0
41224  41346  41298  0
41298  41347  41229  0
41229  41347  41348  0
41229  41348  41300  0
41230  41299  41144  0
41349  41297  41299  0
41299  41230  41349  0
41231  41349  41230  0
41300  41348  41350  0
41300  41350  41232  0
41231  41301  41351  0
41350  41302  41232  0
41352  41303  41304  0
41303  41352  41234  0
41156  41234  41352  0
41236  41305  41306  0
41310  41304  41306  0
41304  41310  41352  0
41309  41352  41310  0
41352  41309  41156  0
41237  41156  41309  0
41308  41312  41305  0
41313  41305  41312  0
41305  41313  41306  0
41310  41306  41313  0
41311  41243  41307  0
41314  41307  41243  0
41307  41314  41312  0
41313  41312  41314  0
41246  41315  41316  0
41353  41316  41315  0
41317  41316  41353  0
41315  41318  41353  0
41319  41353  41318  0
41353  41319  41317  0
41322  41324  41323  0
41354  41323  41324  0
41323  41354  41325  0
41266  41334  41327  0
41338  41327  41334  0
41327  41338  41328  0
41329  41355  41331  0
41329  41330  41355  0
41325  41354  41356  0
41325  41356  41268  0
41268  41356  41333  0
41334  41269  41337  0
41334  41337  41338  0
41328  41338  41339  0
41328  41339  41330  0
41330  41339  41340  0
41330  41340  41357  0
41330  41357  41355  0
41332  41358  41342  0
41332  41342  41276  0
41332  41331  41358  0
41324  41335  41359  0
41324  41359  41354  0
41354  41359  41356  0
41333  41356  41336  0
41340  41341  41360  0
41340  41360  41357  0
41342  41358  41361  0
41342  41361  41362  0
41341  41344  41360  0
41344  41363  41360  0
41346  41364  41298  0
41346  41345  41365  0
41346  41365  41364  0
41295  41366  41365  0
41295  41365  41345  0
41298  41364  41347  0
41296  41297  41366  0
41296  41366  41295  0
41349  41231  41351  0
41351  41367  41349  0
41351  41301  41368  0
41351  41368  41369  0
41351  41369  41367  0
41368  41301  41302  0
41368  41302  41350  0
41368  41350  41370  0
41368  41370  41369  0
41350  41348  41370  0
41355  41357  41358  0
41355  41358  41331  0
41357  41360  41358  0
41358  41360  41361  0
41335  41343  41359  0
41359  41343  41336  0
41359  41336  41356  0
41360  41363  41361  0
41361  41363  41371  0
41361  41371  41362  0
41366  41372  41365  0
41364  41373  41347  0
41297  41349  41366  0
41366  41349  41367  0
41366  41367  41372  0
41373  41370  41348  0
41373  41348  41347  0
41373  41374  41370  0
41367  41369  41372  0
41365  41372  41374  0
41365  41374  41364  0
41364  41374  41373  0
41372  41369  41374  0
41374  41369  41370  0
41375  181  41376  0
41375  180  181  0
180  41375  41377  0
180  41377  179  0
179  41377  41378  0
41375  41379  41377  0
41375  41376  41379  0
41377  41379  41378  0
346  250  41380  0
346  41380  348  0
346  249  250  0
41381  41382  440  0
41381  440  41380  0
41380  41378  41381  0
41380  250  41378  0
41378  41376  601  0
41378  601  41382  0
41378  41382  41381  0
41378  41379  41376  0
41378  250  174  0
41378  174  179  0
41383  41384  181  0
41384  603  768  0
41384  770  603  0
41384  41383  41385  0
41384  768  41376  0
41384  41376  181  0
41384  41385  770  0
41380  440  348  0
41382  41386  440  0
41382  601  598  0
41382  598  600  0
41382  600  41386  0
768  767  41376  0
41376  767  601  0
41383  252  41385  0
41385  252  41387  0
588  41386  439  0
255  352  41387  0
255  41387  252  0
41387  41388  41385  0
41387  352  41388  0
41385  41388  770  0
41386  600  765  0
41386  1255  748  0
41386  588  440  0
41386  748  439  0
41386  765  1255  0
1255  765  1096  0
41388  352  41389  0
1255  1071  748  0
41390  744  1073  0
41390  352  447  0
41390  447  744  0
447  441  744  0
41388  41389  770  0
41390  1073  1248  0
41390  1248  1261  0
41390  1261  352  0
41389  352  1263  0
41389  1263  931  0
41389  931  770  0
181  176  41383  0
176  173  41383  0
41383  173  252  0
601  767  603  0
352  351  446  0
352  1261  1263  0
352  446  447  0
571  733  434  0
571  434  570  0
895  430  584  0
570  434  560  0
893  437  733  0
895  562  430  0
895  561  562  0
905  1445  1447  0
905  1075  750  0
905  1447  1075  0
893  1445  437  0
434  733  437  0
434  430  562  0
434  562  560  0
437  905  438  0
437  1445  905  0
560  556  570  0
561  1058  728  0
561  895  1058  0
893  1056  1433  0
893  1433  1445  0
41391  1506  1311  0
1506  41392  41393  0
1506  41391  41392  0
41392  41394  41395  0
1311  1313  41391  0
41393  41392  41395  0
41393  41395  1952  0
41393  1952  1506  0
41395  2433  41396  0
41395  41394  2433  0
41395  41396  1952  0
41394  2182  2184  0
41394  2184  2433  0
41394  41392  1720  0
41394  1720  2182  0
41392  41391  1720  0
41391  1717  1720  0
41391  1715  1717  0
41391  1313  1715  0
1952  1507  1506  0
1952  2452  2195  0
1952  41396  2719  0
1952  2719  2452  0
41396  2433  2709  0
41396  2709  2719  0
2433  2184  2434  0
1715  1509  2442  0
1715  1313  1509  0
2433  2435  2709  0
2442  1509  1954  0
2442  1954  2448  0
1720  1721  2182  0
1715  2442  1719  0
1719  2442  2185  0
1509  1510  1954  0
1491  1705  41397  0
1491  41397  1308  0
1491  1308  1299  0
41397  41398  1308  0
41397  41399  41400  0
41397  1912  41399  0
41397  41400  41398  0
41397  1705  1700  0
41397  1700  1912  0
41398  41400  1503  0
41398  1503  1308  0
41401  41402  41403  0
41404  41405  41406  0
41400  41399  41407  0
41400  41408  1503  0
41400  41409  41408  0
41400  41407  41409  0
41399  1912  2392  0
41399  2392  41407  0
41410  2134  41411  0
41412  41413  41411  0
41407  2392  2399  0
41407  41414  41409  0
41407  41415  41414  0
41407  2399  2405  0
41407  2405  41415  0
1912  2142  2392  0
41413  41412  1708  0
41413  1708  41404  0
41402  41401  1712  0
41402  1712  41416  0
41402  41414  41403  0
41402  41416  41414  0
2655  2135  2134  0
41411  1704  1708  0
41411  1708  41412  0
41411  2133  1704  0
41411  2134  2133  0
41411  41413  41417  0
41411  41417  41410  0
2405  41418  41415  0
41403  41406  41401  0
41403  41418  41406  0
41403  41414  41418  0
41413  41418  41417  0
41413  41406  41418  0
41413  41404  41406  0
41418  41419  41417  0
41418  41414  41415  0
41418  2961  41419  0
41418  2404  2961  0
41418  2405  2404  0
41406  41405  41401  0
2655  2134  41420  0
2655  41420  2656  0
1503  1714  1502  0
41417  41419  3254  0
41417  3254  41421  0
41417  41421  41410  0
41404  1708  41405  0
41420  2134  41410  0
41420  41410  41422  0
41420  41422  2949  0
41420  2949  2656  0
41410  41421  41422  0
41401  41405  1710  0
41401  1935  1712  0
41401  1710  1935  0
41409  41414  41408  0
41422  3254  3246  0
41422  41421  3254  0
41422  3246  2949  0
41419  2961  2968  0
41419  2968  3254  0
41408  1714  1503  0
41408  41414  1714  0
41405  1708  1707  0
41405  1707  1709  0
41405  1709  1710  0
41414  41416  1711  0
41414  1713  1714  0
41414  1711  1713  0
41416  1712  1711  0
1912  1903  2142  0
1704  2133  1908  0
2142  2143  2392  0
2135  2655  2366  0
2404  2406  2961  0
2949  3246  3241  0
3254  3248  3246  0
2891  2890  3164  0
2890  2897  3164  0
2891  3164  3163  0
5491  5812  6789  0
5491  5484  5812  0
6789  5812  6103  0
5491  6789  41423  0
5491  41423  5203  0
41424  6103  5811  0
41424  5811  6104  0
41424  41425  6103  0
41424  6104  6432  0
41424  6432  41425  0
41423  6789  6463  0
41423  6462  5495  0
41423  5495  5203  0
41423  6463  6462  0
6462  41426  5498  0
6462  5498  5495  0
41425  6432  6438  0
41425  6438  41427  0
41425  41427  7106  0
41425  7106  6103  0
41426  6462  6461  0
7722  7412  7705  0
7722  7705  7715  0
41426  41428  5498  0
41426  7740  41428  0
6461  7417  41426  0
41429  41430  6145  0
41429  6145  6141  0
41429  6141  5837  0
41429  5837  41430  0
41426  7417  7740  0
41427  7091  7106  0
41427  6763  7091  0
41427  6438  6763  0
41431  7106  7407  0
41431  6103  7106  0
41431  7407  7412  0
41431  7412  7122  0
41431  7122  6103  0
6805  41432  7741  0
6145  41430  6805  0
8045  8671  8046  0
8045  8672  8671  0
8045  41432  8672  0
8045  7742  7741  0
8045  7741  41432  0
6799  6146  7741  0
6799  7741  7129  0
41428  7740  7750  0
41428  8360  5498  0
41428  7750  8360  0
6805  41430  41432  0
6805  7741  6146  0
41430  8360  41432  0
41430  5837  5498  0
41430  5498  8360  0
8672  8702  8673  0
8672  41432  8702  0
41432  8360  8702  0
6103  6790  6789  0
6103  7122  6790  0
6763  6434  7091  0
7412  7722  7413  0
7412  7407  7705  0
7705  7407  7399  0
8673  8702  9044  0
41433  41434  41435  0
41433  7805  41434  0
41433  41435  41436  0
41433  41436  8113  0
41434  41437  8762  0
8113  41436  8768  0
41433  7807  7805  0
41433  8113  7807  0
41437  7805  8112  0
41437  8112  8427  0
41435  41434  9494  0
41435  9494  41436  0
41438  8764  8762  0
41438  8762  41437  0
41438  8427  9502  0
41438  41437  8427  0
41434  8761  9494  0
41434  8762  8761  0
41436  9494  41439  0
41436  41439  8768  0
41434  7805  41437  0
41438  9502  8764  0
8768  8432  8113  0
9494  9498  41439  0
9498  9503  41439  0
8432  8115  8113  0
41439  9503  9125  0
41439  9125  8768  0
7805  7487  8112  0
8427  8766  9502  0
8427  8426  8766  0
8764  9497  9122  0
8764  9502  9497  0
8846  41440  8838  0
8846  8838  8489  0
9218  41440  8855  0
41440  9218  8838  0
41440  8839  9206  0
41440  9206  8852  0
41440  8846  8839  0
41440  8852  8855  0
8853  9206  8862  0
8853  8852  9206  0
8862  9206  8857  0
8857  41441  8858  0
41441  9595  9616  0
41441  9207  9595  0
41441  8857  9207  0
41441  9616  8858  0
9595  9596  9616  0
9596  9948  9616  0
9953  9617  9616  0
8741  9086  8736  0
8741  41442  9086  0
41442  8406  41443  0
41442  8741  8406  0
41443  41444  41445  0
41443  8412  41444  0
41443  41445  41442  0
41443  8406  8412  0
41442  10149  41446  0
41442  41445  10149  0
41442  41446  9086  0
9086  41446  9826  0
41446  10146  9826  0
41446  10149  10146  0
41444  41447  41445  0
41444  8412  8743  0
41444  8743  41448  0
41444  41448  41447  0
41445  10153  10149  0
41445  41447  10153  0
9826  9085  9086  0
41447  41448  41449  0
41447  41449  10153  0
8743  8738  41448  0
41448  8737  41449  0
41448  8738  8737  0
41449  9081  10133  0
41449  8737  9081  0
41449  10133  10153  0
10132  10131  10146  0
10146  10131  9826  0
10153  10142  10147  0
10153  10133  10142  0
41450  9887  41451  0
41450  41451  11192  0
41450  41452  9528  0
41450  41453  41452  0
41450  9528  9887  0
41450  11180  41453  0
41450  11192  11180  0
41451  9887  10552  0
41451  10552  11192  0
41452  9526  9528  0
41452  41453  10216  0
41452  10216  9526  0
41453  41454  10216  0
41453  11180  11179  0
41453  11489  41454  0
41453  11179  11489  0
41454  10545  10540  0
41454  10540  10216  0
41454  11489  11491  0
41454  11491  11186  0
41454  11186  10545  0
11186  10884  10545  0
9887  9895  10552  0
9887  9533  9895  0
10545  10884  10224  0
10884  11186  11188  0
11491  11187  11186  0
41455  41456  41457  0
41457  41458  41459  0
41457  41459  41455  0
41457  41460  41458  0
41459  41461  41455  0
41461  41462  41455  0
41458  41460  41463  0
41458  41463  41459  0
41460  41457  41464  0
41459  41463  41465  0
41463  41460  41464  0
41463  41464  41465  0
41459  41465  41462  0
41459  41462  41461  0
41464  41457  41465  0
41462  41466  41455  0
41462  41465  41466  0
41465  41467  41466  0
41465  41457  41467  0
41466  41467  18809  0
41466  18460  41468  0
41466  18123  18461  0
41466  18809  18123  0
41466  18461  18460  0
41467  41457  41469  0
41467  41469  19158  0
41467  19158  18809  0
41470  41471  41472  0
41470  41473  41471  0
41470  41472  41474  0
41470  41475  41473  0
41470  41476  41475  0
41470  41477  19747  0
41470  19747  20360  0
41470  41474  18441  0
41470  18441  41478  0
41470  41478  41477  0
41470  20360  41479  0
41470  41479  41476  0
41472  41480  41474  0
41471  41480  41472  0
41471  41473  41481  0
41471  41481  41480  0
41481  41475  41482  0
41481  41473  41475  0
41481  41482  41483  0
41481  41483  41480  0
41482  41475  41483  0
41475  41484  41485  0
41475  41486  41484  0
41475  41476  41486  0
41475  41485  41483  0
41483  41487  41488  0
41483  41485  41487  0
41483  41488  41489  0
41483  41489  41480  0
41488  41486  41490  0
41488  41490  19441  0
41488  19441  19130  0
41488  19128  41489  0
41488  19130  19128  0
41485  41484  41491  0
41485  41491  41487  0
41487  41491  41486  0
41487  41486  41488  0
41484  41486  41491  0
41486  41476  41490  0
41490  41476  20371  0
41490  41492  41493  0
41490  41493  18820  0
41490  19772  41492  0
41490  20371  19772  0
41490  18813  19441  0
41490  18820  18813  0
41494  41495  41496  0
41494  41497  41498  0
41494  41496  41497  0
41494  20094  41495  0
41494  41499  41500  0
41494  41498  41499  0
41494  41500  20094  0
41495  41501  41496  0
41495  41502  41501  0
41495  20094  20416  0
41495  41503  41504  0
41495  20416  41503  0
41495  41504  41502  0
41496  41501  41497  0
41501  41502  41505  0
41506  19756  19757  0
41506  19757  21003  0
41507  41508  21927  0
41507  41509  41510  0
41507  21927  41509  0
41507  41511  41512  0
41507  41510  41511  0
41510  41513  41514  0
41510  41514  41515  0
41510  41515  41516  0
41510  41516  41511  0
41510  41517  41513  0
41510  41509  41517  0
41511  41516  41512  0
41514  41513  41515  0
41508  41507  41512  0
41508  41512  41518  0
41508  22606  22251  0
41508  41518  22606  0
41508  22251  21927  0
41516  41515  41519  0
41516  41519  41512  0
41513  41517  41515  0
41517  23824  41520  0
41517  41520  41515  0
41517  41509  23212  0
41517  23212  23498  0
41517  23498  23825  0
41517  23825  23824  0
41512  41521  41518  0
41512  41522  41521  0
41512  41515  41523  0
41512  41523  41522  0
41512  41519  41515  0
41515  41524  41523  0
41515  41520  41524  0
41518  41521  41525  0
41523  41526  41527  0
41523  41524  41526  0
41523  41527  41522  0
41524  41520  41526  0
41525  41528  41529  0
41525  22606  41518  0
41525  41529  22606  0
41525  41530  41528  0
41525  41521  41530  0
41530  41522  41528  0
41530  41521  41522  0
41522  41527  41531  0
41522  41531  41532  0
41522  41532  41533  0
41522  41533  41528  0
41527  41526  41534  0
41527  41534  41535  0
41527  41536  41531  0
41527  41535  41536  0
41526  41537  41534  0
41526  41520  41537  0
41520  41538  41539  0
41520  41540  41538  0
41520  41539  41537  0
41520  41541  41540  0
41520  23837  41541  0
41520  23824  23837  0
41531  41542  41543  0
41531  41536  41542  0
41534  41537  41544  0
41534  41544  41535  0
41535  41544  41545  0
41535  41545  41536  0
41536  41546  41542  0
41536  41545  41546  0
41537  41539  41547  0
41537  41547  41548  0
41537  41548  41544  0
41538  41549  41539  0
41538  41541  41549  0
41538  41540  41541  0
41533  41550  41551  0
41533  41551  41552  0
41533  41532  41550  0
41533  41552  41553  0
41533  41554  41555  0
41533  41555  41556  0
41533  41553  41554  0
41533  41556  41557  0
41533  41557  41528  0
41550  41558  41551  0
41550  41559  41558  0
41550  41532  41559  0
41559  41543  41558  0
41559  41532  41543  0
41532  41531  41543  0
41544  41548  41560  0
41544  41560  41545  0
41545  41560  41546  0
41546  41561  41542  0
41546  41560  41562  0
41546  41562  41561  0
41548  41547  41563  0
41548  41563  41560  0
41547  41564  41563  0
41547  41539  41564  0
41539  41565  41564  0
41539  41549  41565  0
41551  41566  41567  0
41551  41567  41568  0
41551  41558  41566  0
41551  41568  41552  0
41543  41569  41570  0
41543  41542  41569  0
41543  41570  41558  0
41542  41571  41569  0
41542  41561  41571  0
41560  41563  41562  0
41561  41562  41572  0
41561  41572  41571  0
41562  41563  41573  0
41562  41573  41572  0
41563  41564  41573  0
41564  41565  41574  0
41565  41549  41575  0
41565  41575  41574  0
41549  41576  41575  0
41549  41541  41576  0
41568  41577  41552  0
41568  41567  41577  0
41567  41578  41577  0
41567  41566  41578  0
41577  41578  41552  0
41558  41570  41566  0
41570  41579  41566  0
41569  41580  41570  0
41569  41571  41580  0
41571  41572  41580  0
41572  41581  41580  0
41572  41573  41581  0
41573  41564  41582  0
41573  41582  41581  0
41564  41574  41582  0
41575  41583  41574  0
41574  41583  41582  0
41578  41579  41584  0
41578  41566  41579  0
41578  41584  41552  0
41552  41585  41586  0
41552  41587  41585  0
41552  41586  22942  0
41552  41588  41589  0
41552  41584  41588  0
41552  22942  41590  0
41552  41591  41587  0
41552  41589  41592  0
41552  41592  41591  0
41552  41590  41553  0
41570  41580  41593  0
41570  41593  41579  0
41580  41581  41593  0
41581  41582  41594  0
41581  41595  41593  0
41581  41594  24146  0
41581  24146  41596  0
41581  41596  41595  0
41582  41583  41594  0
41541  24146  41597  0
41541  41598  24146  0
41541  23837  41598  0
41575  41576  41599  0
41575  41599  41583  0
41583  41599  41594  0
41584  41579  41588  0
41585  41587  41600  0
41585  41600  41601  0
41585  41601  41586  0
41586  41601  41602  0
41586  41602  41603  0
41586  41604  22942  0
41586  41605  41604  0
41586  41606  41605  0
41586  41603  41606  0
41593  23522  41579  0
41593  41595  23523  0
41593  23523  23522  0
41594  41599  41607  0
41594  41607  24146  0
41597  41607  41541  0
41597  24146  41607  0
41576  41607  41599  0
41553  22942  41554  0
41553  41590  22942  0
41588  41592  41589  0
41588  23878  41592  0
41588  23872  23878  0
41588  41579  23531  0
41588  23531  23535  0
41588  23535  23872  0
41579  23522  23531  0
41601  41600  41608  0
41600  41587  41609  0
41576  41541  41607  0
41601  41608  41602  0
41592  23878  41610  0
41608  41611  41602  0
41608  41600  41611  0
41600  41609  41611  0
41609  41612  41613  0
41609  41587  41612  0
41587  41591  41612  0
41602  41611  41614  0
41602  41614  41615  0
41602  41616  41617  0
41602  41617  22300  0
41602  41618  41616  0
41602  41615  41618  0
41602  41619  41603  0
41602  22300  41619  0
41610  41620  41592  0
41611  41615  41614  0
41611  41621  41615  0
41611  41609  41621  0
41609  41622  41621  0
41609  41613  41622  0
41612  41623  41613  0
41612  41591  41623  0
41613  41623  41622  0
41591  41620  41624  0
41591  41624  41623  0
41591  41592  41620  0
41610  23878  41625  0
41610  41625  41626  0
41610  41626  41620  0
41620  41627  41628  0
41620  41629  41627  0
41620  41626  41629  0
41625  23878  41626  0
41615  41630  41618  0
41615  41621  41630  0
41621  41622  41631  0
41622  41632  41631  0
41622  41623  41632  0
41620  41628  41624  0
41624  41627  41633  0
41624  41633  41634  0
41624  41628  41627  0
41635  41596  24146  0
41635  41636  41596  0
41626  41637  41629  0
41626  23878  23879  0
41618  41638  41616  0
41618  41630  41638  0
41621  41631  41639  0
41621  41639  41630  0
41630  41640  41638  0
41630  41639  41640  0
41631  41632  41641  0
41631  41641  41639  0
41632  41642  41641  0
41632  41623  41642  0
41623  41624  41642  0
41635  24146  41636  0
41643  41644  41645  0
41643  41617  41644  0
41643  41646  41617  0
41644  41617  41645  0
41617  41616  41638  0
41617  41646  41647  0
41617  41647  41648  0
41617  41638  41649  0
41617  41649  41645  0
41617  41648  41650  0
41617  41650  41651  0
41617  41652  22300  0
41617  41651  41653  0
41617  41654  41652  0
41617  41653  41654  0
41629  41655  41627  0
41629  41656  41655  0
41629  41657  41656  0
41629  41637  41657  0
41638  41658  41649  0
41638  41640  41658  0
41639  41641  41659  0
41639  41659  41640  0
41640  41659  41660  0
41640  41660  41661  0
41640  41661  41658  0
41641  41642  41662  0
41642  41634  41662  0
41642  41624  41634  0
41645  23233  41643  0
41645  41649  23233  0
41655  41656  41663  0
41627  41655  41633  0
41655  41663  41633  0
41649  41658  22947  0
41649  22947  41664  0
41649  23234  23233  0
41649  23240  23234  0
41649  41665  23240  0
41649  41664  41665  0
41658  41661  22947  0
41659  41662  41666  0
41659  41641  41662  0
41659  41666  41660  0
41661  41660  22947  0
41660  41666  41667  0
41660  41668  22947  0
41660  41667  41669  0
41660  41669  41670  0
41660  41670  41671  0
41660  41671  23263  0
41660  23263  41668  0
41662  41672  41666  0
41662  41634  41672  0
41634  41673  41672  0
41634  41674  41673  0
41634  41633  41674  0
23233  23226  41643  0
41663  41675  41676  0
41663  41674  41633  0
41663  41676  41674  0
41656  41675  41663  0
41656  41657  41677  0
41656  41677  41675  0
41675  41677  41678  0
41675  41678  41679  0
41666  41672  41680  0
41672  41673  41680  0
41673  41674  41681  0
41646  41643  23225  0
41643  23226  23225  0
41674  41676  41682  0
41674  41682  41683  0
41674  41683  41684  0
41674  41684  41685  0
41674  41685  41686  0
41674  41686  41681  0
41676  41675  41687  0
41676  41687  41682  0
41657  41688  41677  0
41657  41637  41689  0
41657  41690  41688  0
41657  41689  41690  0
41677  41688  41678  0
41666  41680  41667  0
41680  41673  41667  0
41647  41646  41691  0
41647  41691  41692  0
41647  41692  22897  0
41647  22897  22596  0
41647  22596  41648  0
41646  23225  41691  0
41637  41693  41689  0
41637  41694  41693  0
41637  41626  24487  0
41637  24487  24488  0
41637  24488  41694  0
41689  41693  41695  0
41689  41695  41690  0
41675  41679  41687  0
41682  41684  41683  0
41682  41687  41696  0
41688  41697  41698  0
41688  41690  41697  0
41688  41698  41678  0
41678  41687  41679  0
41678  41699  41687  0
41678  41700  41699  0
41678  41698  41700  0
41667  41673  41669  0
41681  41686  41673  0
41691  23225  22913  0
41693  41701  41695  0
41695  41701  41690  0
41690  41701  41697  0
41682  41696  41684  0
41696  41687  41702  0
41687  41699  41703  0
41687  41703  41704  0
41687  41704  41702  0
41697  41701  41705  0
41697  41705  41706  0
41697  41706  41698  0
41698  41707  41700  0
41698  41706  41707  0
41699  41700  41703  0
41700  41707  41708  0
41700  41704  41703  0
41700  41708  41709  0
41700  41709  41710  0
41700  41711  41704  0
41700  41710  41711  0
41669  41686  41712  0
41669  41673  41686  0
41669  41712  41696  0
41669  41696  41713  0
41669  41713  41711  0
41669  41711  41670  0
41684  41696  41712  0
41691  22913  41714  0
41693  41715  41701  0
41693  41694  41715  0
41701  41715  41716  0
41701  41717  41705  0
41701  41716  41717  0
41702  41713  41696  0
41702  41704  41713  0
41712  41686  41685  0
41684  41712  41685  0
41691  41714  41718  0
41691  41718  41692  0
41714  41719  41720  0
41714  41721  41719  0
41714  41720  41718  0
41714  41722  41721  0
41714  22577  41722  0
41714  22913  22597  0
41713  41704  41711  0
41705  41723  41706  0
41705  41717  41724  0
41705  41724  41723  0
41706  41725  41726  0
41706  41723  41725  0
41706  41726  41707  0
41708  41707  41726  0
41708  41726  41709  0
41727  41728  41729  0
41727  41729  41730  0
41727  41731  41728  0
41727  41730  41732  0
41727  41711  41731  0
41727  41670  41711  0
41727  41732  41733  0
41727  41733  23887  0
41727  23887  41670  0
41720  41719  41734  0
41720  41734  41718  0
41721  41722  41735  0
41715  41694  41736  0
41723  41724  41725  0
41717  41716  41737  0
41717  41737  41738  0
41725  41724  41726  0
41726  41724  41709  0
41731  41709  41728  0
41731  41711  41710  0
41731  41710  41709  0
41739  23488  41734  0
41739  41740  23487  0
41739  23487  23488  0
41739  41734  41740  0
41734  23488  22549  0
41734  22549  41741  0
41734  41741  21579  0
41734  41742  41740  0
41734  41719  41742  0
41734  41743  41718  0
41734  21579  41743  0
23488  23197  22549  0
41742  41719  41744  0
41742  41744  41740  0
41719  23789  41744  0
41719  41721  23789  0
41721  41745  23789  0
41735  41746  41745  0
41735  41745  41721  0
41735  23794  41746  0
41735  41747  23794  0
41735  41722  41748  0
41735  41748  41749  0
41735  41749  41747  0
41724  41717  41738  0
23794  41747  23201  0
23201  41747  22886  0
41740  23789  23194  0
41740  41744  23789  0
41740  23194  23486  0
41740  23486  23487  0
41745  24096  23789  0
41745  24098  24096  0
41745  41746  24098  0
41746  23794  24098  0
41715  41736  41716  0
41709  41724  41738  0
41709  41750  41728  0
41709  41738  41750  0
41716  41736  41737  0
41738  41737  41750  0
22218  22556  22886  0
41737  41736  41751  0
41737  41751  41750  0
22218  41747  41752  0
22218  22886  41747  0
41750  41753  41728  0
41750  41751  41753  0
41754  41741  22209  0
41754  21579  41741  0
41754  22209  22213  0
41754  22213  21579  0
41752  22219  22218  0
41752  22220  22219  0
41752  41747  22220  0
21579  21580  41743  0
41747  41755  22220  0
41747  41756  41755  0
41747  41749  41756  0
22220  41755  22217  0
21580  21259  41743  0
41755  22567  22217  0
41755  41749  22567  0
41755  41756  41749  0
41749  22572  22567  0
41749  41748  22572  0
41743  21259  21921  0
22205  22213  22206  0
22205  21256  22213  0
22205  41757  21256  0
21921  41758  41743  0
41748  22577  22572  0
41748  41722  22577  0
41728  41753  41729  0
21256  41759  20950  0
22214  21909  41757  0
22214  41757  22544  0
41757  22543  22544  0
41757  21912  21256  0
41757  21909  21912  0
41758  21921  22574  0
41758  22574  41692  0
41758  41718  41743  0
41758  41692  41718  0
20951  20950  41759  0
20951  41759  41760  0
41759  41761  41760  0
41759  21912  21908  0
41759  21256  21912  0
41757  22205  22207  0
41757  22207  22543  0
41692  22574  22893  0
41692  22893  22897  0
41714  22583  22577  0
41760  41761  41762  0
41760  41762  20630  0
41762  41761  41763  0
41762  41763  20630  0
41759  21908  21911  0
41759  21911  41761  0
41714  22590  22583  0
41714  22597  22590  0
41760  20630  20951  0
41763  41764  20630  0
41763  41761  41764  0
20630  41764  20945  0
41765  21251  21250  0
41765  21911  21251  0
41765  41761  21911  0
20945  20628  20630  0
41764  41765  41766  0
41764  41766  20945  0
41764  41761  41765  0
22897  22898  22595  0
41765  21250  41766  0
22595  22596  22897  0
22913  22598  22597  0
22596  22256  41648  0
41648  22256  41650  0
22913  23225  22917  0
41650  22256  21935  0
22917  23225  23227  0
41650  21935  22273  0
22273  21935  21941  0
22273  41651  41650  0
22273  21950  41651  0
41651  21950  41653  0
41665  22944  23240  0
41653  21950  41654  0
41654  21950  21959  0
41654  21959  21967  0
41654  21967  21975  0
41654  21975  41652  0
41665  22945  22944  0
41665  41664  22945  0
41652  21975  22300  0
41664  22947  22945  0
41668  23263  22948  0
41668  22948  22947  0
22300  22299  41619  0
41671  23267  23263  0
41671  41767  23267  0
41671  41670  41767  0
41619  22299  22298  0
41767  23545  23267  0
41619  22298  22639  0
41619  22639  41606  0
41619  41606  41603  0
23545  41767  23546  0
41606  22630  41605  0
41606  22639  22635  0
41606  22634  22630  0
41606  22635  22295  0
41606  22295  22634  0
41626  23879  23886  0
41626  23886  24487  0
41767  23887  23546  0
41767  41670  23887  0
41605  22630  41604  0
23872  23535  23534  0
41604  22630  22626  0
41604  22626  22942  0
23535  23531  23530  0
41733  24185  23881  0
41733  23881  23887  0
41733  41732  24185  0
23530  23536  23535  0
41694  24488  25032  0
41694  25032  41736  0
41732  41730  24479  0
41732  24479  24185  0
41554  22939  22940  0
41554  22940  41555  0
41554  22942  22939  0
25032  25289  41736  0
41729  24769  24479  0
41729  24479  41730  0
41729  25602  24769  0
41753  41751  41729  0
41751  41736  25600  0
41751  25600  41729  0
41555  22940  22623  0
41555  22623  22934  0
41555  22934  41556  0
41736  25289  25598  0
41736  25598  25600  0
41729  25600  25602  0
41556  22934  22930  0
41556  22930  22928  0
41556  22928  41557  0
23523  41595  23852  0
41557  22928  22617  0
41557  22617  22612  0
41557  22612  41529  0
41557  41529  41528  0
41595  41596  23852  0
41596  41636  23852  0
41529  22612  22606  0
23837  23824  23829  0
41636  23853  23852  0
41636  24147  23853  0
41636  24146  24147  0
23837  23836  41598  0
24147  24441  23853  0
41598  23836  24146  0
23212  41509  22902  0
21927  22903  41509  0
41509  22903  22902  0
22903  21927  41768  0
22903  41768  22588  0
41768  21927  20964  0
22588  22587  22903  0
41768  20964  20961  0
41768  20961  22588  0
22588  20961  41769  0
20961  20960  41769  0
22588  41769  22586  0
41769  20330  22586  0
41769  20960  20331  0
41769  20331  20330  0
20330  21928  22586  0
20330  21269  21928  0
21269  20330  20333  0
20333  20022  21269  0
21269  20022  20970  0
20970  20022  20967  0
20967  20022  41770  0
41770  19731  19732  0
41770  20022  19731  0
41770  19732  20967  0
20967  19732  20968  0
19732  41771  20968  0
41771  41506  20968  0
20968  41772  20972  0
41506  41771  19435  0
41506  41772  20968  0
41506  19435  19756  0
19435  19732  19121  0
19435  41771  19732  0
19435  19434  19756  0
41506  20978  41772  0
41506  21003  20978  0
41772  20978  20972  0
19757  41773  21003  0
41773  19757  19761  0
41773  19761  41774  0
41773  21008  21003  0
41774  19761  19762  0
41774  19762  19767  0
41774  41505  41773  0
41774  41501  41505  0
41774  19767  41501  0
41773  41505  21008  0
41501  19767  41497  0
41505  21011  21008  0
41505  41502  21011  0
21011  41502  21015  0
21011  21015  21010  0
19767  19467  41497  0
41502  21021  21015  0
41502  41504  21021  0
41504  20714  21021  0
41504  41503  20714  0
41497  19467  19477  0
41503  20416  20714  0
41497  19477  19183  0
19183  19477  19175  0
20094  41500  20092  0
41500  20091  20092  0
41500  41499  20091  0
19183  19182  41497  0
41499  20088  20091  0
41499  20086  20088  0
41499  41498  20086  0
41497  19182  41498  0
41498  19798  20086  0
41498  18856  19798  0
41498  19182  18857  0
41498  18857  18856  0
19798  18843  19792  0
19798  18856  18843  0
18843  41775  19792  0
18843  41776  41775  0
41776  18843  18492  0
41776  18492  18490  0
41776  18490  41777  0
41776  41777  41775  0
41775  41778  19792  0
41775  41777  41778  0
41778  19781  19792  0
41777  18490  18489  0
41777  18489  41778  0
41778  19471  19781  0
41778  18489  19471  0
19471  18489  19464  0
19464  18489  18478  0
19464  18478  41492  0
41492  19772  19465  0
41492  19465  19464  0
41492  18478  41493  0
41493  18478  18820  0
19772  20371  20059  0
19772  20059  19773  0
18813  18453  19441  0
20371  41476  20369  0
19128  19122  19431  0
19128  19431  41489  0
41476  41779  20369  0
41476  41479  41779  0
41779  20359  20372  0
41779  20372  20369  0
41479  20360  41779  0
41489  19431  19430  0
41489  19430  41480  0
41779  20360  20359  0
20360  19747  20042  0
41480  19430  41474  0
41474  19430  18791  0
41474  18791  18441  0
19747  41477  19748  0
18441  18116  41478  0
41477  41478  19748  0
19748  19139  19446  0
19748  19446  19750  0
19748  41780  19139  0
19748  41478  41780  0
41478  18116  18123  0
41478  18123  41780  0
41780  18808  19139  0
41780  18123  18808  0
18123  17797  18461  0
18123  18809  18808  0
18461  17797  17801  0
18460  18461  17497  0
18460  18134  41468  0
18134  41781  41468  0
19158  19147  18809  0
41781  18134  18459  0
41781  18459  41468  0
41468  18459  18465  0
41468  18465  18466  0
41468  18466  41466  0
41469  18477  19158  0
41469  18147  18477  0
41469  41457  18147  0
41455  18137  17814  0
41455  18138  18137  0
41455  17814  41456  0
41455  41466  18138  0
41466  18466  18138  0
41456  17814  17197  0
41456  17197  17523  0
41456  17523  41457  0
41457  18145  18147  0
41457  17523  18145  0
17523  17525  18145  0
41782  41783  41784  0
41782  41784  20944  0
41784  41785  20944  0
41784  41783  41786  0
41785  21572  20944  0
41785  41784  41787  0
41785  41787  21572  0
41784  41786  20946  0
41784  20946  41787  0
41786  41783  41788  0
41786  41788  20946  0
41783  41789  41788  0
21572  20940  20944  0
41787  41766  21250  0
41787  21250  21249  0
41787  20946  41766  0
41787  21249  21574  0
41787  21574  21572  0
41782  41789  41783  0
41782  41790  41789  0
41782  22878  41791  0
41782  20944  41792  0
41782  41793  22878  0
41782  41792  41793  0
20942  20943  41792  0
20942  41792  20944  0
41766  20623  20945  0
41766  20946  20623  0
22878  41793  41794  0
41791  22546  41782  0
41782  22546  41790  0
41790  22546  41789  0
41789  41795  21576  0
41789  41796  41795  0
41789  21576  41788  0
41789  22546  41796  0
41788  20947  20946  0
41788  21576  20947  0
41791  22547  22546  0
21576  41795  21917  0
41796  22546  22548  0
41792  21247  41797  0
41792  41797  41793  0
41792  20943  21247  0
41791  22878  22547  0
41795  41796  22548  0
41795  22548  22559  0
41795  22559  22558  0
41795  22558  21917  0
41797  21247  21900  0
41797  21900  41793  0
21247  21243  21900  0
22558  22563  22221  0
22558  22221  21917  0
22221  22563  22564  0
21900  22200  41793  0
41793  22200  22536  0
41793  22536  41798  0
41793  41798  41794  0
22536  22870  41798  0
23790  22879  41794  0
41798  22870  24095  0
41798  24095  23790  0
41798  23790  41794  0
41794  22879  22878  0
22870  22869  24095  0
22549  22209  41741  0
22213  21256  21579  0
20951  20630  20627  0
20628  20945  20633  0
21572  21574  21568  0
10720  11040  11041  0
10720  11041  11332  0
10720  11332  41799  0
11958  12264  11959  0
11958  41800  12264  0
11958  11339  41800  0
41801  41800  11339  0
41800  11949  12264  0
41800  11961  11949  0
41800  41801  11961  0
12264  11949  11952  0
41802  11332  11336  0
41802  41799  11332  0
11669  11961  11336  0
11961  41802  11336  0
11961  41801  41802  0
41799  10725  10720  0
11665  11339  11958  0
41801  11339  41802  0
41799  41802  11335  0
41799  11335  10725  0
41802  11339  11335  0
11042  11332  11041  0
11042  11319  11332  0
12264  11952  12265  0
11958  11957  11665  0
10725  10732  10392  0
10725  11335  10732  0
10732  11335  10053  0
41803  41804  41805  0
41803  41805  41806  0
41803  41807  41804  0
41808  41805  13198  0
41808  13198  12893  0
41808  41806  41805  0
41808  13200  41806  0
41808  12893  13200  0
41805  41804  41809  0
41805  41809  13199  0
41805  13199  13198  0
41804  41807  41809  0
41806  41810  41803  0
41803  41810  41811  0
41807  41803  14198  0
41803  41811  14198  0
41806  13200  41810  0
13873  13509  13199  0
13873  13199  14800  0
41809  14499  13199  0
41807  14197  41809  0
41807  14198  14197  0
41809  14200  14499  0
41809  14197  14200  0
41810  13200  14803  0
13873  14800  14799  0
13873  14799  14190  0
13873  14190  13872  0
41811  41810  14204  0
41811  14204  14198  0
14204  41810  14507  0
14797  14803  13200  0
14800  13199  14499  0
41810  14803  14507  0
13200  13201  14797  0
13201  13878  14797  0
14499  14501  14800  0
14190  14799  14496  0
15030  13148  15036  0
41812  12553  13461  0
41812  13150  12851  0
41812  12851  12553  0
41812  15037  13150  0
41812  41813  15037  0
15032  13148  15030  0
15032  14144  13459  0
15032  13459  13148  0
41812  13461  41813  0
15030  15036  15289  0
41813  15039  15037  0
41813  15041  15039  0
41813  14757  15041  0
41813  14457  14757  0
41813  13827  14457  0
41813  13461  13827  0
13148  13150  15036  0
13150  15037  15036  0
41814  13485  13851  0
41814  15050  14474  0
41814  14474  14165  0
41814  14165  13485  0
41814  13851  41815  0
41814  41815  15050  0
41815  14161  14770  0
41815  14770  15050  0
41815  13851  14161  0
14770  14768  15049  0
14770  14769  14768  0
14770  15049  15050  0
13485  14165  13481  0
13481  14165  13484  0
14161  14470  14770  0
15323  41816  41817  0
15323  15080  41816  0
15323  15075  15080  0
41816  15080  41818  0
41816  41818  41819  0
41816  41819  41817  0
15323  41817  15317  0
41817  41820  15317  0
41818  16435  16431  0
41818  16431  41819  0
41818  15337  41821  0
41818  41821  16795  0
41818  15080  15337  0
41818  16795  16435  0
41819  41822  41817  0
41820  41817  41822  0
41820  41823  41824  0
41820  41822  16424  0
41820  41824  15317  0
41820  16424  41823  0
41821  15337  15338  0
41822  41819  16429  0
41822  16425  16424  0
41822  16429  16425  0
16429  41819  16431  0
41824  41823  16120  0
41824  16120  15588  0
41824  15588  15317  0
41823  16424  16418  0
41823  16411  16120  0
41823  16418  16411  0
16125  15339  15594  0
16125  16784  41821  0
16125  41821  15339  0
16435  16795  16440  0
16418  16424  16427  0
41821  15338  15339  0
41821  16784  16795  0
16784  16796  16795  0
16125  16420  16784  0
17442  17445  41825  0
17442  41825  41826  0
41825  17445  17752  0
41825  17752  17767  0
41825  17767  41826  0
41826  17767  41827  0
41828  41829  41830  0
17754  18763  17755  0
17754  41831  18763  0
18763  18765  17755  0
17439  41826  18078  0
17439  17442  41826  0
17754  17750  17751  0
17754  17751  41831  0
41826  41827  41829  0
41826  41829  18078  0
41827  18752  41830  0
41827  17767  18752  0
41827  41830  41829  0
17767  18406  18752  0
41832  18747  41833  0
41832  41831  18747  0
18764  18763  41831  0
18764  41831  41834  0
18078  18077  17747  0
18078  41835  18077  0
18078  41829  41835  0
41829  41828  41835  0
41830  18752  18403  0
41830  18403  18751  0
41830  18751  19090  0
41830  19090  19407  0
41830  19407  41836  0
41830  41836  41828  0
41832  41834  41831  0
41832  41833  41834  0
41834  19109  18764  0
41834  19716  19109  0
41833  19399  41837  0
41833  41837  41838  0
41833  18747  19087  0
41833  19087  19399  0
41833  41838  41834  0
41835  18745  18077  0
41835  41839  18745  0
41835  41828  41836  0
41835  41836  41839  0
41836  19407  19406  0
41836  19406  41839  0
41834  41838  19716  0
19716  19115  19109  0
19716  19416  19115  0
41838  41837  41840  0
41838  41840  19716  0
41839  19086  18745  0
41839  41841  19086  0
41839  19406  41841  0
19406  19711  41841  0
19716  41840  19711  0
41837  41841  41840  0
41841  19711  41840  0
41841  41837  19399  0
41841  19399  19086  0
17767  18094  18406  0
17755  18765  18095  0
17751  18747  41831  0
18238  17905  41842  0
18238  17906  17905  0
18238  18576  41843  0
18238  41842  18576  0
41842  17905  18589  0
41842  18589  18576  0
41843  17902  18238  0
41843  18232  17902  0
18576  18589  19243  0
41843  18572  18232  0
41843  18576  18572  0
19243  18577  18576  0
18232  18572  18230  0
18918  18590  18922  0
18918  18589  18590  0
41844  19243  18589  0
17905  17907  18589  0
18589  18920  41844  0
18589  18918  18920  0
19243  41844  19244  0
18918  18922  18919  0
18922  18590  18923  0
18920  19244  41844  0
19572  19272  19567  0
19572  19567  20484  0
20802  20809  20803  0
19876  19572  20484  0
20809  20491  20803  0
20809  20499  20491  0
20803  20491  20484  0
20802  20815  20809  0
20484  20491  19876  0
41845  22681  21352  0
41845  21352  21351  0
41845  21351  41846  0
21352  22681  41847  0
41846  21351  41848  0
41848  21343  21353  0
41848  21351  21343  0
41846  22019  41845  0
41848  21353  21358  0
41848  21358  22019  0
41848  22019  41846  0
41847  22348  21352  0
41847  22681  22356  0
41845  22019  22681  0
21701  21675  21690  0
21701  22017  21675  0
41847  22356  22349  0
41847  22349  22348  0
21352  22348  21662  0
21358  21675  22017  0
21662  22348  22002  0
22355  22349  22356  0
22019  22347  22681  0
22681  22682  22356  0
41849  27048  25843  0
41849  41850  27046  0
41849  27046  27048  0
41849  25488  41850  0
41849  25843  25488  0
41850  25488  41851  0
41851  26783  27046  0
41851  26784  26783  0
41851  25488  26784  0
41850  41851  27046  0
25843  27048  25855  0
25838  25202  25842  0
25842  26163  25838  0
27048  26177  25855  0
27048  26513  26177  0
25838  25481  25480  0
25838  41852  25488  0
25838  25488  25481  0
25838  26163  41852  0
25488  41852  26784  0
25843  25212  25210  0
25843  25855  25212  0
25855  26177  25854  0
26177  26513  26511  0
26163  26160  41852  0
26160  26157  26152  0
26160  26152  26493  0
26160  26493  41852  0
26493  26495  41852  0
26495  26784  41852  0
26813  41853  26814  0
26813  41854  41853  0
41854  27085  41855  0
41854  41855  41856  0
41854  26813  27085  0
41854  41856  27630  0
41854  27630  27103  0
41854  27103  41853  0
41855  41857  41856  0
41855  27353  41857  0
41855  27085  27083  0
41855  27083  27353  0
41857  27353  27920  0
41857  27920  27923  0
41857  27923  41856  0
41856  27923  27630  0
26814  26824  26818  0
26814  41853  26824  0
26824  41853  26826  0
26813  26812  27085  0
41853  27097  26826  0
41853  27103  27097  0
25882  25881  41858  0
25882  41859  25883  0
25882  41858  41859  0
41859  27369  25883  0
41858  25881  25887  0
25887  41860  41858  0
25887  25886  41861  0
25887  41861  41860  0
25883  27369  26205  0
41861  25886  26829  0
41861  26829  41862  0
41863  26551  26203  0
41863  26828  26551  0
41863  26207  41864  0
41863  41864  26828  0
41863  26203  26207  0
41858  41860  41859  0
41862  27105  41861  0
41862  41865  27105  0
41862  41866  41865  0
41862  26829  27100  0
41862  27100  27366  0
41862  27366  41866  0
26828  41867  27094  0
26828  27635  27933  0
26828  27933  41867  0
26828  41864  27635  0
41861  27105  41860  0
41859  41860  27369  0
41860  27105  27369  0
41865  27637  27106  0
41865  27106  27105  0
41868  26207  27369  0
41868  27369  41864  0
41868  41864  26207  0
41864  27368  27635  0
41864  27369  27368  0
41865  41866  27637  0
41867  27933  27094  0
41866  27936  27637  0
