#!ascii file
9299  9300  9826  0
9299  9826  9833  0
9834  9560  9304  0
9560  9835  9307  0
9307  9835  9562  0
9562  9835  9836  0
9562  9836  9563  0
9311  9837  9838  0
9311  9838  9556  0
9836  9839  9563  0
9563  9839  9840  0
9563  9840  9309  0
9309  9841  9310  0
9309  9840  9841  0
9842  9310  9841  0
9310  9842  9564  0
9311  9564  9837  0
9045  9827  9843  0
9045  9843  9565  0
9841  9844  9842  0
9312  9565  9567  0
9845  9568  9569  0
9569  9570  9845  0
9565  9846  9571  0
9572  9573  9847  0
9848  9847  9573  0
9576  8632  9849  0
9571  9846  9579  0
9573  9575  9848  0
9850  9848  9575  0
9328  9582  9584  0
9582  9576  9851  0
9849  9851  9576  0
9585  9583  9852  0
9575  9574  9853  0
9854  9853  9574  0
9575  9853  9850  0
9574  9580  9854  0
9580  9581  9855  0
9580  9855  9856  0
9580  9856  9854  0
9581  9584  9855  0
9851  9584  9582  0
9857  9577  8846  0
9335  9077  9585  0
9585  9858  9335  0
9583  9588  9852  0
9859  9852  9588  0
9586  9579  9860  0
9586  9860  9589  0
9854  9861  9853  0
9856  9862  9854  0
8846  9590  9857  0
9587  9082  9863  0
9335  9858  9594  0
9588  9591  9864  0
9341  9864  9591  0
9588  9864  9859  0
9595  9864  9341  0
9861  9854  9865  0
9857  9590  9592  0
9082  9093  9863  0
9335  9594  9094  0
9340  9598  9866  0
9340  9866  9337  0
9337  9866  9592  0
9339  9338  9593  0
9093  9867  9863  0
9600  9348  9594  0
9595  9343  9868  0
9343  9869  9868  0
9589  9870  9596  0
9871  9596  9870  0
9596  9871  9597  0
9872  9597  9871  0
9342  9873  9598  0
9342  9603  9874  0
9342  9874  9873  0
9866  9598  9873  0
9106  9593  9599  0
9593  9875  9599  0
9347  9867  9093  0
9343  9116  9876  0
9343  9876  9869  0
9597  9872  9344  0
9877  9344  9872  0
9344  9877  9602  0
9878  9602  9877  0
9602  9879  9346  0
9602  9346  9345  0
9602  9878  9879  0
9880  9879  9878  0
9350  9606  9603  0
9603  9606  9881  0
9603  9881  9874  0
9882  9113  9599  0
9347  9883  9867  0
9614  9601  9600  0
9116  9605  9876  0
9605  9884  9876  0
9611  9879  9880  0
9611  9880  9885  0
9611  9885  9359  0
9610  9359  9885  0
9879  9611  9360  0
9879  9360  9349  0
9879  9349  9346  0
9606  9607  9886  0
9606  9886  9881  0
9607  9612  9886  0
9604  9113  9882  0
9604  9882  9353  0
9601  9614  9115  0
9605  9355  9887  0
9605  9887  9884  0
9608  9610  9888  0
9608  9888  9609  0
9352  9353  9889  0
9352  9889  9612  0
9126  9890  9122  0
9122  9891  9354  0
9620  9615  9613  0
9887  9355  9616  0
9609  9892  9618  0
9362  9890  9126  0
9362  9363  9890  0
9619  9620  9893  0
9894  9364  9619  0
9895  9887  9626  0
9895  9626  9896  0
9895  9896  9897  0
9887  9616  9626  0
9369  9370  9898  0
9369  9898  9624  0
9370  9371  9898  0
9371  9625  9899  0
9371  9899  9898  0
9625  9364  9894  0
9625  9894  9899  0
9896  9626  9629  0
9618  9900  9631  0
9618  9892  9900  0
9368  9131  9901  0
9368  9901  9363  0
9131  9624  9901  0
9896  9629  9902  0
9629  9633  9903  0
9629  9903  9902  0
9633  9632  9635  0
9633  9635  9904  0
9633  9904  9903  0
9905  9906  9907  0
9907  9908  9905  0
9906  9905  9909  0
9908  9910  9905  0
9910  9911  9905  0
9912  9913  9914  0
9915  9916  9640  0
9640  9639  9915  0
9917  9915  9639  0
9918  9919  9920  0
9382  9643  9642  0
9920  9919  9921  0
9922  9921  9919  0
9390  9644  9646  0
9643  9395  9923  0
9643  9923  9642  0
9642  9923  9924  0
9921  9656  9655  0
9921  9922  9656  0
9648  9650  9925  0
9648  9925  9926  0
9648  9926  9645  0
9927  9645  9926  0
9645  9927  9644  0
9928  9644  9927  0
9644  9928  9646  0
9646  9928  9651  0
9395  9654  9929  0
9395  9929  9923  0
9656  9922  9665  0
9656  9665  9418  0
9922  9930  9665  0
9931  9420  9932  0
9407  9933  9406  0
9925  9407  9934  0
9407  9650  9935  0
9407  9935  9933  0
9407  9925  9650  0
9650  9657  9666  0
9650  9666  9935  0
9928  9936  9651  0
9937  9651  9936  0
9651  9937  9658  0
9938  9658  9937  0
9658  9938  9659  0
9659  9938  9939  0
9659  9939  9660  0
9660  9939  9940  0
9660  9940  9414  0
9414  9941  9415  0
9942  9415  9941  0
9414  9940  9941  0
9415  9942  9661  0
9943  9661  9942  0
9654  9664  9944  0
9665  9930  9419  0
9419  9930  9420  0
9406  9933  9421  0
9935  9666  9945  0
9666  9667  9945  0
9667  9423  9668  0
9661  9943  9662  0
9664  9946  9944  0
9664  9670  9675  0
9664  9675  9946  0
9421  9933  9947  0
9421  9947  9671  0
9933  9948  9947  0
9667  9949  9945  0
9667  9668  9950  0
9667  9950  9949  0
9668  9672  9951  0
9668  9951  9952  0
9668  9952  9950  0
9672  9669  9953  0
9672  9953  9951  0
9669  9673  9954  0
9669  9954  9953  0
9673  9662  9955  0
9955  9662  9956  0
9944  9946  9957  0
9946  9675  9677  0
9946  9677  9958  0
9946  9958  9957  0
9671  9959  9676  0
9951  9953  9960  0
9953  9954  9960  0
9954  9673  9961  0
9673  9955  9961  0
9958  9677  9962  0
9958  9962  9957  0
9677  9678  9963  0
9677  9963  9964  0
9677  9964  9962  0
8927  9676  9171  0
9963  9678  9965  0
9963  9965  9966  0
9963  9966  9964  0
9171  9676  9967  0
9965  9678  9680  0
9965  9680  9968  0
9965  9968  9966  0
9171  9967  9432  0
9969  9434  9681  0
9969  9681  9970  0
9969  9971  9680  0
9969  9680  9434  0
9969  9970  9972  0
9969  9972  9971  0
9971  9972  9968  0
9971  9968  9680  0
9432  9967  9973  0
9432  9973  9683  0
9974  9975  9976  0
9975  9974  9977  0
9682  9439  9687  0
9978  9682  9687  0
9446  9979  9687  0
9687  9979  9978  0
9979  9446  9688  0
9980  9979  9688  0
9689  9980  9688  0
9980  9689  9981  0
9694  9981  9689  0
9189  9686  9684  0
9982  9684  9686  0
9983  9684  9982  0
9684  9983  9685  0
9443  9685  9983  0
9984  9704  9975  0
9975  9704  9985  0
9975  9977  9984  0
9689  9453  9694  0
9686  9986  9982  0
9692  9443  9983  0
9985  9704  9703  0
9985  9703  9987  0
9702  9987  9703  0
9705  9704  9984  0
9438  9683  9988  0
9989  9690  9695  0
9690  9989  9691  0
9990  9691  9989  0
9691  9990  9696  0
9991  9450  9699  0
9450  9991  9986  0
9450  9986  9686  0
9983  9992  9692  0
9710  9706  9705  0
9705  9993  9710  0
9705  9984  9994  0
9705  9994  9993  0
9711  9710  9993  0
9993  9994  9995  0
9993  9995  9996  0
9993  9996  9711  0
9696  9990  9997  0
9696  9997  9697  0
9698  9998  9699  0
9698  9697  9998  0
9999  9998  9697  0
9699  9998  9991  0
9692  10000  9709  0
9701  10001  9702  0
10002  9711  9996  0
10003  9693  9712  0
10004  9708  9714  0
9700  10005  9701  0
9701  10005  10001  0
10002  9716  9711  0
9709  10006  9700  0
10005  9700  10006  0
9716  10002  10007  0
9716  10007  9719  0
9712  9720  10003  0
9714  9713  10008  0
9714  10008  10009  0
9713  9717  10008  0
9717  9715  10010  0
9718  9719  9728  0
9719  10011  9734  0
9719  9734  9728  0
9720  9468  10012  0
9468  9477  10012  0
9715  9227  10013  0
9728  9734  9729  0
10014  9734  10015  0
10013  9227  9480  0
9726  9722  10016  0
9722  9731  10016  0
9734  10014  9735  0
9735  10014  9733  0
10017  9733  10014  0
10013  9480  9739  0
9725  9726  10016  0
9725  10016  9730  0
10016  9731  10018  0
9731  9738  10019  0
9731  10019  10018  0
9733  10020  9732  0
9733  10017  10020  0
9477  9481  10021  0
9481  9742  10021  0
9229  9232  9739  0
9478  9737  9740  0
10016  10018  10022  0
10018  10023  10022  0
10018  10019  10023  0
10019  9738  10024  0
9738  9732  10025  0
9738  10025  10024  0
9732  10020  10025  0
9481  9231  9742  0
9724  10026  9736  0
9479  9740  10027  0
9479  10027  9741  0
9742  8988  10028  0
9744  9751  10029  0
9744  9743  9751  0
9744  10029  9747  0
9747  10030  9745  0
9745  10031  9746  0
9748  9746  10031  0
9745  10030  10032  0
9745  10032  10031  0
8988  8990  10028  0
9482  9741  9749  0
10033  10034  9751  0
9748  10031  10035  0
10028  8990  9752  0
9749  10036  9493  0
9751  9750  10033  0
10037  10038  10033  0
9748  9752  9492  0
9748  10035  9752  0
9750  9753  10033  0
10037  10033  9753  0
10039  10040  10041  0
9753  10042  10037  0
9753  9489  10042  0
10043  10042  9489  0
10041  10044  10039  0
10045  10039  10044  0
10044  10046  10045  0
9489  9754  10043  0
9499  9756  9754  0
9754  9756  10043  0
9245  9759  9756  0
9756  9759  10047  0
9758  10047  9759  0
10048  9758  9504  0
10049  10048  9504  0
9520  9763  9761  0
9504  9767  10049  0
10050  9762  9760  0
9760  9763  10050  0
9757  9770  9764  0
9772  9777  10051  0
10051  10052  9772  0
9773  9772  10052  0
9773  10053  9774  0
10054  9774  10053  0
9788  9774  10054  0
9767  9766  10055  0
9521  10055  9766  0
9767  10055  10056  0
9767  10056  10049  0
10050  9763  9018  0
10050  9018  9792  0
9782  10057  9785  0
9782  10058  10057  0
9777  10057  10058  0
10057  9777  9778  0
10057  9778  9785  0
10055  9521  9789  0
10055  9789  10056  0
9762  10050  10059  0
9762  10059  9781  0
9763  9520  9018  0
10060  9783  9794  0
10060  10061  9783  0
9782  9783  10061  0
9785  9778  10062  0
9785  10062  9784  0
9778  9786  10063  0
9778  10063  10064  0
9778  10064  10062  0
9786  9787  10063  0
9789  9790  10056  0
10050  9792  9800  0
10050  9800  10059  0
9795  9784  10065  0
9795  10065  10066  0
10067  9795  10066  0
9784  10062  10064  0
9784  10064  10065  0
9790  9796  10068  0
9790  10068  10056  0
9781  10059  9807  0
9781  9807  9791  0
10059  9800  9807  0
9803  9793  10069  0
10070  9530  9531  0
10070  10071  9530  0
9794  9530  10071  0
10070  10072  10071  0
9795  10067  9801  0
9796  9534  9805  0
9796  9805  10073  0
9796  10073  10068  0
10073  9805  10074  0
9797  10075  9802  0
9797  9799  10075  0
9798  9791  10076  0
9798  10076  9799  0
9791  9807  10077  0
9791  10077  10076  0
9531  9537  10078  0
9531  10078  10070  0
9801  10067  9804  0
10079  9804  10067  0
9805  9802  10080  0
9805  10080  10074  0
9802  10075  10081  0
9802  10081  10080  0
10077  9807  9808  0
10077  9808  9809  0
10078  9537  10082  0
9537  9804  10079  0
9537  10079  10082  0
9540  9803  9811  0
9281  9280  10083  0
10084  10083  9280  0
9280  9812  10084  0
9813  9812  9547  0
9814  9285  10085  0
9553  10085  9285  0
10086  10085  9553  0
9553  9817  10086  0
9818  9550  10087  0
9815  10087  9550  0
9284  9552  10088  0
9284  10088  10089  0
9284  10089  9816  0
9822  9288  9821  0
9821  10090  9822  0
9822  10091  9823  0
9823  10091  9824  0
9824  10092  9825  0
9826  9825  10093  0
9825  10092  10094  0
9825  10094  10093  0
10095  9838  9837  0
9829  9557  10096  0
9830  10096  9557  0
10093  9833  9826  0
9304  9561  9834  0
9560  9834  9835  0
9835  10097  9836  0
9836  10097  10098  0
9838  10099  9556  0
9831  9559  10100  0
9559  9832  10100  0
10101  10100  9832  0
9832  9833  10101  0
10093  10101  9833  0
9836  10098  9839  0
10102  9564  9842  0
9842  9844  10103  0
10104  9564  10102  0
9564  10104  9837  0
10098  10105  9839  0
10106  9839  10105  0
9839  10106  10107  0
9839  10107  9840  0
9840  10107  10108  0
9840  10108  9841  0
9841  10108  10109  0
9841  10109  9844  0
9568  9845  10110  0
9845  9570  10111  0
9845  10111  10110  0
9570  9572  10112  0
9570  10112  10111  0
10113  10108  10107  0
10108  10113  10109  0
9572  9847  10114  0
9572  10114  10112  0
9847  9848  10115  0
9847  10115  10114  0
8632  9578  9849  0
9578  9577  10116  0
9850  10115  9848  0
9850  9853  10117  0
9850  10117  10115  0
9585  9852  9858  0
9846  9860  9579  0
9853  9861  10118  0
9853  10118  10117  0
9855  9584  10119  0
9855  10119  10120  0
9584  9851  10121  0
9584  10121  10119  0
9851  10122  10121  0
9577  9857  10123  0
9852  9859  10124  0
9861  9865  10125  0
9861  10125  10118  0
9865  9854  9862  0
9856  9855  10120  0
9858  10126  9594  0
9859  9864  10127  0
9864  9595  9868  0
9870  9589  9860  0
9865  10128  10125  0
10123  9857  10129  0
9857  9592  10130  0
9857  10130  10129  0
9338  9334  10131  0
9338  10131  9593  0
10132  9594  10126  0
10133  9592  9866  0
9592  10133  10130  0
9593  10131  9875  0
9594  10132  9600  0
9870  10134  10135  0
9870  10135  9871  0
9871  10135  10136  0
9871  10136  9872  0
10137  9873  9874  0
9873  10137  10138  0
9873  10138  9866  0
9866  10138  10133  0
9875  10139  9599  0
9600  10132  10140  0
9869  9876  10141  0
10142  10141  9876  0
9872  10143  9877  0
9877  10143  9878  0
9878  10144  9880  0
9874  10145  10137  0
9874  9881  10145  0
9599  10139  10146  0
9599  10146  9882  0
9600  10140  9614  0
9876  9884  10142  0
9610  9885  9888  0
9888  9885  10147  0
10144  9885  9880  0
10148  10145  9881  0
9347  9354  9883  0
10149  9613  9614  0
10149  9614  10140  0
10150  10151  9884  0
10151  10142  9884  0
9887  10150  9884  0
9609  9888  10152  0
9881  9886  10148  0
10153  10148  9886  0
9886  9612  10153  0
9612  9889  10153  0
9882  9889  9353  0
9122  9890  9891  0
9891  10154  9354  0
9613  10149  10155  0
9613  10155  9620  0
10151  10150  10156  0
10150  9887  9895  0
9619  9893  9894  0
10157  9894  9893  0
10155  9893  9620  0
9893  10158  10157  0
10150  9895  10156  0
10159  10156  9895  0
9895  9897  10159  0
9890  9363  10160  0
10161  10160  9363  0
9624  9898  9901  0
10162  9901  9898  0
9899  9894  10163  0
10164  10163  9894  0
9894  10157  10164  0
10158  10164  10157  0
9897  9896  9902  0
10165  9897  9902  0
10166  10165  9902  0
9900  9892  10167  0
9363  9901  10161  0
10168  10161  9901  0
9901  10162  10168  0
9902  9903  10166  0
9904  10166  9903  0
10166  9904  10169  0
10170  10166  10169  0
10171  9906  10172  0
10173  9907  9906  0
10174  9907  10173  0
9907  10174  9908  0
10175  9908  10174  0
9906  9909  10176  0
9906  10176  10172  0
9909  9905  9911  0
9909  9911  10177  0
9909  10177  10176  0
9911  9910  10178  0
10179  9638  9640  0
10180  9638  10179  0
10179  9640  10181  0
9638  10180  9639  0
10182  9639  10180  0
9380  10183  10184  0
9380  10184  10185  0
9913  9912  10186  0
9640  9916  10187  0
9640  10187  10181  0
10188  9639  10182  0
9913  10186  10189  0
9916  9915  10190  0
9916  10190  10187  0
9915  9917  10190  0
9917  9639  10188  0
10183  10191  10192  0
10183  10192  10184  0
10193  9919  9918  0
9919  10193  9922  0
10189  10194  9934  0
10195  9924  9923  0
9924  10195  10196  0
10197  10198  10199  0
9922  10200  9930  0
10201  10202  10203  0
10194  9926  9925  0
9926  10194  10204  0
9926  10204  9927  0
9927  10205  9928  0
9928  10205  10206  0
9928  10206  9936  0
10207  9923  9929  0
9923  10207  10195  0
10208  10199  10196  0
10199  10208  10197  0
10200  9932  9930  0
9420  9930  9932  0
10200  10209  9932  0
9932  10209  10202  0
9934  10194  9925  0
9936  10206  10210  0
9936  10210  9937  0
9937  10211  9938  0
9942  10212  9943  0
10213  10195  10207  0
10195  10213  10196  0
10214  10196  10213  0
10196  10214  10208  0
10215  10197  10208  0
9933  9935  9948  0
9935  9945  9948  0
9937  10210  10211  0
10211  10216  9938  0
9938  10216  10217  0
9938  10217  9939  0
9939  10217  10218  0
9939  10218  9940  0
9662  9943  9956  0
10219  9956  9943  0
9654  9944  9929  0
9929  9944  10207  0
9957  10207  9944  0
10207  9957  10213  0
10220  10213  9957  0
10213  10220  10214  0
10221  10208  10214  0
10208  10221  10215  0
10222  10223  10215  0
9671  9947  9959  0
10224  9947  9948  0
9945  10224  9948  0
9956  10225  9955  0
9962  10220  9957  0
10220  9962  10214  0
10226  10214  9962  0
10214  10226  10221  0
9676  9959  10227  0
10228  9949  9950  0
9950  9952  10228  0
10229  9952  9951  0
9951  9960  10229  0
10230  9960  9954  0
9954  9961  10230  0
10231  9961  9955  0
10225  10231  9955  0
9962  9964  10226  0
10232  10226  9964  0
10226  10232  10221  0
10233  10221  10232  0
10221  10233  10215  0
10234  10215  10233  0
10215  10234  10222  0
10235  10222  10234  0
9676  10227  9967  0
10236  10228  9952  0
9952  10229  10236  0
10230  10229  9960  0
10230  9961  10237  0
10231  10237  9961  0
9964  9966  10232  0
10238  10232  9966  0
10232  10238  10233  0
10235  10239  10222  0
10222  10239  10240  0
9966  9968  10241  0
9966  10241  10238  0
10238  10241  10242  0
10238  10242  10233  0
10233  10242  10234  0
9970  9681  10243  0
9970  10243  9972  0
9972  10243  10244  0
9972  10244  9968  0
9968  10244  10245  0
9968  10245  10241  0
10241  10245  10246  0
10241  10246  10242  0
10234  10242  10235  0
9681  9682  10243  0
10243  9978  10244  0
10244  9978  10247  0
10244  10247  10245  0
10245  10247  10246  0
10242  10246  10235  0
9976  9975  10248  0
10243  9682  9978  0
9978  9979  9980  0
9978  9980  10247  0
10247  9980  9981  0
10247  10249  10246  0
10247  9981  10249  0
10248  9975  9985  0
10248  9985  10250  0
9981  9694  10251  0
9981  10251  10249  0
9683  9973  10252  0
9985  9987  10250  0
10253  9984  9977  0
9694  9693  10254  0
9694  10254  10251  0
9982  9992  9983  0
9987  9702  10255  0
9984  10256  9994  0
9984  10253  10256  0
10257  9994  10256  0
9986  10258  9982  0
9982  10258  10259  0
9982  10259  9992  0
9994  10257  9995  0
10260  9995  10257  0
9995  10260  9996  0
9988  9707  9438  0
9695  9708  10261  0
9695  10261  9989  0
9989  9997  9990  0
9998  9999  10262  0
9998  10262  9991  0
9991  10262  10263  0
9991  10263  9986  0
9986  10263  10258  0
10259  10000  9992  0
9992  10000  9692  0
10001  10255  9702  0
10264  10255  10001  0
10260  10265  9996  0
9693  10003  10254  0
10266  10254  10003  0
9708  10004  10261  0
10267  10261  10004  0
9997  9989  10261  0
9997  10268  9697  0
9999  9697  10268  0
10269  10259  10258  0
10259  10269  10000  0
10264  10001  10270  0
10001  10005  10270  0
10002  9996  10007  0
10265  10007  9996  0
10003  10271  10266  0
9988  10272  9707  0
9714  10009  10004  0
10273  10000  10269  0
10006  9709  10000  0
10006  10274  10005  0
10275  10005  10274  0
9719  10007  10011  0
10276  10011  10007  0
10007  10265  10277  0
10007  10277  10276  0
10278  10271  10003  0
10003  9720  10278  0
10012  10278  9720  0
9707  10272  9721  0
10279  10004  10009  0
10000  10273  10006  0
10015  9734  10011  0
10011  10276  10280  0
10011  10280  10015  0
10009  10008  10281  0
10009  10281  10279  0
10010  10008  9717  0
10010  9715  10013  0
10015  10280  10282  0
10015  10282  10014  0
10283  10012  9477  0
9721  10272  10284  0
9721  10284  9724  0
10285  10279  10281  0
10281  10008  10010  0
10014  10282  10286  0
10014  10286  10287  0
10014  10287  10017  0
9477  10021  10283  0
10281  10010  10285  0
9232  10285  10010  0
9739  9232  10010  0
10010  10013  9739  0
10288  10020  10017  0
10017  10287  10289  0
10017  10289  10288  0
10290  10291  10292  0
10292  10293  10290  0
10294  10290  10293  0
10292  10295  10293  0
10296  10021  9742  0
10285  9232  9736  0
10285  9736  10026  0
9740  9737  10297  0
9737  9730  10297  0
10022  10297  9730  0
9730  10016  10022  0
10022  10023  10298  0
10024  10023  10019  0
10299  10024  10025  0
10025  10020  10299  0
10288  10299  10020  0
10291  10290  10300  0
10294  10300  10290  0
10291  10300  10301  0
10294  10293  10302  0
9740  10297  10303  0
10024  10299  10304  0
10024  10304  10305  0
10299  10288  10306  0
10299  10306  10304  0
10300  10294  10307  0
10294  10302  10307  0
9742  10028  10308  0
9742  10308  10296  0
9741  10027  10309  0
9740  10303  10027  0
10028  10310  10308  0
9751  10034  10029  0
10029  10311  9747  0
10312  9747  10311  0
10029  10034  10313  0
10029  10313  10311  0
9747  10312  10030  0
10032  10314  10035  0
10032  10035  10031  0
10315  10035  10314  0
9752  10316  10028  0
10310  10028  10316  0
9752  10315  10316  0
10034  10033  10038  0
10034  10038  10317  0
10034  10317  10313  0
10315  9752  10035  0
10318  10319  10041  0
10318  10041  10320  0
10321  9493  10036  0
10320  10040  10322  0
10323  10320  10324  0
10320  10322  10325  0
10320  10325  10324  0
10318  10320  10323  0
10320  10041  10040  0
10326  10046  10327  0
9493  10321  9497  0
10322  10328  10325  0
10326  10045  10046  0
10329  10045  10326  0
10042  10330  10037  0
10042  10043  10330  0
9497  10321  9755  0
10322  10331  10328  0
10322  10040  10331  0
10040  10039  10332  0
10040  10332  10331  0
10039  10045  10333  0
10039  10333  10334  0
10039  10334  10332  0
10045  10329  10333  0
10335  10333  10329  0
10333  10335  10334  0
10336  10043  9756  0
10336  9756  10047  0
9244  9755  10337  0
9244  10337  9757  0
10336  10047  10338  0
10047  9758  10339  0
10047  10339  10338  0
9758  10048  10339  0
10048  10049  10340  0
10048  10340  10339  0
10341  9770  9757  0
9777  10058  10342  0
10342  10051  9777  0
10342  10343  10051  0
10344  10051  10343  0
10051  10344  10052  0
10345  10052  10344  0
10052  10345  9773  0
10346  9773  10345  0
9773  10346  10053  0
10054  10053  10346  0
10049  10056  10340  0
9770  10341  9776  0
10058  10061  10347  0
10348  10347  10061  0
10061  10058  9782  0
10056  10349  10340  0
10350  10340  10349  0
10060  10348  10061  0
10351  10348  10060  0
10064  10063  10352  0
10353  10352  10063  0
10354  10353  10063  0
10063  9787  10354  0
10355  10354  9787  0
9788  10355  9787  0
10068  10349  10056  0
10349  10068  10350  0
10356  10350  10068  0
9776  10069  9793  0
10357  10060  10071  0
9794  10071  10060  0
10357  10351  10060  0
10358  10359  10066  0
10067  10066  10359  0
10065  10358  10066  0
10068  10073  10356  0
10357  10071  10360  0
10072  10360  10071  0
10073  10074  10356  0
10361  10075  9799  0
9799  10076  10361  0
10360  10072  10362  0
10078  10072  10070  0
10067  10359  10363  0
10067  10363  10079  0
10364  10074  10080  0
10080  10081  10365  0
10080  10365  10364  0
10366  10364  10365  0
10361  10081  10075  0
10361  10076  10367  0
10076  10077  10367  0
9809  10367  10077  0
10072  10078  10368  0
10082  10368  10078  0
10082  10079  10369  0
10082  10369  10370  0
10079  10371  10369  0
10079  10363  10371  0
10365  10081  10366  0
10372  10366  10081  0
10081  10361  10372  0
10361  10367  10372  0
10373  10372  10367  0
10367  9809  10374  0
9810  10374  9809  0
10374  10373  10367  0
10374  9810  10375  0
9281  10375  9810  0
9803  10376  9811  0
10083  10375  9281  0
10375  10083  10377  0
10084  10377  10083  0
10378  10084  9812  0
9812  9813  10378  0
9813  9814  10378  0
10379  10378  9814  0
9814  10085  10379  0
9811  10376  10380  0
9811  10380  9552  0
10085  10086  10381  0
10086  9817  10382  0
9817  9818  10382  0
9818  10087  10383  0
9818  10383  10382  0
9552  10380  10088  0
9816  10089  9819  0
10087  9815  10384  0
10087  10384  10385  0
9815  9551  9556  0
9820  9819  10089  0
9820  9821  9554  0
10099  10384  9815  0
9556  10099  9815  0
10090  9821  9820  0
10386  9822  10090  0
9822  10386  10091  0
9824  10091  10092  0
10384  9838  10387  0
10384  10099  9838  0
9828  9829  10096  0
10386  10388  10091  0
10389  10091  10388  0
10091  10389  10092  0
10094  10092  10389  0
9838  10095  10387  0
9828  10096  10390  0
10391  10093  10094  0
10097  9835  9834  0
10097  10392  10098  0
9827  9828  10390  0
9827  10390  9843  0
10096  9830  10393  0
9830  9831  10393  0
9831  10100  10393  0
10100  10394  10393  0
10093  10391  10101  0
10098  10392  10105  0
9842  10103  10102  0
10095  9837  10104  0
10100  10101  10394  0
10392  10395  10105  0
10396  10105  10395  0
10105  10397  10106  0
10105  10396  10397  0
9844  10109  10103  0
10398  10103  10109  0
10103  10398  10102  0
10110  10111  10399  0
10111  10112  10400  0
10111  10400  10399  0
10401  10106  10397  0
10106  10401  10107  0
10113  10107  10401  0
10113  10402  10109  0
10403  10109  10402  0
10398  10109  10403  0
9565  10404  9846  0
9565  10405  10404  0
10406  10112  10114  0
10114  10115  10406  0
9860  9846  10404  0
10115  10117  10406  0
10407  10406  10117  0
9851  9849  10122  0
9577  10123  10408  0
9858  9852  10409  0
10124  10409  9852  0
10117  10118  10407  0
10410  10407  10118  0
10411  10120  10119  0
9858  10409  10126  0
10124  9859  10412  0
10413  10412  9859  0
10118  10125  10410  0
9865  9862  10128  0
10414  10128  9862  0
9862  9856  10414  0
10415  10414  9856  0
9856  10120  10415  0
10416  10415  10120  0
10120  10411  10416  0
10119  10416  10411  0
10131  9334  10417  0
9334  9587  10417  0
10126  10409  10418  0
9859  10127  10413  0
10419  10413  10127  0
10127  9864  10419  0
9868  10419  9864  0
9860  10420  9870  0
10129  10421  10123  0
10422  10129  10130  0
9587  9863  10417  0
9869  10423  9868  0
9870  10420  10134  0
10133  10422  10130  0
10131  10424  9875  0
9863  9867  10417  0
9872  10136  10143  0
10425  10138  10137  0
10139  9875  10426  0
10424  10426  9875  0
10427  10141  10142  0
9878  10143  10144  0
10145  10428  10137  0
10137  10428  10425  0
10146  10139  10429  0
10146  10429  10430  0
10146  10430  9882  0
10431  10142  10151  0
10431  10151  10432  0
10431  10433  10427  0
10431  10427  10142  0
10431  10432  10433  0
10147  10434  9888  0
9885  10144  10435  0
9885  10435  10147  0
9354  10154  9883  0
10432  10151  10156  0
10152  9888  10434  0
10148  10153  10436  0
10153  9889  10436  0
9889  9882  10430  0
9889  10430  10436  0
9891  10437  10154  0
10432  10156  10438  0
10160  10439  9890  0
9891  9890  10439  0
10156  10159  10440  0
10156  10440  10438  0
10159  9897  10165  0
10159  10165  10440  0
10160  10161  10441  0
9898  9899  10442  0
9898  10442  10162  0
9899  10163  10443  0
9899  10443  10442  0
10164  10158  10163  0
10165  10166  10444  0
10161  10168  10445  0
10161  10445  10441  0
10168  10162  10446  0
10447  10448  10449  0
10447  10450  10448  0
10449  10448  10451  0
10452  10453  9906  0
10452  9906  10171  0
10453  10173  9906  0
10454  10173  10453  0
10173  10455  10174  0
10173  10454  10455  0
10456  10174  10455  0
10172  10457  10171  0
10452  10171  10457  0
10174  10456  10175  0
10458  10175  10456  0
9908  10175  9910  0
10459  9910  10175  0
10175  10458  10460  0
10175  10460  10459  0
10457  10172  10461  0
10462  10461  10172  0
10172  10176  10462  0
9910  10459  10178  0
10176  10177  10462  0
10463  10462  10177  0
10177  9911  10464  0
10465  10464  9911  0
10177  10464  10463  0
10466  10463  10464  0
9911  10178  10465  0
10467  10465  10178  0
10464  10465  10468  0
10464  10468  10466  0
10469  10466  10468  0
10465  10467  10470  0
10465  10470  10468  0
10471  10472  10473  0
10470  10469  10468  0
10179  10474  10475  0
10179  10475  10180  0
10179  10181  10474  0
10476  10474  10181  0
10180  10475  10477  0
10180  10477  10182  0
10182  10477  10478  0
10479  10480  10481  0
10476  10181  10482  0
10187  10482  10181  0
10476  10482  10483  0
10484  10483  10482  0
10182  10478  10188  0
10485  10486  10480  0
10487  10480  10486  0
10488  10481  10480  0
10484  10482  10489  0
10490  10489  10482  0
10484  10489  10491  0
10492  10491  10489  0
10482  10187  10490  0
10493  10490  10187  0
10187  10190  10493  0
10494  10493  10190  0
10190  9917  10495  0
10496  10495  9917  0
10190  10495  10497  0
10190  10497  10494  0
9917  10188  10496  0
10478  10496  10188  0
10184  10192  9918  0
10193  9918  10192  0
10498  10203  10486  0
10499  10486  10203  0
10486  10499  10487  0
10487  10488  10480  0
10489  10490  10492  0
10205  10492  10490  0
10490  10493  10205  0
10191  10198  10192  0
10500  10192  10198  0
10192  10501  10193  0
10192  10500  10501  0
10502  10501  10500  0
10193  10501  10503  0
10193  10503  9922  0
9922  10503  10200  0
10499  10504  10487  0
10189  10505  10194  0
9927  10204  10492  0
10492  10205  9927  0
10205  10493  10506  0
10198  10197  10500  0
10507  10500  10197  0
10500  10507  10502  0
10508  10502  10507  0
10203  10509  10510  0
10203  10510  10499  0
10203  10202  10509  0
10194  10505  10204  0
10205  10506  10511  0
10205  10511  10206  0
10508  10507  10197  0
10200  10512  10209  0
10209  10512  10509  0
10209  10509  10202  0
9940  10218  10513  0
9940  10513  9941  0
9941  10514  10515  0
9941  10515  9942  0
9941  10513  10514  0
9942  10515  10212  0
10197  10215  10223  0
10197  10223  10508  0
10206  10511  10210  0
10211  10210  10216  0
10217  10216  10516  0
10223  10222  10508  0
10508  10222  10517  0
9947  10224  10518  0
9947  10518  9959  0
10224  9945  10519  0
10224  10519  10518  0
9945  9949  10519  0
9956  10219  10520  0
9956  10520  10521  0
10225  9956  10521  0
9959  10522  10227  0
9959  10518  10522  0
10519  9949  10523  0
9949  10228  10523  0
10225  10524  10231  0
10525  10231  10524  0
10222  10240  10517  0
10523  10228  10526  0
10228  10236  10526  0
10229  10230  10527  0
10229  10527  10236  0
10230  10528  10527  0
10231  10525  10529  0
9967  10227  10530  0
10230  10237  10528  0
9967  10530  9973  0
10531  9973  10530  0
10235  10246  10532  0
10235  10532  10239  0
9976  10533  9974  0
9974  10533  9977  0
10246  10249  10532  0
9973  10531  10252  0
10248  10534  9976  0
10535  9976  10534  0
9976  10535  10533  0
10536  10533  10535  0
9683  10252  10537  0
10248  10250  10538  0
10250  10539  10538  0
10533  10253  9977  0
10540  10533  10536  0
10251  10254  10541  0
10251  10541  10249  0
10249  10541  10542  0
10249  10542  10532  0
9683  10537  9988  0
10250  9987  10255  0
10250  10543  10539  0
10533  10540  10253  0
10544  10253  10540  0
10253  10544  10257  0
10253  10257  10256  0
10250  10255  10543  0
10544  10545  10257  0
10257  10545  10260  0
10546  10260  10545  0
10265  10260  10547  0
10260  10546  10547  0
10548  10541  10254  0
10272  9988  10537  0
10255  10264  10543  0
10254  10266  10548  0
10549  10261  10267  0
10261  10549  9997  0
10550  9997  10549  0
9997  10550  10268  0
10551  9999  10268  0
9999  10551  10262  0
10552  10262  10551  0
10262  10552  10263  0
10553  10263  10552  0
10263  10553  10258  0
10269  10258  10553  0
10554  10264  10270  0
10555  10266  10271  0
10556  10267  10004  0
10267  10556  10549  0
10268  10550  10551  0
10553  10557  10269  0
10273  10269  10557  0
10005  10275  10270  0
10558  10270  10275  0
10270  10558  10554  0
10277  10265  10559  0
10271  10278  10555  0
10004  10279  10556  0
10275  10560  10558  0
10276  10277  10280  0
10561  10280  10277  0
10277  10559  10562  0
10277  10562  10561  0
10278  10012  10563  0
10273  10557  10564  0
10273  10565  10006  0
10566  10006  10565  0
10006  10566  10274  0
10567  10274  10566  0
10274  10567  10275  0
10275  10567  10560  0
10280  10561  10282  0
10286  10282  10561  0
10561  10562  10568  0
10561  10568  10286  0
10012  10283  10563  0
10569  10563  10283  0
10279  10285  10570  0
10571  10570  10285  0
10273  10564  10565  0
10565  10572  10566  0
10286  10568  10573  0
10286  10573  10287  0
10287  10573  10574  0
10021  10575  10283  0
10283  10575  10569  0
10285  10026  10571  0
10287  10574  10576  0
10287  10576  10289  0
10291  10577  10578  0
10291  10578  10292  0
10291  10301  10579  0
10291  10579  10577  0
10292  10578  10580  0
10292  10580  10295  0
10581  10293  10295  0
10295  10580  10582  0
10295  10583  10581  0
10308  10581  10583  0
10295  10582  10583  0
10569  10583  10582  0
10583  10575  10308  0
10296  10308  10575  0
10583  10569  10575  0
10575  10021  10296  0
10023  10024  10584  0
10023  10584  10298  0
10024  10305  10584  0
10301  10300  10307  0
10301  10307  10585  0
10301  10585  10586  0
10301  10586  10579  0
10585  10307  10587  0
10585  10587  10586  0
10293  10581  10310  0
10293  10310  10302  0
10581  10308  10310  0
9724  10284  10026  0
10022  10588  10297  0
10589  10297  10588  0
10022  10298  10588  0
10305  10304  10590  0
10305  10590  10591  0
10305  10591  10592  0
10305  10592  10584  0
10304  10306  10593  0
10304  10593  10590  0
10288  10289  10576  0
10288  10576  10306  0
10307  10302  10594  0
10307  10594  10314  0
10307  10314  10595  0
10307  10595  10587  0
10302  10310  10316  0
10302  10316  10594  0
10027  10596  10309  0
10027  10597  10596  0
10027  10303  10597  0
10303  10297  10589  0
10591  10590  10598  0
10591  10598  10592  0
10593  10599  10590  0
10306  10576  10600  0
10306  10600  10593  0
10601  10593  10600  0
10314  10594  10315  0
10314  10602  10595  0
10594  10316  10315  0
9741  10309  9749  0
10309  10596  10603  0
10593  10601  10599  0
10311  10604  10312  0
10605  10312  10604  0
10311  10313  10606  0
10311  10606  10604  0
10312  10605  10030  0
10607  10030  10605  0
10030  10607  10032  0
10032  10607  10314  0
10602  10314  10607  0
9749  10309  10036  0
10313  10317  10608  0
10313  10608  10606  0
10318  10609  10319  0
10610  10319  10609  0
10318  10323  10609  0
10319  10610  10611  0
10612  10611  10610  0
10611  10612  10327  0
10613  10327  10612  0
10327  10613  10614  0
10615  10614  10613  0
10317  10038  10616  0
10317  10616  10608  0
10323  10324  10617  0
10614  10618  10326  0
10614  10615  10618  0
10619  10618  10615  0
10614  10326  10327  0
10038  10037  10616  0
10325  10328  10620  0
10618  10329  10326  0
10618  10619  10329  0
10335  10329  10619  0
10616  10037  10330  0
10620  10328  10621  0
10328  10331  10621  0
10622  10330  10336  0
10043  10336  10330  0
10623  10622  10336  0
10330  10622  10624  0
10330  10624  10616  0
10331  10332  10625  0
10626  10625  10332  0
10332  10334  10626  0
10627  10626  10334  0
10334  10335  10627  0
10623  10336  10338  0
10623  10338  10628  0
10337  10629  9757  0
10338  10339  10628  0
10630  10628  10339  0
10631  10630  10339  0
9757  10629  10341  0
10339  10340  10631  0
10632  10631  10340  0
10631  10632  10633  0
10634  10635  10343  0
10344  10343  10635  0
10634  10636  10635  0
10637  10634  10343  0
10635  10638  10344  0
10345  10344  10638  0
10635  10636  10639  0
10635  10639  10638  0
10346  10345  10638  0
10638  10640  10346  0
10350  10632  10340  0
10058  10347  10641  0
10642  10641  10347  0
10641  10342  10058  0
10641  10637  10342  0
10342  10637  10343  0
10346  10640  10643  0
10346  10643  10054  0
10054  10643  10644  0
10645  10632  10350  0
10632  10645  10646  0
10642  10347  10348  0
10054  10644  9788  0
10647  10645  10350  0
10642  10348  10351  0
10642  10351  10648  0
10353  10649  10352  0
10355  9788  10650  0
10644  10650  9788  0
10350  10356  10647  0
10651  10645  10647  0
9776  10341  10069  0
10357  10652  10351  0
10357  10360  10652  0
10653  10358  10654  0
10358  10065  10654  0
10065  10064  10654  0
10352  10654  10064  0
10655  10647  10356  0
10647  10655  10651  0
10362  10656  10360  0
10359  10358  10653  0
10356  10074  10655  0
10364  10655  10074  0
10655  10364  10651  0
10657  10651  10364  0
10368  10362  10072  0
10359  10653  10658  0
10359  10658  10363  0
10364  10366  10657  0
10659  10657  10366  0
10656  10362  10660  0
10368  10660  10362  0
10370  10368  10082  0
10661  10363  10658  0
10363  10661  10371  0
10366  10372  10662  0
10366  10662  10659  0
10663  10659  10662  0
10664  10368  10370  0
10370  10369  10665  0
10666  10665  10369  0
10370  10665  10667  0
10370  10667  10664  0
10369  10371  10666  0
10371  10661  10668  0
10372  10373  10662  0
10373  10374  10669  0
10374  10375  10669  0
10670  10376  9803  0
10371  10668  10671  0
10371  10671  10666  0
10669  10375  10377  0
10669  10377  10672  0
10669  10672  10373  0
10377  10084  10673  0
10084  10674  10673  0
10084  10378  10674  0
10085  10381  10379  0
10675  10088  10380  0
10381  10086  10676  0
10086  10382  10677  0
10086  10677  10676  0
10382  10678  10677  0
10382  10383  10678  0
10383  10087  10385  0
10679  10088  10675  0
10088  10679  10089  0
10385  10384  10680  0
10681  10089  10679  0
10681  9820  10089  0
9820  10681  10090  0
10384  10387  10680  0
10090  10682  10386  0
10386  10682  10388  0
10683  10388  10682  0
10388  10683  10389  0
10684  10389  10683  0
10389  10684  10391  0
10389  10391  10094  0
9561  10685  10686  0
9561  10686  9834  0
9834  10687  10097  0
10097  10687  10392  0
10387  10095  10688  0
10096  10393  10390  0
10687  10689  10392  0
10395  10392  10689  0
10102  10690  10691  0
10102  10691  10104  0
10095  10104  10688  0
9843  10390  10405  0
10692  10693  10393  0
10393  10394  10692  0
10694  10692  10394  0
10394  10101  10694  0
10695  10694  10101  0
10101  10696  10695  0
10697  10695  10696  0
10101  10391  10696  0
10698  10697  10696  0
10696  10699  10698  0
10687  10399  10689  0
10400  10689  10399  0
10689  10400  10395  0
10700  10395  10400  0
10395  10700  10396  0
10397  10396  10700  0
10398  10690  10102  0
9843  10405  9565  0
10692  10694  10701  0
10702  10701  10694  0
10703  10695  10697  0
10697  10698  10703  0
10704  10703  10698  0
10698  10705  10704  0
10698  10699  10705  0
10400  10706  10700  0
10707  10400  10112  0
10397  10700  10708  0
10709  10113  10401  0
10113  10709  10402  0
10403  10402  10710  0
10403  10710  10398  0
10405  10711  10404  0
10712  10702  10694  0
10694  10695  10712  0
10695  10703  10712  0
10713  10712  10703  0
10703  10704  10713  0
10714  10704  10705  0
10112  10406  10707  0
10407  10707  10406  0
10397  10708  10715  0
10397  10715  10401  0
10401  10715  10716  0
10401  10716  10709  0
9578  10116  10717  0
9578  10717  9849  0
10408  10116  9577  0
10712  10713  10718  0
10719  10718  10713  0
10713  10704  10719  0
10704  10714  10719  0
9849  10720  10122  0
10717  10720  9849  0
10404  10711  10721  0
10404  10721  9860  0
10407  10410  10722  0
10723  10722  10410  0
10121  10122  10724  0
10121  10724  10725  0
10121  10725  10119  0
10720  10724  10122  0
10408  10123  10726  0
10409  10124  10727  0
10728  10727  10124  0
10124  10412  10728  0
10729  10728  10412  0
10412  10413  10729  0
10413  10419  10729  0
10410  10125  10730  0
10410  10730  10723  0
10128  10414  10731  0
10128  10731  10732  0
10733  10414  10415  0
10415  10416  10733  0
10734  10733  10416  0
10416  10119  10725  0
10416  10725  10734  0
10123  10421  10726  0
10417  10735  10131  0
10419  9868  10423  0
10419  10423  10736  0
9860  10721  10420  0
10125  10128  10732  0
10125  10732  10730  0
10129  10422  10737  0
10129  10737  10421  0
10738  10126  10418  0
10423  9869  10141  0
10420  10739  10134  0
10422  10133  10740  0
10422  10740  10737  0
10131  10735  10424  0
10126  10738  10132  0
10423  10141  10427  0
10134  10739  10135  0
10741  10135  10739  0
10135  10741  10136  0
10136  10741  10143  0
10741  10742  10143  0
10743  10143  10742  0
10425  10744  10138  0
10138  10740  10133  0
10138  10744  10740  0
10745  10139  10426  0
10746  10140  10132  0
10143  10743  10144  0
10435  10144  10743  0
10428  10747  10425  0
10744  10425  10747  0
10429  10745  10748  0
10429  10748  10430  0
10429  10139  10745  0
9867  9883  10749  0
10432  10750  10433  0
10434  10147  10751  0
10147  10435  10751  0
10145  10148  10747  0
10145  10747  10428  0
10752  10430  10748  0
9883  10154  10749  0
10140  10753  10149  0
10432  10438  10750  0
10754  9609  10152  0
10148  10436  10755  0
10148  10755  10747  0
10436  10430  10752  0
10149  10753  10155  0
10756  10155  10753  0
10438  10440  10757  0
9609  10754  9892  0
10758  9891  10439  0
10437  9891  10758  0
9893  10155  10756  0
9893  10756  10158  0
10440  10165  10444  0
10440  10444  10759  0
10162  10442  10446  0
10163  10158  10760  0
10163  10760  10443  0
10158  10756  10760  0
10444  10761  10759  0
10441  10445  10762  0
10763  10762  10445  0
10445  10168  10763  0
10764  10763  10168  0
10168  10446  10764  0
10765  10766  10767  0
10450  10447  10768  0
10768  10769  10450  0
10770  10771  10772  0
10770  10773  10774  0
10767  10773  10775  0
10775  10765  10767  0
10449  10776  10447  0
10450  10777  10448  0
10448  10777  10778  0
10448  10778  10451  0
10451  10778  10779  0
10776  10449  10780  0
10781  10780  10449  0
10782  10781  10449  0
10449  10451  10782  0
10452  10783  10453  0
10453  10783  10454  0
10454  10783  10784  0
10454  10784  10455  0
10455  10785  10456  0
10786  10456  10785  0
10455  10784  10787  0
10455  10787  10785  0
10785  10787  10786  0
10457  10788  10452  0
10456  10786  10789  0
10456  10789  10458  0
10461  10790  10457  0
10790  10791  10457  0
10458  10789  10460  0
10790  10461  10792  0
10793  10790  10792  0
10459  10460  10178  0
10467  10178  10460  0
10460  10794  10467  0
10795  10792  10461  0
10796  10793  10792  0
10461  10462  10795  0
10797  10795  10462  0
10462  10463  10797  0
10466  10797  10463  0
10467  10794  10798  0
10467  10798  10799  0
10792  10795  10796  0
10800  10796  10795  0
10795  10797  10800  0
10466  10800  10797  0
10799  10470  10467  0
10799  10798  10801  0
10799  10801  10802  0
10803  10804  10474  0
10475  10474  10804  0
10805  10803  10474  0
10475  10804  10806  0
10475  10806  10477  0
10466  10469  10807  0
10808  10807  10469  0
10469  10470  10808  0
10809  10808  10470  0
10470  10799  10809  0
10802  10809  10799  0
10805  10474  10483  0
10476  10483  10474  0
10805  10483  10810  0
10477  10811  10478  0
10812  10808  10809  0
10809  10802  10812  0
10813  10814  10815  0
10813  10816  10814  0
10491  10814  10816  0
10484  10817  10483  0
10810  10483  10817  0
10484  10491  10817  0
10818  10478  10811  0
10815  10814  10819  0
10814  10491  10492  0
10814  10492  10819  0
10495  10496  10497  0
10496  10478  10818  0
10496  10818  10820  0
10821  10496  10820  0
10501  10822  10503  0
10823  10503  10822  0
10487  10504  10488  0
10819  10492  10204  0
10497  10496  10821  0
10497  10821  10824  0
10497  10824  10494  0
10503  10823  10200  0
10499  10510  10825  0
10499  10825  10504  0
10504  10825  10488  0
10819  10204  10505  0
10493  10494  10824  0
10493  10824  10506  0
10510  10826  10825  0
10509  10512  10827  0
10509  10826  10510  0
10828  10829  10511  0
10830  9943  10212  0
10508  10831  10502  0
10511  10829  10210  0
10217  10516  10218  0
10508  10517  10831  0
10219  9943  10830  0
10219  10830  10832  0
10219  10832  10520  0
10518  10833  10522  0
10518  10519  10834  0
10225  10521  10524  0
10518  10834  10833  0
10834  10519  10835  0
10519  10523  10835  0
10526  10236  10836  0
10527  10836  10236  0
10517  10240  10837  0
10530  10227  10833  0
10530  10833  10838  0
10835  10523  10839  0
10840  10839  10523  0
10523  10526  10840  0
10526  10836  10840  0
10528  10836  10527  0
10841  10528  10237  0
10237  10231  10841  0
10842  10837  10240  0
10530  10838  10531  0
10838  10843  10531  0
10844  10240  10239  0
10240  10844  10842  0
10531  10843  10252  0
10239  10532  10844  0
10845  10844  10532  0
10248  10538  10534  0
10538  10846  10847  0
10538  10847  10534  0
10848  10846  10538  0
10534  10847  10849  0
10534  10849  10535  0
10538  10539  10848  0
10850  10848  10539  0
10535  10851  10536  0
10540  10536  10851  0
10535  10849  10852  0
10535  10852  10851  0
10532  10542  10845  0
10853  10845  10542  0
10854  10845  10853  0
10845  10854  10844  0
10252  10855  10537  0
10855  10856  10537  0
10539  10543  10850  0
10857  10850  10543  0
10851  10852  10858  0
10545  10544  10540  0
10859  10542  10541  0
10542  10859  10853  0
10540  10860  10545  0
10861  10545  10860  0
10540  10851  10860  0
10546  10545  10861  0
10541  10548  10859  0
10859  10862  10853  0
10857  10543  10264  0
10857  10264  10863  0
10554  10863  10264  0
10860  10864  10861  0
10861  10864  10546  0
10865  10546  10864  0
10547  10546  10865  0
10548  10866  10859  0
10548  10266  10866  0
10864  10860  10867  0
10864  10867  10865  0
10265  10547  10865  0
10266  10555  10866  0
10868  10866  10555  0
10869  10549  10556  0
10549  10869  10550  0
10550  10870  10551  0
10871  10551  10870  0
10551  10871  10552  0
10872  10552  10871  0
10552  10872  10553  0
10873  10553  10872  0
10557  10553  10873  0
10867  10874  10875  0
10867  10875  10865  0
10865  10875  10559  0
10865  10559  10265  0
10555  10278  10876  0
10563  10876  10278  0
10279  10877  10556  0
10878  10550  10869  0
10550  10878  10870  0
10558  10560  10879  0
10880  10875  10874  0
10875  10881  10562  0
10875  10562  10559  0
10875  10880  10881  0
10876  10882  10555  0
10279  10570  10877  0
10871  10883  10872  0
10884  10872  10883  0
10872  10884  10885  0
10872  10885  10873  0
10873  10885  10886  0
10873  10886  10564  0
10873  10564  10557  0
10887  10562  10881  0
10562  10887  10568  0
10876  10888  10882  0
10876  10563  10569  0
10876  10569  10888  0
10889  10284  10272  0
10565  10564  10572  0
10566  10572  10567  0
10568  10890  10574  0
10568  10574  10573  0
10568  10887  10890  0
10891  10580  10578  0
10888  10569  10582  0
10571  10892  10570  0
10893  10886  10885  0
10886  10893  10894  0
10886  10894  10564  0
10564  10894  10572  0
10895  10567  10572  0
10560  10567  10895  0
10580  10896  10582  0
10888  10582  10896  0
10026  10284  10892  0
10026  10892  10571  0
10576  10574  10600  0
10579  10586  10897  0
10586  10587  10897  0
10284  10889  10898  0
10284  10898  10892  0
10588  10298  10899  0
10298  10584  10592  0
10298  10592  10899  0
10587  10595  10900  0
10587  10900  10897  0
10595  10602  10900  0
10901  10900  10602  0
10303  10589  10597  0
10902  10597  10589  0
10589  10588  10902  0
10899  10902  10588  0
10598  10903  10592  0
10598  10590  10610  0
10599  10610  10590  0
10902  10596  10597  0
10903  10899  10592  0
10610  10903  10598  0
10610  10599  10904  0
10599  10601  10905  0
10599  10905  10904  0
10606  10906  10604  0
10604  10906  10907  0
10604  10907  10605  0
10908  10607  10605  0
10605  10907  10909  0
10910  10607  10908  0
10607  10910  10602  0
10602  10910  10901  0
10911  10036  10309  0
10309  10603  10911  0
10903  10610  10609  0
10903  10609  10912  0
10610  10904  10913  0
10610  10913  10914  0
10906  10606  10915  0
10606  10608  10915  0
10605  10909  10908  0
10036  10911  10916  0
10036  10916  10321  0
10917  10912  10617  0
10323  10617  10912  0
10918  10917  10617  0
10912  10609  10323  0
10610  10914  10612  0
10612  10615  10613  0
10608  10616  10919  0
10920  10921  10918  0
10920  10617  10325  0
10324  10325  10617  0
10920  10918  10617  0
10922  10919  10616  0
10923  10921  10924  0
10924  10920  10925  0
10924  10921  10920  0
10920  10325  10925  0
10620  10925  10325  0
10615  10926  10619  0
10616  10624  10922  0
10927  9755  10321  0
10924  10925  10923  0
10621  10331  10928  0
10625  10928  10331  0
10619  10627  10335  0
10619  10926  10627  0
10929  10627  10926  0
10930  10622  10931  0
10622  10623  10931  0
10932  10931  10623  0
10622  10930  10624  0
10922  10624  10930  0
9755  10927  10337  0
10933  10337  10927  0
10927  10934  10933  0
10935  10933  10934  0
10925  10620  10936  0
10620  10621  10936  0
10928  10936  10621  0
10928  10625  10937  0
10626  10937  10625  0
10626  10627  10938  0
10929  10938  10627  0
10932  10623  10628  0
10939  10629  10337  0
10337  10933  10939  0
10628  10630  10940  0
10941  10940  10630  0
10630  10631  10633  0
10630  10633  10942  0
10630  10942  10941  0
10942  10633  10943  0
10943  10944  10945  0
10943  10945  10942  0
10633  10632  10646  0
10633  10646  10943  0
10943  10646  10946  0
10943  10946  10944  0
10641  10947  10637  0
10948  10637  10947  0
10949  10637  10948  0
10637  10949  10634  0
10636  10634  10949  0
10636  10950  10639  0
10951  10639  10950  0
10639  10951  10640  0
10639  10640  10638  0
10946  10952  10944  0
10953  10641  10642  0
10953  10947  10641  0
10640  10954  10644  0
10640  10644  10643  0
10640  10951  10954  0
10955  10954  10951  0
10646  10645  10956  0
10646  10956  10946  0
10946  10956  10957  0
10946  10957  10952  0
10642  10648  10953  0
10954  10955  10644  0
10650  10644  10955  0
10956  10958  10957  0
10957  10958  10952  0
10351  10652  10648  0
10959  10654  10352  0
10959  10352  10649  0
10353  10354  10960  0
10353  10960  10649  0
10354  10355  10961  0
10354  10961  10960  0
10355  10650  10961  0
10645  10651  10962  0
10645  10962  10956  0
10956  10962  10963  0
10956  10963  10958  0
10958  10963  10964  0
10965  10069  10341  0
10966  10360  10967  0
10652  10966  10968  0
10966  10967  10968  0
10966  10652  10360  0
10654  10969  10653  0
10970  10653  10969  0
10967  10360  10656  0
