#!ascii file
34279  34691  34482  0
34691  34279  34692  0
34279  34091  34285  0
34279  34285  34693  0
34483  34694  34484  0
34485  34280  34484  0
34695  34485  34484  0
34486  34485  34695  0
34696  34487  34486  0
34697  34487  34696  0
34487  34697  34489  0
34698  34489  34697  0
34489  34698  34491  0
34699  34491  34698  0
34700  34491  34699  0
34285  34492  34693  0
34491  34700  34103  0
34497  34103  34700  0
34501  34293  34493  0
34493  34494  34701  0
34494  34702  34701  0
34494  34495  34703  0
34494  34703  34702  0
34495  34496  34704  0
34495  34704  34703  0
34496  34297  34498  0
34496  34498  34704  0
34498  34705  34704  0
34498  34497  34705  0
34706  34500  34707  0
34500  34706  34502  0
34504  34708  34503  0
34504  34709  34708  0
34505  34710  34504  0
34505  34711  34710  0
34709  34504  34710  0
34300  34301  34506  0
34301  34116  34712  0
34116  34117  34712  0
34117  33947  34713  0
34502  34714  34302  0
34715  34302  34714  0
34305  34302  34715  0
34125  34306  34507  0
34711  34303  34507  0
34303  34711  34505  0
34509  34508  34716  0
34509  34716  34717  0
34509  34717  34513  0
34718  34513  34717  0
34508  34506  34719  0
34508  34719  34716  0
33947  34123  34713  0
34123  34128  34720  0
34721  34510  34305  0
34510  34721  34511  0
34722  34511  34721  0
34511  34722  34518  0
34511  34518  34512  0
34722  34723  34518  0
34724  34518  34723  0
34306  34520  34725  0
34306  34725  34507  0
34726  34524  34527  0
34726  34527  34727  0
34726  34727  34728  0
34726  34728  34524  0
34522  34524  34728  0
34527  34528  34729  0
34527  34729  34730  0
34527  34730  34727  0
34718  34514  34513  0
34718  34731  34514  0
34732  34514  34731  0
34515  34516  34733  0
34516  34734  34733  0
34518  34724  34519  0
34735  34519  34724  0
34520  34521  34725  0
34521  34314  34525  0
34521  34525  34736  0
34521  34736  34737  0
34521  34737  34725  0
34736  34525  34522  0
34528  34530  34729  0
34530  34327  34514  0
34530  34514  34732  0
34530  34732  34729  0
34532  34519  34735  0
34531  34533  34738  0
34531  34738  34517  0
34534  34739  33969  0
34145  33969  34739  0
34533  34535  34740  0
34533  34740  34738  0
34535  34331  34536  0
34535  34536  34741  0
34535  34741  34742  0
34535  34742  34740  0
34536  34539  34741  0
34539  34541  34743  0
34539  34743  34741  0
34541  34335  34744  0
34541  34744  34745  0
34541  34745  34743  0
34744  34335  34544  0
34744  34544  34746  0
34744  34746  34745  0
34542  34747  34543  0
34543  34748  34336  0
34336  34748  34749  0
34336  34749  34339  0
34544  34337  34546  0
34544  34546  34750  0
34544  34750  34751  0
34544  34751  34746  0
34339  34749  34752  0
34339  34752  34547  0
34547  34752  34753  0
34545  34548  34754  0
34545  34754  34546  0
34548  34549  34755  0
34548  34755  34754  0
34551  34552  34756  0
34551  34756  34550  0
34552  34757  34756  0
34552  34547  34753  0
34552  34753  34757  0
34556  34758  34759  0
34759  34553  34350  0
34759  34350  34556  0
34553  34759  34760  0
34553  34760  34554  0
34555  34563  34347  0
34560  34761  34358  0
34560  34559  34761  0
34761  34562  34358  0
34761  34557  34562  0
34761  34758  34556  0
34761  34556  34557  0
34563  34762  34564  0
34564  34762  34763  0
34564  34763  34764  0
34564  34764  34567  0
34566  34570  34561  0
34561  34570  34765  0
34561  34765  34766  0
34567  34571  34369  0
34570  34568  34767  0
34570  34767  34765  0
34765  34767  34768  0
34568  34572  34767  0
34767  34572  34768  0
34571  34769  34378  0
34572  34573  34768  0
34378  34769  34770  0
34378  34770  34379  0
34377  34771  34573  0
34379  34770  34575  0
34578  34380  34574  0
34380  34578  34383  0
34383  34772  34375  0
34773  34383  34578  0
34381  34375  34377  0
34575  34770  34774  0
34575  34774  34577  0
34579  34577  34775  0
34577  34774  34775  0
34775  34776  34579  0
34578  34389  34773  0
34777  34773  34389  0
34389  34388  34777  0
34579  34776  34778  0
34388  34779  34777  0
34579  34778  34581  0
34388  34390  34779  0
34780  34779  34390  0
34390  34583  34780  0
34781  34780  34583  0
34395  34580  34782  0
34783  34782  34580  0
34580  34584  34783  0
34784  34783  34584  0
34584  34582  34581  0
34584  34581  34785  0
34584  34785  34784  0
34786  34787  34589  0
34590  34589  34787  0
34787  34788  34590  0
34583  34585  34781  0
34789  34781  34585  0
34782  34396  34395  0
34782  34783  34790  0
34791  34790  34783  0
34783  34784  34791  0
34786  34589  34792  0
34793  34792  34589  0
34589  34591  34793  0
34794  34793  34591  0
34590  34788  34795  0
34590  34795  34592  0
34592  34796  34400  0
34595  34400  34796  0
34592  34795  34796  0
34585  34397  34789  0
34396  34782  34209  0
34597  34209  34782  0
34782  34790  34597  0
34797  34597  34790  0
34591  34594  34794  0
34798  34794  34594  0
34595  34796  34799  0
34595  34799  34596  0
34398  34800  34801  0
34398  34801  34397  0
34802  34800  34398  0
34597  34797  34803  0
34405  34804  34599  0
34405  34601  34804  0
34805  34804  34601  0
34598  34806  34408  0
34603  34408  34806  0
34598  34599  34806  0
34806  34604  34603  0
34594  34593  34798  0
34807  34798  34593  0
34596  34802  34035  0
34035  34802  34213  0
34213  34802  34398  0
34597  34803  34600  0
34808  34600  34803  0
34404  34809  34805  0
34404  34805  34601  0
34605  34604  34810  0
34593  34410  34807  0
34811  34807  34410  0
34606  34600  34812  0
34808  34812  34600  0
34404  34417  34809  0
34609  34809  34417  0
34813  34809  34609  0
34609  34418  34814  0
34610  34814  34418  0
34609  34814  34813  0
34605  34810  34607  0
34815  34811  34410  0
34410  34414  34815  0
34816  34815  34414  0
34608  34606  34812  0
34817  34610  34422  0
34422  34423  34612  0
34422  34612  34817  0
34818  34817  34612  0
34607  34810  34819  0
34607  34819  34421  0
34414  34228  34816  0
34612  34611  34818  0
34820  34818  34611  0
34611  34614  34820  0
34821  34820  34614  0
34421  34819  34822  0
34421  34822  34613  0
34614  34426  34821  0
34823  34821  34426  0
34613  34822  34824  0
34425  34825  34235  0
34426  34249  34823  0
34826  34823  34249  0
34613  34824  34615  0
34615  34824  34616  0
34235  34825  34242  0
34249  34617  34826  0
34827  34826  34617  0
34429  34616  34620  0
34620  34616  34828  0
34824  34828  34616  0
34616  34429  34428  0
34242  34825  34829  0
34617  34618  34827  0
34830  34618  34619  0
34619  34620  34830  0
34430  34631  34831  0
34832  34431  34242  0
34431  34832  34621  0
34833  34621  34832  0
34621  34833  34622  0
34834  34622  34833  0
34622  34834  34623  0
34835  34623  34834  0
34623  34835  34624  0
34836  34624  34835  0
34624  34836  34625  0
34837  34625  34836  0
34625  34837  34436  0
34626  34436  34837  0
34436  34626  34247  0
34629  34628  34838  0
34628  34629  34627  0
34839  34630  34629  0
34633  34630  34840  0
34630  34839  34840  0
34841  34635  34632  0
34842  34644  34645  0
34843  34844  34840  0
34648  34840  34844  0
34840  34648  34633  0
34637  34633  34648  0
34845  34638  34455  0
34638  34846  34634  0
34638  34845  34846  0
34642  34635  34841  0
34642  34841  34643  0
34847  34643  34841  0
34645  34457  34842  0
34653  34842  34457  0
34842  34653  34848  0
34842  34848  34849  0
34657  34844  34848  0
34844  34657  34648  0
34646  34648  34657  0
34455  34658  34845  0
34641  34643  34850  0
34847  34850  34643  0
34641  34850  34652  0
34851  34652  34850  0
34653  34654  34848  0
34655  34848  34654  0
34848  34655  34657  0
34852  34658  34466  0
34853  34658  34852  0
34652  34851  34663  0
34854  34670  34659  0
34659  34671  34854  0
34855  34854  34671  0
34671  34672  34855  0
34662  34663  34856  0
34662  34856  34672  0
34857  34663  34851  0
34668  34471  34674  0
34675  34670  34679  0
34670  34854  34679  0
34854  34855  34858  0
34855  34672  34859  0
34855  34859  34858  0
34672  34860  34859  0
34672  34856  34860  0
34663  34857  34856  0
34861  34856  34857  0
34677  34862  34676  0
34863  34676  34862  0
34677  34681  34862  0
34676  34863  34673  0
34679  34854  34864  0
34679  34864  34680  0
34854  34858  34864  0
34856  34861  34860  0
34477  34865  34683  0
34477  34683  34476  0
34680  34864  34866  0
34680  34866  34685  0
34864  34858  34867  0
34864  34867  34866  0
34868  34681  34682  0
34868  34682  34869  0
34868  34870  34681  0
34862  34681  34870  0
34871  34480  34684  0
34480  34871  34678  0
34685  34872  34687  0
34685  34866  34872  0
34869  34682  34686  0
34869  34686  34690  0
34687  34872  34873  0
34687  34873  34688  0
34690  34874  34869  0
34688  34875  34689  0
34278  34689  34483  0
34691  34692  34876  0
34691  34876  34690  0
34692  34279  34693  0
34692  34693  34876  0
34689  34694  34483  0
34693  34877  34876  0
34878  34484  34694  0
34879  34484  34878  0
34484  34879  34695  0
34880  34486  34695  0
34486  34880  34696  0
34881  34697  34696  0
34697  34881  34698  0
34699  34698  34881  0
34699  34882  34700  0
34883  34700  34882  0
34693  34492  34877  0
34884  34707  34500  0
34884  34500  34501  0
34884  34885  34707  0
34501  34886  34884  0
34886  34887  34884  0
34886  34501  34493  0
34886  34493  34888  0
34886  34888  34887  0
34888  34493  34701  0
34703  34889  34890  0
34703  34890  34702  0
34700  34705  34497  0
34700  34883  34705  0
34891  34705  34883  0
34492  34499  34877  0
34703  34704  34889  0
34704  34892  34889  0
34704  34705  34891  0
34704  34891  34892  0
34893  34299  34503  0
34893  34503  34708  0
34894  34299  34893  0
34299  34894  34499  0
34709  34895  34708  0
34709  34710  34896  0
34709  34896  34895  0
34706  34897  34502  0
34714  34502  34897  0
34710  34711  34896  0
34506  34301  34898  0
34506  34898  34719  0
34899  34719  34898  0
34712  34117  34713  0
34507  34725  34711  0
34711  34725  34900  0
34711  34900  34896  0
34896  34900  34901  0
34717  34716  34902  0
34717  34902  34903  0
34717  34903  34731  0
34717  34731  34718  0
34716  34719  34899  0
34716  34899  34902  0
34713  34904  34712  0
34713  34123  34720  0
34713  34720  34904  0
34305  34715  34905  0
34721  34305  34906  0
34721  34906  34722  0
34722  34906  34907  0
34722  34907  34723  0
34723  34908  34724  0
34723  34907  34908  0
34900  34725  34737  0
34900  34737  34736  0
34900  34736  34909  0
34900  34909  34910  0
34900  34910  34901  0
34909  34736  34522  0
34909  34522  34728  0
34909  34728  34911  0
34909  34911  34910  0
34728  34727  34912  0
34728  34912  34911  0
34727  34730  34913  0
34727  34913  34912  0
34730  34729  34913  0
34729  34732  34731  0
34729  34731  34914  0
34729  34914  34913  0
34309  34515  34915  0
34515  34733  34915  0
34724  34916  34735  0
34516  34517  34917  0
34516  34917  34918  0
34516  34918  34734  0
34329  34532  34735  0
34329  34735  34919  0
34329  34919  34534  0
34517  34738  34917  0
34917  34738  34920  0
34738  34921  34920  0
34145  34922  34537  0
34537  34922  34923  0
34740  34921  34738  0
34537  34923  34924  0
34537  34924  34538  0
34538  34924  34540  0
34542  34540  34925  0
34542  34925  34747  0
34747  34926  34543  0
34927  34742  34741  0
34928  34927  34741  0
34741  34743  34928  0
34929  34928  34743  0
34743  34745  34929  0
34930  34929  34745  0
34745  34746  34930  0
34543  34926  34748  0
34748  34931  34749  0
34751  34750  34932  0
34749  34931  34752  0
34750  34546  34932  0
34546  34754  34932  0
34933  34932  34754  0
34754  34755  34933  0
34934  34755  34549  0
34549  34550  34934  0
34935  34934  34550  0
34550  34756  34935  0
34936  34935  34756  0
34756  34757  34936  0
34937  34936  34757  0
34757  34753  34937  0
34752  34937  34753  0
34758  34938  34759  0
34554  34762  34555  0
34563  34555  34762  0
34939  34761  34559  0
34761  34939  34758  0
34940  34758  34939  0
34554  34763  34762  0
34559  34561  34939  0
34766  34939  34561  0
34941  34939  34766  0
34939  34941  34940  0
34942  34940  34941  0
34943  34764  34763  0
34943  34763  34944  0
34554  34944  34763  0
34766  34765  34941  0
34945  34941  34765  0
34941  34945  34942  0
34764  34943  34946  0
34764  34946  34567  0
34765  34768  34945  0
34945  34947  34942  0
34567  34946  34948  0
34567  34948  34571  0
34571  34948  34949  0
34571  34949  34769  0
34950  34768  34573  0
34769  34949  34770  0
34951  34772  34383  0
34773  34951  34383  0
34375  34772  34952  0
34772  34951  34952  0
34377  34953  34771  0
34573  34771  34950  0
34770  34949  34954  0
34770  34954  34774  0
34774  34954  34955  0
34375  34952  34953  0
34375  34953  34377  0
34774  34955  34775  0
34956  34773  34777  0
34776  34957  34958  0
34957  34776  34775  0
34959  34958  34960  0
34957  34960  34958  0
34958  34961  34776  0
34778  34776  34961  0
34779  34780  34962  0
34781  34962  34780  0
34958  34959  34961  0
34961  34581  34778  0
34581  34961  34963  0
34581  34963  34785  0
34787  34964  34788  0
34788  34964  34795  0
34781  34789  34965  0
34784  34785  34791  0
34966  34791  34785  0
34785  34963  34967  0
34785  34967  34966  0
34792  34793  34968  0
34793  34794  34968  0
34969  34968  34794  0
34795  34970  34796  0
34799  34796  34971  0
34796  34970  34972  0
34796  34972  34971  0
34397  34801  34789  0
34973  34789  34801  0
34974  34790  34791  0
34791  34966  34974  0
34975  34974  34966  0
34966  34967  34976  0
34966  34976  34975  0
34975  34976  34977  0
34794  34798  34969  0
34799  34971  34978  0
34799  34978  34596  0
34596  34978  34802  0
34801  34800  34973  0
34790  34974  34797  0
34979  34797  34974  0
34974  34975  34979  0
34804  34980  34599  0
34599  34980  34806  0
34806  34980  34981  0
34806  34981  34982  0
34806  34982  34604  0
34798  34807  34983  0
34803  34797  34984  0
34985  34984  34797  0
34803  34984  34808  0
34797  34979  34985  0
34813  34805  34809  0
34986  34604  34982  0
34604  34986  34810  0
34987  34810  34986  0
34988  34807  34811  0
34815  34988  34811  0
34989  34990  34812  0
34812  34808  34989  0
34984  34989  34808  0
34814  34610  34991  0
34817  34991  34610  0
34814  34991  34813  0
34991  34817  34992  0
34993  34992  34817  0
34990  34608  34812  0
34817  34818  34993  0
34810  34987  34819  0
34994  34819  34987  0
34995  34819  34994  0
34996  34818  34820  0
34820  34821  34996  0
34997  34996  34821  0
34822  34819  34995  0
34821  34823  34997  0
34998  34997  34823  0
34822  34995  34824  0
34999  34824  34995  0
34826  35000  34823  0
34998  34823  35000  0
34824  34999  34828  0
34427  34430  35001  0
35002  35000  34826  0
34826  34827  35002  0
34827  34618  34830  0
34827  34830  35002  0
34999  35002  34830  0
34620  34828  34830  0
34830  34828  34999  0
34430  34831  35001  0
34829  34832  34242  0
34829  35003  34832  0
34837  34836  35004  0
35005  34626  34837  0
34832  35006  34833  0
35007  34833  35006  0
34833  35007  34834  0
35008  34834  35007  0
34834  35008  34835  0
35004  34835  35008  0
34835  35004  34836  0
34626  35005  34632  0
34841  34632  35005  0
35009  34847  34841  0
35010  34847  35009  0
35011  34850  34847  0
35011  34847  35010  0
35012  35011  35010  0
34658  34853  34845  0
35011  35012  34851  0
35011  34851  34850  0
34667  35013  34466  0
34852  34466  35013  0
34667  34668  35013  0
34851  35014  34857  0
34668  34674  35015  0
34674  35016  35015  0
34857  35017  34861  0
34857  35018  35017  0
34861  35017  35018  0
35019  35020  35021  0
35019  35022  35020  0
35023  35020  35022  0
35019  35021  35024  0
35019  35024  35022  0
35020  35023  35025  0
35023  34862  35025  0
35023  35026  34862  0
35027  34862  35026  0
34862  35027  34863  0
35028  34863  35027  0
34863  35028  34673  0
35029  34673  35028  0
34673  35029  34477  0
34858  35030  34867  0
34858  34859  35031  0
34858  35031  35030  0
34859  34860  35032  0
34859  35032  35031  0
34860  34861  35032  0
34861  35033  35032  0
35021  35020  35034  0
35021  35035  35024  0
35020  35025  34870  0
35020  34870  35034  0
35025  34862  34870  0
34865  34477  35029  0
34674  34678  35016  0
34866  34867  35030  0
35030  35031  35036  0
35031  35032  35037  0
35031  35037  35036  0
35032  35033  35037  0
35021  35034  35038  0
35021  35038  35039  0
35021  35039  35035  0
35034  34870  34868  0
34683  35040  34684  0
35041  34678  34871  0
34872  34866  35042  0
34866  35030  35043  0
34866  35043  35042  0
35030  35036  35043  0
35034  34868  34869  0
35034  34869  35038  0
34688  34873  34875  0
34872  35042  34873  0
35038  34869  34874  0
35038  34874  35044  0
34875  35045  34689  0
34874  34690  35046  0
34874  35046  35047  0
34874  35047  35044  0
35048  34689  35045  0
35046  34690  34876  0
34876  35049  35046  0
34689  35048  34694  0
34694  35048  35050  0
34694  35050  35051  0
34694  35051  34878  0
35049  34876  34877  0
34878  35051  34879  0
34879  35051  35052  0
34879  35052  35053  0
34879  35053  34695  0
34877  35054  35049  0
34885  34884  35055  0
34884  35056  35055  0
34884  35057  35056  0
35057  34884  34887  0
34695  35053  34880  0
34696  34880  35058  0
34696  35058  34881  0
34699  34881  35059  0
34699  35059  34882  0
34882  35060  34883  0
34882  35059  35060  0
34877  34499  35054  0
34887  35061  35057  0
34887  34888  35061  0
34888  34701  35062  0
34888  35062  35063  0
34888  35063  35061  0
35062  34701  34702  0
35062  34702  34890  0
34890  34889  35064  0
34890  35064  35062  0
34889  34892  35064  0
34892  34891  35065  0
34892  35065  35064  0
34891  34883  35065  0
34883  35060  35065  0
34894  35054  34499  0
34706  34707  34897  0
34893  34708  34895  0
34893  34895  35066  0
34896  34901  35067  0
34896  35067  35068  0
34896  35068  34895  0
34301  34712  34898  0
34714  35069  34715  0
34901  34910  35070  0
34911  35070  34910  0
34901  35070  35067  0
35071  35067  35070  0
35070  34911  35072  0
34912  35072  34911  0
35070  35072  35071  0
35073  35071  35072  0
35072  34912  35074  0
34913  35074  34912  0
35072  35074  35073  0
35074  34913  35075  0
35076  35074  35075  0
34914  35075  34913  0
35077  35076  35075  0
35075  34914  34903  0
34731  34903  34914  0
35075  34903  35077  0
35078  35077  34903  0
34903  34902  35078  0
34899  35078  34902  0
34899  34898  35079  0
35080  35079  34898  0
34898  34712  35080  0
34904  35080  34712  0
35081  34904  34720  0
34305  34905  34906  0
34906  35082  34907  0
34907  35082  34908  0
34908  35083  34724  0
35084  35081  34720  0
34720  34128  35084  0
34309  35084  34128  0
34309  34915  35085  0
34915  34733  35086  0
35087  35086  34733  0
34733  34734  35087  0
34735  34916  35088  0
35083  34916  34724  0
34734  34918  35087  0
35089  35087  34918  0
34920  34918  34917  0
35090  34918  34920  0
34739  34534  35091  0
34919  35091  34534  0
35092  35090  34920  0
35091  35093  34739  0
35094  34920  34921  0
34920  35094  35092  0
34145  34739  34922  0
35095  34921  34740  0
34921  35095  35092  0
34921  35092  35094  0
34924  35096  34540  0
35096  35097  34540  0
34740  34742  35095  0
34927  35095  34742  0
35098  35095  34927  0
34927  34928  35098  0
34928  34929  35098  0
35099  35098  34929  0
34929  34930  35099  0
34540  35097  34925  0
35100  34930  34746  0
34746  34751  35100  0
35101  35100  34751  0
34751  34932  35101  0
35102  35101  34932  0
34748  34926  34931  0
35103  35102  34932  0
34932  35104  35103  0
35105  35106  34931  0
34752  34931  35106  0
35105  34931  35107  0
34926  35107  34931  0
34933  35104  34932  0
35108  35104  34933  0
35106  34937  34752  0
34933  34755  35108  0
35109  35108  34755  0
34755  34934  35109  0
35110  35109  34934  0
34934  34935  35110  0
35111  35110  34935  0
34935  34936  35111  0
35112  35111  34936  0
34936  34937  35112  0
35106  35112  34937  0
34759  34938  34760  0
34758  34940  34938  0
35113  34938  34940  0
34944  34938  35113  0
34938  34944  34760  0
34554  34760  34944  0
34940  34942  35113  0
35114  35113  34942  0
35113  35114  34944  0
34943  34944  35114  0
34942  34947  35114  0
35115  35114  34947  0
35114  35115  34943  0
34946  34943  35115  0
35116  34947  34945  0
34947  35117  35118  0
34947  35118  35115  0
34947  35116  35117  0
35115  35118  35119  0
35115  35119  34946  0
34946  35119  35120  0
34946  35120  34948  0
34945  34768  35116  0
34948  35121  34949  0
34948  35120  35122  0
34948  35122  35121  0
34950  35123  34768  0
34954  34949  35121  0
35121  35122  35124  0
35121  35124  34954  0
34951  34773  35125  0
34952  34951  35126  0
34952  35126  34953  0
34953  35126  35127  0
34953  35127  34771  0
34771  35127  35128  0
34771  35128  35129  0
34771  35129  34950  0
34954  35124  34955  0
35130  35131  35132  0
34957  35132  35131  0
35130  35132  35133  0
35132  34957  34955  0
34775  34955  34957  0
35124  35132  34955  0
34777  34779  34956  0
34962  34956  34779  0
34960  35131  35134  0
35134  35131  35130  0
35131  34960  34957  0
34959  34960  35134  0
35135  34962  34781  0
34959  35136  34961  0
34781  34965  35135  0
35137  34961  35136  0
34969  35138  34968  0
34964  35139  34795  0
35140  34795  35139  0
34795  35140  34970  0
35141  34970  35140  0
35142  34965  34789  0
34961  35137  34963  0
35143  34963  35137  0
34963  35144  34967  0
34976  34967  35144  0
34963  35143  35144  0
35145  35144  35143  0
35144  35145  34976  0
35146  34976  35145  0
34970  35141  34972  0
35147  34972  35141  0
34972  35147  34971  0
35148  34971  35147  0
34789  34973  35142  0
34976  35149  34977  0
34976  35146  35149  0
35150  34969  34798  0
34798  34983  35150  0
35151  35150  34983  0
34971  35148  34978  0
35152  34978  35148  0
35153  34978  35152  0
34978  35153  34802  0
35154  34802  35153  0
34802  35154  34800  0
34975  34977  34979  0
35155  34804  34805  0
34804  35155  34980  0
34980  35156  34981  0
35157  34982  34981  0
34983  34807  34988  0
34983  34988  35158  0
34983  35158  35151  0
35158  34988  35159  0
34989  34984  35160  0
34984  34985  35160  0
35161  35160  34985  0
34985  34979  35162  0
34985  35162  35161  0
34979  34977  35162  0
34805  34813  35155  0
35155  34813  34991  0
35155  34991  35163  0
34982  35157  34986  0
35164  34986  35157  0
34986  35164  34987  0
34994  34987  35164  0
34988  34815  35165  0
34988  35165  35159  0
34815  35166  35165  0
34990  35167  34608  0
34990  34989  35168  0
34991  34992  35163  0
34992  34993  35169  0
34992  35169  35170  0
34992  35170  35171  0
34992  35171  35163  0
35170  35169  35172  0
35170  35172  35171  0
34815  34816  35173  0
34815  35173  35166  0
34608  35167  35174  0
34608  35174  34425  0
34993  34818  34996  0
34993  34996  35169  0
35169  34996  35175  0
35169  35175  35172  0
34994  35176  34995  0
35177  34995  35176  0
34816  34228  35178  0
34816  35178  35173  0
35179  34425  35174  0
34996  34997  35180  0
34996  35180  35175  0
34228  34427  35178  0
34425  35179  34825  0
35181  34825  35179  0
35182  34997  34998  0
35182  34998  35000  0
35182  35180  34997  0
35177  34999  34995  0
35177  35183  34999  0
35184  34999  35183  0
34427  35001  35178  0
35003  34825  35181  0
35002  34999  35184  0
34825  35003  34829  0
35003  35185  35006  0
35003  35006  34832  0
34837  35004  35005  0
34831  34631  35186  0
35185  35187  35006  0
35185  35188  35187  0
35189  35187  35188  0
35006  35187  35190  0
35006  35190  35007  0
35007  35190  35191  0
35007  35191  35008  0
35008  35191  35192  0
35008  35192  35004  0
35004  35192  35005  0
34631  34634  35186  0
35187  35193  35190  0
35190  35193  35194  0
35190  35194  35195  0
35190  35195  35191  0
35191  35195  35196  0
35191  35196  35192  0
35192  35196  35009  0
35192  35009  35005  0
35005  35009  34841  0
34634  34846  35186  0
35187  35189  35193  0
35193  35197  35194  0
35194  35197  35198  0
35194  35198  35195  0
35195  35198  35010  0
35195  35010  35196  0
35196  35010  35009  0
34846  34845  35199  0
35189  35200  35193  0
35193  35200  35197  0
35197  35201  35198  0
35198  35201  35012  0
35198  35012  35010  0
35199  34845  34853  0
35200  35202  35197  0
35197  35202  35201  0
35203  34852  35013  0
35204  34852  35203  0
34852  35204  34853  0
35202  35205  35201  0
35201  35205  35206  0
35201  35206  35012  0
35012  35206  35014  0
35012  35014  34851  0
35207  35208  35209  0
35013  34668  35015  0
35013  35015  35210  0
35014  35211  35018  0
35014  35018  34857  0
35209  35208  35022  0
35209  35022  35207  0
35208  35026  35023  0
35208  35023  35022  0
35208  35212  35026  0
35213  35026  35212  0
35015  35016  35214  0
35215  35018  35211  0
35018  35215  34861  0
35216  34861  35215  0
35207  35022  35024  0
35207  35024  35217  0
35026  35213  35027  0
35218  35027  35213  0
35027  35218  35028  0
35219  35028  35218  0
35028  35219  35029  0
35220  35029  35219  0
35033  34861  35216  0
35221  35033  35216  0
35217  35024  35222  0
35024  35035  35223  0
35024  35223  35222  0
35220  34865  35029  0
35224  34865  35220  0
34865  35224  34683  0
35224  35040  34683  0
35224  35225  35040  0
35016  34678  35041  0
35036  35037  35226  0
35036  35226  35227  0
35037  35033  35221  0
35037  35221  35226  0
35035  35039  35223  0
34684  35040  35228  0
34684  35228  34871  0
35042  35043  35229  0
35042  35229  35230  0
35043  35036  35231  0
35043  35231  35229  0
35036  35227  35231  0
35039  35232  35223  0
34875  34873  35233  0
34875  35233  35234  0
34875  35234  35045  0
34873  35042  35230  0
34873  35230  35233  0
35039  35038  35044  0
35039  35044  35235  0
35039  35235  35232  0
35044  35047  35235  0
35045  35234  35048  0
35236  35047  35046  0
35048  35237  35050  0
35238  35236  35046  0
35050  35239  35051  0
35046  35049  35238  0
35240  35238  35049  0
35051  35239  35052  0
35052  35241  35053  0
35049  35054  35240  0
35242  35240  35054  0
34885  35055  35243  0
35057  35061  35244  0
35053  35241  35245  0
35053  35245  34880  0
34880  35245  35058  0
34881  35058  35246  0
34881  35246  35059  0
35061  35063  35247  0
35248  35247  35063  0
35063  35062  35248  0
35249  35248  35062  0
35062  35064  35249  0
35250  35249  35064  0
35251  35250  35064  0
35064  35065  35251  0
35252  35251  35065  0
35065  35060  35252  0
35059  35252  35060  0
35054  34894  35242  0
35066  35242  34894  0
34707  34885  35253  0
35254  35255  35066  0
35066  34894  34893  0
34707  35253  34897  0
35066  34895  35254  0
35256  35254  34895  0
34895  35068  35256  0
35257  35256  35068  0
35068  35067  35258  0
35071  35258  35067  0
35068  35258  35257  0
35259  35257  35258  0
35258  35071  35260  0
35073  35260  35071  0
35258  35260  35259  0
35073  35259  35260  0
35073  35074  35261  0
35262  35261  35074  0
35074  35076  35262  0
35263  35262  35076  0
34715  35069  34905  0
35076  35077  35263  0
35264  35263  35077  0
35077  35078  35264  0
35079  35080  35265  0
35266  35265  35080  0
35080  34904  35266  0
34905  35267  34906  0
34906  35267  35268  0
34906  35268  35082  0
34908  35082  35083  0
34904  35081  35269  0
35270  35081  35084  0
35084  34309  35271  0
35085  34915  35272  0
34915  35086  35272  0
35273  35272  35086  0
35274  35273  35086  0
35086  35087  35274  0
34735  35088  34919  0
35088  34916  35275  0
34916  35083  35275  0
35084  35271  35270  0
35085  35271  34309  0
35276  35274  35087  0
35087  35089  35276  0
35277  35089  34918  0
34918  35090  35277  0
35091  34919  35093  0
35278  35090  35092  0
35279  35090  35278  0
35280  35278  35092  0
35278  35280  35279  0
35281  35279  35280  0
35098  35092  35095  0
35092  35098  35280  0
35280  35098  35281  0
35282  35281  35098  0
34924  35283  35096  0
35096  35283  35097  0
35284  34925  35097  0
35098  35099  35282  0
35285  35282  35099  0
35099  34930  35285  0
35286  35285  34930  0
34925  35284  34747  0
35287  34747  35284  0
34747  35287  34926  0
34930  35100  35286  0
35288  35101  35102  0
35102  35103  35288  0
35289  35288  35103  0
34926  35287  35107  0
35290  35107  35287  0
35103  35104  35289  0
35107  35290  35105  0
35104  35108  35289  0
35291  35289  35108  0
35292  35112  35105  0
35106  35105  35112  0
35290  35292  35105  0
35108  35109  35291  0
35293  35291  35109  0
35109  35110  35293  0
35294  35293  35110  0
35110  35111  35294  0
35295  35294  35111  0
35111  35112  35295  0
35296  35118  35117  0
35297  35117  35116  0
35118  35296  35119  0
35298  35120  35119  0
35120  35298  35122  0
34768  35123  35116  0
35116  35123  35297  0
34950  35299  35123  0
34950  35129  35299  0
35122  35300  35124  0
35301  34951  35125  0
34951  35301  35126  0
35302  35128  35127  0
35128  35302  35129  0
35299  35129  35302  0
35132  35303  35133  0
35303  35132  35124  0
35303  35124  35300  0
34773  34956  35304  0
35305  35304  34956  0
35130  35133  35306  0
35307  35130  35306  0
34956  34962  35305  0
35130  35307  35134  0
35134  35307  34959  0
35308  34959  35307  0
34962  35135  35309  0
34959  35308  35136  0
35135  34965  35310  0
35311  35136  35308  0
35136  35311  35137  0
35312  35141  35140  0
35313  35145  35143  0
35145  35313  35146  0
35141  35312  35147  0
35314  35147  35312  0
35147  35314  35148  0
35146  35315  35149  0
34969  35150  35316  0
35150  35151  35316  0
35148  35314  35152  0
35317  35152  35314  0
35152  35317  35153  0
35318  35153  35317  0
35153  35318  35154  0
35319  34800  35154  0
34800  35319  34973  0
35161  35320  35321  0
35322  35161  35321  0
35161  35162  35323  0
35161  35323  35320  0
35162  34977  35323  0
34977  35149  35315  0
34977  35315  35323  0
34980  35155  35324  0
34980  35324  35156  0
35156  35324  35157  0
35156  35157  34981  0
35151  35158  35325  0
35326  35168  34989  0
35326  34989  35160  0
35160  35322  35326  0
35160  35161  35322  0
35155  35163  35324  0
35324  35163  35171  0
35324  35171  35157  0
35157  35171  35327  0
35157  35327  35164  0
35328  34994  35164  0
35159  35165  35329  0
35159  35329  35158  0
35165  35166  35329  0
34990  35168  35167  0
35171  35172  35330  0
35171  35330  35327  0
34994  35328  35176  0
35172  35175  35331  0
35172  35331  35330  0
35183  35177  35176  0
35180  35182  35175  0
35185  35003  35181  0
35182  35000  35002  0
35182  35002  35332  0
35002  35184  35332  0
35178  35001  35333  0
35001  35334  35333  0
35334  35001  34831  0
35189  35188  35335  0
35336  35189  35335  0
34846  35337  35186  0
34846  35199  35337  0
35189  35336  35200  0
34853  35204  35338  0
34853  35338  35199  0
35336  35339  35200  0
35200  35339  35202  0
35013  35210  35203  0
35203  35210  35340  0
35208  35341  35212  0
35210  35015  35214  0
35210  35214  35342  0
35210  35342  35340  0
35205  35343  35206  0
35206  35343  35344  0
35206  35344  35014  0
35014  35344  35345  0
35014  35345  35211  0
35212  35341  35346  0
35212  35346  35213  0
35213  35346  35347  0
35214  35348  35349  0
35214  35349  35342  0
35211  35345  35215  0
35215  35350  35216  0
35207  35217  35351  0
35217  35222  35352  0
35217  35352  35351  0
35352  35222  35353  0
35213  35347  35218  0
35218  35347  35219  0
35219  35354  35220  0
35220  35354  35224  0
35355  35225  35224  0
35214  35016  35348  0
35216  35350  35356  0
35222  35223  35353  0
35016  35357  35348  0
35016  35041  35357  0
35227  35226  35358  0
35226  35221  35359  0
35226  35360  35358  0
35221  35216  35356  0
35221  35356  35359  0
35223  35361  35353  0
35362  35363  35364  0
35364  35363  35365  0
35364  35366  35367  0
34871  35368  35041  0
35229  35231  35369  0
35231  35227  35370  0
35231  35370  35369  0
35227  35358  35360  0
35227  35360  35370  0
35223  35232  35361  0
35371  35361  35232  0
35372  35234  35233  0
35233  35230  35373  0
35233  35373  35372  0
35230  35229  35373  0
35374  35373  35229  0
35229  35369  35374  0
35375  35371  35232  0
35362  35376  35363  0
35377  35363  35376  0
35362  35378  35376  0
35363  35377  35365  0
35365  35379  35364  0
35364  35379  35366  0
35380  35366  35379  0
35381  35382  35383  0
35384  35385  35234  0
35234  35372  35384  0
35232  35235  35386  0
35047  35386  35235  0
35232  35386  35375  0
35387  35375  35386  0
35365  35377  35379  0
35388  35380  35379  0
35382  35056  35237  0
35234  35385  35048  0
35386  35047  35387  0
35236  35387  35047  0
35377  35389  35379  0
35379  35390  35388  0
35388  35391  35392  0
35393  35392  35391  0
35381  35055  35382  0
35382  35055  35056  0
35050  35237  35056  0
35237  35048  35385  0
35387  35236  35394  0
35395  35394  35236  0
35390  35379  35389  0
35391  35388  35390  0
35236  35238  35395  0
35238  35240  35395  0
35389  35396  35390  0
35390  35396  35391  0
35397  35391  35396  0
35391  35397  35393  0
35393  35397  35398  0
35398  35397  35399  0
35400  35399  35397  0
35399  35400  35401  0
35402  35401  35400  0
35401  35402  35403  0
35057  35050  35056  0
35050  35057  35239  0
35244  35239  35057  0
35239  35404  35405  0
35239  35405  35052  0
35239  35244  35404  0
35052  35405  35406  0
35052  35406  35407  0
35052  35407  35241  0
35396  35408  35397  0
35055  35381  35409  0
35247  35244  35061  0
35244  35247  35410  0
35058  35245  35411  0
35058  35411  35246  0
35240  35242  35412  0
35240  35412  35413  0
35414  35413  35412  0
35396  35415  35408  0
35408  35415  35416  0
35417  35408  35416  0
35408  35417  35397  0
35397  35417  35400  0
35418  35400  35417  0
35400  35418  35402  0
35402  35418  35419  0
35055  35409  35243  0
35420  35247  35248  0
35248  35249  35420  0
35421  35420  35249  0
35249  35250  35421  0
35422  35421  35250  0
35250  35251  35422  0
35251  35252  35422  0
35423  35422  35252  0
35059  35423  35252  0
35412  35242  35255  0
35066  35255  35242  0
35412  35255  35414  0
35424  35414  35255  0
34885  35243  35253  0
35424  35255  35254  0
35425  35254  35256  0
35256  35426  35425  0
35427  34897  35253  0
35256  35257  35426  0
35259  35426  35257  0
35073  35426  35259  0
35426  35073  35428  0
35261  35428  35073  0
34897  35427  34714  0
35429  34714  35427  0
35261  35262  35430  0
35431  35430  35262  0
35262  35263  35431  0
35432  35431  35263  0
35263  35264  35432  0
34714  35429  35069  0
35433  35069  35429  0
35267  34905  35069  0
35267  35069  35433  0
35434  35264  35078  0
35078  34899  35434  0
35435  35434  34899  0
34899  35079  35435  0
35436  35435  35079  0
35079  35265  35436  0
35269  35266  34904  0
35437  35082  35268  0
35082  35437  35083  0
35438  35083  35437  0
35265  35266  35439  0
35269  35439  35266  0
35269  35081  35440  0
35270  35440  35081  0
35441  35088  35275  0
35442  35441  35275  0
35275  35083  35442  0
35438  35442  35083  0
35443  35440  35270  0
35270  35271  35443  0
35444  35443  35271  0
35271  35085  35444  0
35445  35444  35085  0
35085  35272  35445  0
35272  35273  35445  0
35446  35445  35273  0
35447  35446  35273  0
35273  35274  35447  0
35448  35276  35089  0
35089  35277  35448  0
35449  35448  35277  0
35277  35090  35450  0
35090  35279  35450  0
35451  34739  35093  0
34739  35451  34922  0
34923  34922  35451  0
35279  35281  35452  0
34923  35453  34924  0
35283  34924  35453  0
35281  35282  35452  0
35454  35283  35455  0
35283  35454  35097  0
35456  35097  35454  0
35097  35456  35284  0
35457  35284  35456  0
35285  35286  35458  0
35284  35457  35287  0
35286  35100  35459  0
35286  35459  35458  0
35100  35101  35460  0
35100  35460  35459  0
35101  35288  35461  0
35101  35461  35460  0
35288  35289  35462  0
35288  35462  35461  0
35457  35290  35287  0
35289  35463  35462  0
35290  35464  35292  0
35465  35292  35464  0
35289  35291  35463  0
35292  35465  35112  0
35466  35112  35465  0
35291  35293  35467  0
35293  35294  35468  0
35293  35468  35467  0
35294  35295  35469  0
35294  35469  35468  0
35295  35112  35466  0
35295  35466  35469  0
35470  35119  35296  0
35470  35298  35119  0
35117  35471  35296  0
35470  35296  35471  0
35117  35297  35472  0
35117  35472  35471  0
35297  35123  35473  0
35122  35298  35300  0
35473  35299  35474  0
35299  35302  35475  0
35299  35475  35474  0
35299  35473  35123  0
35300  35476  35303  0
35477  35303  35476  0
35125  34773  35304  0
35125  35304  35301  0
35478  35126  35301  0
35126  35478  35127  0
35475  35302  35127  0
35133  35303  35477  0
35133  35477  35306  0
35479  35306  35477  0
35304  35305  35480  0
35304  35480  35481  0
35304  35481  35301  0
35306  35479  35307  0
35305  34962  35309  0
35305  35309  35482  0
35305  35482  35480  0
35483  35307  35479  0
35309  35484  35482  0
35307  35483  35308  0
35485  35308  35483  0
35309  35135  35484  0
35484  35135  35486  0
35487  35308  35485  0
35135  35310  35486  0
35308  35487  35311  0
35311  35143  35137  0
35488  35311  35487  0
35311  35488  35143  0
35489  35143  35488  0
35490  35138  35491  0
35490  35491  35492  0
35492  35491  35493  0
35492  35493  35139  0
35139  35493  35312  0
35139  35312  35140  0
34965  35142  35310  0
35143  35489  35313  0
35494  35313  35489  0
35313  35494  35315  0
35313  35315  35146  0
35495  35315  35494  0
35138  34969  35316  0
35138  35316  35491  0
35493  35491  35496  0
35493  35496  35312  0
35312  35496  35497  0
35312  35497  35314  0
35142  35498  35310  0
35316  35151  35325  0
35316  35325  35491  0
35491  35325  35499  0
35491  35499  35496  0
35496  35499  35500  0
35496  35500  35497  0
35314  35497  35501  0
35314  35501  35317  0
35317  35502  35318  0
35503  35318  35502  0
35317  35501  35504  0
35317  35504  35502  0
35318  35503  35154  0
35505  35154  35503  0
35154  35505  35319  0
34973  35319  35142  0
35323  35315  35495  0
35325  35158  35329  0
35325  35329  35499  0
35499  35506  35500  0
35507  35500  35506  0
35499  35329  35508  0
35499  35508  35506  0
35500  35507  35497  0
35501  35497  35507  0
35322  35321  35326  0
35164  35327  35328  0
35329  35166  35509  0
35329  35509  35508  0
35167  35168  35510  0
35167  35510  35511  0
35327  35330  35512  0
35327  35512  35328  0
35328  35512  35176  0
35166  35173  35513  0
35166  35513  35509  0
35174  35167  35511  0
35330  35331  35512  0
35512  35183  35176  0
35173  35178  35513  0
35175  35332  35331  0
35331  35332  35184  0
35331  35184  35512  0
35512  35184  35183  0
35175  35182  35332  0
35333  35514  35178  0
35181  35179  35515  0
35181  35515  35185  0
35185  35515  35188  0
35334  34831  35516  0
35334  35516  35517  0
35188  35515  35335  0
35516  34831  35186  0
35516  35186  35337  0
35516  35337  35517  0
35336  35335  35518  0
35199  35519  35337  0
35199  35338  35519  0
35204  35520  35338  0
35204  35203  35521  0
35204  35521  35520  0
35336  35518  35339  0
35203  35340  35521  0
35522  35521  35340  0
35339  35523  35202  0
35205  35202  35523  0
35340  35342  35522  0
35523  35524  35205  0
35205  35524  35525  0
35205  35525  35343  0
35343  35525  35526  0
35343  35526  35344  0
35344  35527  35345  0
35346  35528  35347  0
35219  35347  35529  0
35347  35528  35529  0
35529  35530  35219  0
35354  35219  35530  0
35224  35354  35530  0
35530  35355  35224  0
35530  35531  35355  0
35355  35531  35532  0
35349  35348  35533  0
35345  35534  35215  0
35215  35535  35350  0
35215  35534  35535  0
35351  35352  35536  0
35537  35352  35353  0
35353  35538  35537  0
35539  35537  35538  0
35355  35532  35225  0
35225  35532  35540  0
35357  35533  35348  0
35541  35542  35543  0
35543  35544  35541  0
35350  35535  35545  0
35546  35545  35535  0
35350  35545  35356  0
35547  35538  35353  0
35538  35547  35548  0
35549  35548  35547  0
35538  35548  35539  0
35548  35549  35550  0
35551  35550  35549  0
35552  35548  35550  0
35550  35551  35552  0
35553  35552  35551  0
35551  35554  35553  0
35555  35553  35554  0
35554  35362  35367  0
35364  35367  35362  0
35554  35367  35555  0
35556  35555  35367  0
35557  35556  35367  0
35558  35557  35367  0
35225  35540  35040  0
35543  35383  35544  0
35559  35544  35383  0
35560  35544  35559  0
35544  35560  35561  0
35226  35359  35360  0
35562  35360  35359  0
35359  35356  35563  0
35545  35563  35356  0
35359  35563  35564  0
35359  35564  35562  0
35353  35361  35547  0
35565  35547  35361  0
35547  35565  35549  0
35549  35565  35551  0
35378  35551  35565  0
35551  35378  35554  0
35362  35554  35378  0
35367  35366  35558  0
35566  35558  35366  0
35040  35540  35228  0
35228  35567  34871  0
34871  35567  35368  0
35041  35368  35357  0
35568  35559  35383  0
35559  35568  35560  0
35569  35560  35568  0
35570  35370  35360  0
35360  35562  35570  0
35361  35371  35565  0
35565  35571  35378  0
35366  35380  35566  0
35383  35382  35568  0
35237  35568  35382  0
35385  35568  35237  0
35568  35385  35569  0
35384  35569  35385  0
35572  35373  35374  0
35374  35369  35573  0
35374  35573  35574  0
35374  35574  35572  0
35369  35370  35573  0
35570  35573  35370  0
35371  35575  35565  0
35371  35375  35575  0
35576  35575  35375  0
35565  35575  35577  0
35565  35577  35571  0
35578  35566  35380  0
35579  35578  35380  0
35572  35384  35372  0
35372  35373  35572  0
35387  35580  35375  0
35580  35576  35375  0
35378  35571  35581  0
35378  35581  35376  0
35380  35388  35579  0
35388  35392  35579  0
35580  35387  35394  0
35580  35394  35582  0
35376  35581  35583  0
35376  35583  35377  0
35584  35392  35393  0
35398  35584  35393  0
35585  35582  35394  0
35394  35395  35585  0
35377  35583  35389  0
35586  35389  35583  0
35587  35398  35399  0
35399  35401  35587  0
35588  35587  35401  0
35401  35403  35588  0
35589  35585  35395  0
35240  35589  35395  0
35396  35389  35586  0
35404  35244  35405  0
35410  35405  35244  0
35405  35410  35406  0
35407  35406  35410  0
35590  35241  35407  0
35585  35589  35591  0
35592  35591  35589  0
35589  35240  35592  0
35413  35592  35240  0
35593  35396  35586  0
35415  35396  35593  0
35594  35403  35402  0
35403  35594  35595  0
35420  35410  35247  0
35410  35420  35596  0
35241  35590  35245  0
35411  35245  35590  0
35411  35423  35246  0
35059  35246  35423  0
35414  35592  35413  0
35597  35598  35592  0
35586  35599  35593  0
35402  35419  35594  0
35420  35421  35596  0
35421  35422  35600  0
35421  35600  35596  0
35422  35423  35600  0
35592  35414  35597  0
35414  35424  35601  0
35414  35601  35597  0
35593  35602  35415  0
35603  35415  35602  0
35415  35603  35416  0
35416  35603  35604  0
35416  35604  35417  0
35417  35604  35605  0
35417  35605  35418  0
35418  35606  35419  0
35594  35419  35607  0
35254  35425  35424  0
35604  35608  35605  0
35609  35605  35608  0
35605  35609  35418  0
35606  35418  35609  0
35427  35253  35243  0
35425  35426  35428  0
35425  35428  35610  0
35425  35610  35611  0
35425  35611  35424  0
35610  35428  35612  0
35610  35612  35611  0
35606  35613  35419  0
35607  35419  35613  0
35428  35261  35430  0
35428  35430  35614  0
35428  35614  35615  0
35428  35615  35612  0
35614  35430  35431  0
35614  35431  35616  0
35614  35616  35617  0
35614  35617  35615  0
35431  35432  35616  0
35432  35264  35434  0
35432  35434  35618  0
35432  35618  35619  0
35432  35619  35616  0
35429  35620  35433  0
35621  35267  35433  0
35267  35621  35268  0
35621  35437  35268  0
35435  35622  35434  0
35436  35265  35439  0
35436  35439  35623  0
35436  35623  35435  0
35269  35440  35624  0
35269  35624  35439  0
35088  35441  34919  0
35440  35625  35624  0
35440  35443  35626  0
35440  35626  35625  0
35443  35444  35627  0
35443  35627  35626  0
35445  35628  35444  0
35445  35446  35628  0
35274  35276  35447  0
35627  35444  35629  0
35444  35628  35630  0
35444  35630  35629  0
35277  35450  35449  0
35631  34923  35451  0
35450  35279  35632  0
34923  35631  35453  0
35455  35453  35631  0
35453  35455  35283  0
35454  35455  35633  0
35632  35279  35452  0
35456  35634  35457  0
35635  35457  35634  0
35282  35285  35636  0
35282  35636  35452  0
35285  35458  35636  0
35457  35635  35290  0
35464  35290  35635  0
35458  35459  35637  0
35461  35462  35638  0
35461  35638  35460  0
35464  35639  35465  0
35640  35465  35639  0
35463  35291  35467  0
35463  35467  35641  0
35463  35641  35462  0
35467  35642  35641  0
35465  35640  35466  0
35643  35466  35640  0
35467  35468  35644  0
35467  35644  35642  0
35468  35469  35645  0
35468  35645  35646  0
35468  35646  35644  0
35469  35466  35647  0
35469  35647  35645  0
35466  35643  35647  0
35645  35647  35646  0
35471  35472  35648  0
35471  35648  35470  0
35473  35649  35297  0
35650  35297  35649  0
35473  35651  35649  0
35297  35650  35472  0
35648  35472  35650  0
35652  35476  35300  0
35652  35653  35476  0
35652  35300  35298  0
35478  35475  35127  0
35478  35654  35475  0
35655  35475  35654  0
35475  35655  35474  0
35651  35474  35655  0
35474  35651  35473  0
35656  35477  35476  0
35656  35476  35653  0
35657  35477  35656  0
35301  35481  35478  0
35478  35481  35654  0
35477  35657  35658  0
35477  35658  35479  0
35481  35480  35659  0
35481  35659  35660  0
35481  35660  35654  0
35480  35482  35661  0
35480  35661  35659  0
35482  35484  35661  0
35661  35484  35662  0
35484  35486  35662  0
35485  35483  35663  0
35485  35663  35664  0
35485  35664  35487  0
35487  35664  35665  0
35487  35665  35488  0
35488  35665  35489  0
35489  35666  35494  0
35494  35666  35667  0
35494  35667  35495  0
35498  35142  35319  0
35498  35319  35668  0
35495  35667  35669  0
35502  35504  35670  0
35502  35670  35503  0
35503  35671  35505  0
35503  35670  35672  0
35503  35672  35671  0
35505  35671  35673  0
35505  35673  35319  0
35321  35320  35674  0
35321  35674  35675  0
35320  35323  35676  0
35320  35676  35674  0
35323  35495  35669  0
35323  35669  35676  0
35506  35508  35677  0
35506  35677  35507  0
35507  35677  35678  0
35507  35678  35501  0
35501  35678  35679  0
35501  35679  35504  0
35504  35679  35670  0
35670  35680  35672  0
35168  35326  35681  0
35168  35681  35510  0
35326  35321  35675  0
35326  35675  35681  0
35508  35509  35677  0
35682  35677  35509  0
35677  35682  35678  0
35683  35678  35682  0
35678  35683  35679  0
35679  35680  35670  0
35679  35683  35680  0
35509  35684  35685  0
35509  35685  35682  0
35509  35513  35684  0
35682  35685  35686  0
35682  35686  35683  0
35511  35687  35174  0
35687  35179  35174  0
35513  35178  35514  0
35513  35514  35688  0
35333  35688  35514  0
35334  35689  35688  0
35688  35333  35334  0
35334  35517  35690  0
35334  35690  35689  0
35335  35515  35691  0
35690  35517  35692  0
35337  35692  35517  0
35335  35691  35518  0
35519  35693  35692  0
35692  35693  35694  0
35695  35694  35693  0
35692  35337  35519  0
35696  35697  35695  0
35696  35695  35520  0
35698  35697  35696  0
35338  35520  35693  0
35520  35695  35693  0
35693  35519  35338  0
35696  35520  35521  0
35696  35521  35698  0
35699  35698  35521  0
35700  35701  35702  0
35700  35702  35703  0
35700  35703  35704  0
35522  35699  35521  0
35339  35705  35523  0
35346  35341  35706  0
35706  35700  35346  0
35528  35346  35700  0
35700  35704  35528  0
35529  35528  35704  0
35530  35529  35704  0
35704  35531  35530  0
35704  35703  35707  0
35704  35707  35531  0
35531  35707  35708  0
35522  35342  35709  0
35342  35349  35709  0
35710  35709  35349  0
35349  35533  35710  0
35526  35711  35344  0
35344  35711  35527  0
35527  35534  35345  0
35527  35712  35534  0
35535  35534  35712  0
35531  35708  35532  0
35532  35708  35713  0
35714  35710  35533  0
35715  35542  35541  0
35541  35544  35716  0
35561  35716  35544  0
35541  35716  35717  0
35718  35716  35561  0
35719  35717  35716  0
35716  35718  35719  0
35535  35712  35546  0
35548  35537  35539  0
35720  35352  35537  0
35537  35548  35721  0
35552  35721  35548  0
35537  35721  35720  0
35722  35720  35721  0
35721  35552  35723  0
35553  35723  35552  0
35721  35723  35722  0
35723  35553  35724  0
35555  35724  35553  0
35725  35723  35724  0
35724  35555  35726  0
35556  35726  35555  0
