#!ascii file
29228  29021  29226  0
29229  29021  29228  0
29222  28818  29022  0
29021  29229  28822  0
29022  29230  29222  0
29024  29023  29231  0
28817  29232  29233  0
28817  29233  29020  0
28826  28822  29229  0
29230  29022  28821  0
29230  28821  29234  0
29024  29235  28824  0
29232  28817  28825  0
29234  28821  29025  0
29234  29025  29236  0
29237  28824  29235  0
29026  29232  28825  0
28827  28826  29238  0
29238  29239  28827  0
28824  29237  29028  0
29240  29028  29237  0
29236  29025  29241  0
29236  29241  29242  0
29027  29028  29240  0
28827  29239  29029  0
29030  29241  29025  0
29038  29242  29241  0
29031  29027  29240  0
29243  29029  29239  0
29241  29030  29038  0
29244  28831  29032  0
28831  29244  29033  0
29033  29245  29036  0
29040  29246  28828  0
29043  29032  28841  0
29032  29043  29244  0
29247  29244  29043  0
29037  29248  29039  0
29039  29248  29045  0
29249  29045  29248  0
29029  29243  28839  0
29031  29250  29042  0
29251  29042  29250  0
29043  29044  29247  0
29045  29249  29048  0
29051  28839  29243  0
29041  28844  29252  0
29253  29252  28844  0
29254  29044  29046  0
29048  29249  29049  0
28844  29052  29253  0
29255  29253  29052  0
29046  29054  29254  0
29256  29254  29054  0
29257  29055  29049  0
29258  29057  29051  0
28853  29058  29052  0
29259  29052  29058  0
29255  29052  29259  0
29042  29251  29059  0
29260  29059  29251  0
29061  29055  29257  0
29057  29258  28852  0
29261  28852  29258  0
28852  29261  29058  0
29262  29058  29261  0
29058  29262  29259  0
29054  29060  29263  0
29054  29263  29256  0
29264  29256  29263  0
29265  29061  29257  0
28858  29061  29265  0
29059  29260  29065  0
29266  29065  29260  0
29267  29065  29266  0
29063  29067  29060  0
29060  29067  29263  0
29268  29263  29067  0
29263  29268  29264  0
29068  28858  29265  0
29269  29070  29270  0
29070  29071  29270  0
29070  29269  29072  0
29271  29073  29072  0
29272  29073  29271  0
29073  29272  29074  0
29273  29074  29272  0
29274  29066  29074  0
29066  29274  29067  0
29275  29067  29274  0
29276  29067  29275  0
29067  29276  29268  0
29068  29277  29075  0
29065  29267  29078  0
28691  29081  29080  0
29278  29074  29273  0
29074  29278  29274  0
29075  29277  29279  0
29075  29279  29076  0
29078  29267  29280  0
29078  29280  29079  0
29079  29280  29281  0
29079  29281  29082  0
29282  29081  28868  0
29082  29283  29084  0
28868  29085  29282  0
29085  29086  29284  0
29085  29284  29282  0
29084  29283  29285  0
29084  29285  29089  0
29286  29284  29086  0
29086  29083  29286  0
29083  29087  29286  0
29287  29286  29087  0
29087  29288  29287  0
29087  28875  29288  0
29289  29288  28875  0
28875  29090  29289  0
29290  28879  28877  0
29088  28878  29291  0
29089  29291  28878  0
29292  29287  29288  0
29288  29289  29292  0
29293  29292  29289  0
29090  29294  29289  0
29090  28881  29294  0
28880  29295  28883  0
29294  29296  29289  0
28881  29091  29294  0
29297  28883  29295  0
29091  29298  29294  0
28883  29299  28885  0
28883  29297  29299  0
29298  29091  29300  0
29091  28884  29092  0
29091  29092  29300  0
29299  29093  28885  0
29092  29094  29300  0
29093  28707  28887  0
28889  28707  29301  0
28889  29301  29095  0
29096  29095  29097  0
29302  29303  29304  0
29302  29305  29306  0
29302  29304  29307  0
29302  29307  29305  0
28888  28890  29308  0
28888  29308  29094  0
28892  29098  29309  0
28892  29309  28891  0
29304  29303  29106  0
29304  29106  29310  0
29304  29310  29311  0
29304  29311  29307  0
29303  29302  29306  0
28890  28893  29312  0
28890  29312  29308  0
28891  29309  28895  0
29310  29106  29105  0
29310  29105  29313  0
29310  29313  29311  0
29303  29111  29106  0
29107  29314  29312  0
29107  29312  28893  0
29100  29104  29315  0
29100  29315  29105  0
29105  29316  29313  0
29106  29111  28903  0
29112  29107  28896  0
29112  29314  29107  0
28897  29099  29113  0
29099  29317  29113  0
29315  29316  29105  0
29111  29318  29110  0
29318  29319  29110  0
29319  29320  29119  0
29319  29119  29110  0
29320  29112  28717  0
29320  28717  29119  0
29113  29317  29114  0
29118  29117  29321  0
29118  29321  29322  0
29118  29322  29323  0
29118  29323  29104  0
29104  29323  29315  0
29315  29323  29324  0
28899  29114  29325  0
29326  29117  29327  0
29326  29327  29328  0
29326  29329  29321  0
29326  29321  29117  0
29326  29328  29330  0
29326  29330  29329  0
29117  29116  29327  0
28899  29325  28907  0
29328  29327  29331  0
29327  29116  29332  0
29327  29332  29331  0
29116  29120  29332  0
28907  29333  28721  0
28721  29333  29121  0
29121  29333  29334  0
29121  29334  28722  0
29328  29331  29335  0
29331  29332  29336  0
29331  29336  29335  0
29332  29120  29122  0
29332  29122  29337  0
29332  29337  29336  0
29123  28722  29334  0
29123  29334  29338  0
29122  29124  29339  0
29122  29339  29337  0
29124  29126  29339  0
29126  29340  29339  0
29126  29125  29341  0
29126  29341  29340  0
29125  29342  29341  0
29125  29128  29342  0
29129  29130  29343  0
29129  29343  29344  0
28914  29345  29130  0
28914  28528  29131  0
28914  29131  29345  0
29123  29338  29134  0
29127  29132  29346  0
29127  29346  29128  0
29346  29132  29347  0
29346  29347  29348  0
29133  29129  29344  0
29133  29344  29349  0
29350  29133  29349  0
29132  29135  29347  0
29347  29351  29348  0
29351  29352  29348  0
29350  29137  29136  0
29350  29352  29137  0
29136  29133  29350  0
29347  29135  29138  0
29347  29138  29139  0
29347  29139  29351  0
29351  29139  29352  0
29352  29139  29137  0
28923  28742  29353  0
29143  28115  29140  0
28742  29141  29353  0
29354  28935  29143  0
28936  29355  29142  0
29356  29355  28936  0
28935  29354  29145  0
28936  28937  29356  0
28937  29146  29356  0
29357  29356  29146  0
29146  29147  29357  0
29144  29358  28938  0
28938  29358  28752  0
29150  28752  29358  0
29359  29147  29149  0
28753  29149  29147  0
29360  29147  29359  0
29361  29359  29149  0
29149  29148  29361  0
29362  29361  29148  0
29363  29362  29148  0
29148  28943  29363  0
29364  29363  28943  0
28943  28942  29364  0
29152  29364  28942  0
29152  28946  29153  0
28941  29365  28945  0
29153  28949  29366  0
29367  29366  28949  0
28947  28945  29155  0
29365  29155  28945  0
28949  29154  29367  0
29154  28953  29157  0
29155  29368  29156  0
28952  29156  29158  0
29369  29158  29156  0
29158  29369  28955  0
29370  28955  29369  0
28956  29159  29371  0
29372  29166  28968  0
28968  29160  29372  0
29373  29372  29160  0
29160  29161  29373  0
29374  29373  29161  0
29161  29162  29374  0
29375  28960  29163  0
28955  29370  28969  0
29376  28969  29370  0
29168  29159  28964  0
29159  29168  29377  0
29378  29375  29163  0
29163  29167  29378  0
29379  28969  29380  0
28969  29379  28971  0
28978  28971  29379  0
29168  29169  29381  0
29382  29381  29169  0
29168  29381  29377  0
29383  29377  29381  0
29381  29382  29383  0
29174  29383  29382  0
28975  29164  29172  0
29384  29172  29164  0
29164  29165  29384  0
29169  28979  29382  0
29382  28979  29174  0
29385  29174  29171  0
29171  29172  29385  0
29386  29385  29172  0
29172  29384  29386  0
29387  29388  29389  0
29388  29390  29389  0
29391  29389  29390  0
29392  29387  29389  0
29393  29392  29389  0
29389  29391  29393  0
29394  29393  29391  0
29392  29393  29395  0
29396  29395  29393  0
29393  29394  29396  0
29397  29396  29394  0
29394  29398  29397  0
29178  29399  28784  0
29179  28784  29399  0
29400  28984  28983  0
29401  28983  28985  0
28984  29400  29178  0
29178  29400  29399  0
29180  29179  29402  0
29180  29402  29403  0
29180  29403  29181  0
29181  29403  29404  0
29181  29404  28987  0
28987  29404  28988  0
28988  29404  29182  0
29405  28985  29183  0
29182  29187  28788  0
29182  29406  29187  0
29407  29183  28989  0
28989  29184  29407  0
28990  29186  28791  0
29186  28990  29408  0
28990  29188  29409  0
28990  29409  29408  0
29409  29188  29410  0
29188  28991  29191  0
29188  29191  29411  0
29188  29411  29410  0
28993  29412  29413  0
28993  29413  29414  0
28993  29414  28994  0
28994  29414  29192  0
29192  29414  29415  0
29415  29416  29192  0
29195  29199  29417  0
29200  29201  29418  0
29200  29418  29419  0
29201  29196  29418  0
29202  29001  29204  0
29417  29199  29006  0
29417  29006  29203  0
29417  29203  29420  0
29203  29200  29421  0
29203  29421  29420  0
29200  29419  29421  0
29205  29422  29423  0
29422  29424  29423  0
29010  29209  29425  0
29010  29425  29208  0
29208  29425  29206  0
29214  29426  29209  0
29209  29426  29425  0
29425  29217  29206  0
29425  29426  29427  0
29215  29213  29019  0
29215  29019  29428  0
29215  29428  29429  0
29215  29429  29214  0
29217  29218  29210  0
29428  29430  29429  0
29217  29431  29218  0
29218  29431  29220  0
29218  29220  29219  0
29432  29224  29433  0
29432  29433  29434  0
29428  29019  29222  0
29428  29222  29435  0
29428  29435  29430  0
29431  29436  29220  0
29220  29436  29223  0
29223  29433  29224  0
29225  29437  29226  0
29228  29226  29438  0
29228  29438  29229  0
29222  29230  29439  0
29222  29439  29435  0
29227  29020  29440  0
29024  29231  29235  0
29231  29441  29235  0
29020  29233  29440  0
29229  29442  29238  0
29229  29238  28826  0
29442  29443  29238  0
29230  29234  29236  0
29230  29236  29444  0
29230  29444  29439  0
29233  29232  29445  0
29238  29446  29239  0
29238  29443  29446  0
29236  29242  29444  0
29026  28828  29447  0
29242  29038  29448  0
29242  29448  29449  0
29242  29449  29444  0
29250  29240  29450  0
28828  29246  29447  0
29239  29451  29243  0
29452  29243  29451  0
29240  29250  29031  0
29453  29037  29036  0
29246  29040  29454  0
29038  29041  29448  0
29252  29448  29041  0
29448  29252  29449  0
29455  29449  29252  0
29244  29456  29033  0
29037  29453  29248  0
29457  29247  29044  0
29248  29458  29249  0
29459  29249  29458  0
29460  29454  29040  0
29243  29452  29051  0
29461  29051  29452  0
29252  29253  29455  0
29250  29462  29463  0
29044  29254  29457  0
29464  29457  29254  0
29040  29050  29460  0
29258  29051  29461  0
29260  29251  29250  0
29250  29463  29260  0
29465  29463  29462  0
29254  29256  29464  0
29249  29466  29049  0
29056  29460  29050  0
29460  29056  29467  0
29468  29255  29259  0
29469  29463  29465  0
29470  29464  29256  0
29049  29466  29257  0
29056  29062  29467  0
29471  29467  29062  0
29472  29261  29258  0
29473  29259  29262  0
29468  29259  29473  0
29266  29260  29463  0
29463  29469  29266  0
29256  29264  29470  0
29257  29474  29265  0
29475  29265  29474  0
29062  29064  29471  0
29476  29471  29064  0
29477  29267  29266  0
29266  29469  29477  0
29265  29475  29068  0
29478  29068  29475  0
29064  29069  29476  0
29479  29476  29069  0
29480  29269  29270  0
29481  29270  29071  0
29072  29269  29480  0
29482  29264  29268  0
29264  29482  29470  0
29483  29470  29482  0
29068  29478  29277  0
29076  29279  29077  0
29077  29279  29069  0
29479  29069  29279  0
29484  29267  29477  0
29267  29484  29280  0
29481  29071  29080  0
29273  29272  29485  0
29274  29278  29275  0
29486  29279  29277  0
29487  29082  29281  0
29488  29281  29280  0
29281  29488  29487  0
29489  29275  29278  0
29275  29489  29276  0
29490  29276  29489  0
29276  29490  29268  0
29491  29268  29490  0
29268  29491  29482  0
29492  29483  29482  0
29082  29487  29283  0
29493  29283  29487  0
29491  29492  29482  0
29283  29493  29285  0
29494  29285  29493  0
29495  29284  29286  0
29286  29287  29495  0
29489  29496  29497  0
29489  29497  29490  0
29490  29497  29498  0
29490  29498  29491  0
29499  29290  28877  0
28877  29088  29499  0
29500  29499  29088  0
29088  29291  29500  0
29501  29495  29287  0
29287  29292  29501  0
28879  29502  28880  0
28880  29502  29295  0
29292  29293  29503  0
29293  29289  29504  0
29293  29504  29503  0
29296  29504  29289  0
29504  29296  29505  0
29298  29296  29294  0
29297  29295  29506  0
29297  29506  29299  0
29507  29298  29300  0
29508  29507  29300  0
29093  29299  29509  0
29300  29094  29508  0
29093  29509  28707  0
28707  29509  29510  0
28707  29510  29301  0
29305  29511  29306  0
29305  29307  29512  0
29306  29511  29513  0
29301  29514  29095  0
29095  29514  29097  0
29097  29514  29515  0
29097  29515  29098  0
29098  29515  29309  0
29307  29311  29512  0
29306  29516  29303  0
29306  29513  29516  0
29309  29517  28895  0
29311  29313  29518  0
29311  29518  29519  0
29303  29516  29111  0
29516  29520  29111  0
29516  29521  29520  0
29314  29112  29522  0
28895  29517  29523  0
28895  29523  28894  0
29313  29316  29524  0
29313  29524  29518  0
29111  29520  29318  0
29520  29319  29318  0
29319  29520  29525  0
29525  29320  29319  0
29525  29522  29320  0
29522  29112  29320  0
29099  28894  29523  0
29099  29523  29526  0
29099  29526  29317  0
29317  29526  29527  0
29317  29527  29114  0
29323  29322  29324  0
29315  29324  29316  0
29321  29329  29528  0
29321  29528  29322  0
29322  29528  29529  0
29322  29529  29324  0
29114  29530  29325  0
29325  29530  29531  0
29325  29531  28907  0
28907  29531  29532  0
28907  29532  29333  0
29333  29533  29334  0
29328  29335  29330  0
29336  29337  29534  0
29336  29534  29335  0
29534  29337  29339  0
29534  29339  29340  0
29534  29340  29535  0
29340  29536  29535  0
29340  29341  29536  0
29338  29334  29537  0
29334  29533  29537  0
29341  29342  29538  0
29341  29538  29539  0
29342  29540  29538  0
29342  29128  29346  0
29342  29346  29541  0
29342  29541  29542  0
29342  29542  29540  0
29541  29346  29348  0
29344  29343  29543  0
29343  29544  29543  0
29343  29130  29545  0
29343  29545  29544  0
29130  29345  29545  0
29348  29352  29546  0
29348  29546  29541  0
29547  29352  29350  0
29547  29546  29352  0
29350  29349  29547  0
29131  28916  29548  0
28916  28923  29549  0
28916  29549  29548  0
28923  29353  29549  0
29549  29353  29141  0
29355  29356  29550  0
29355  29550  29142  0
29551  29357  29360  0
29552  29357  29551  0
29551  29360  29553  0
29357  29552  29356  0
29360  29359  29554  0
29360  29554  29553  0
29360  29357  29147  0
29359  29361  29554  0
29361  29362  29554  0
29150  29555  29151  0
29362  29363  29556  0
28941  29151  29555  0
29363  29364  29557  0
29363  29557  29556  0
29364  29152  29558  0
29364  29558  29557  0
29559  29365  28941  0
29152  29153  29560  0
29152  29560  29558  0
29153  29366  29561  0
29153  29561  29560  0
29366  29367  29562  0
29367  29154  29563  0
29564  29155  29365  0
29157  29563  29154  0
29563  29157  29565  0
29155  29566  29368  0
29567  29565  29157  0
29568  29368  29566  0
29157  28956  29567  0
29156  29368  29369  0
29569  29369  29368  0
29368  29568  29569  0
29570  29569  29568  0
29371  29567  28956  0
29377  29371  29159  0
29371  29377  29571  0
29373  29166  29372  0
29373  29374  29572  0
29573  29162  28962  0
28962  28960  29573  0
29574  29573  28960  0
28960  29375  29574  0
29377  29383  29571  0
29575  29571  29383  0
29576  29165  29166  0
29166  29373  29576  0
29577  29576  29373  0
29572  29577  29373  0
29375  29378  29574  0
29578  29574  29378  0
29383  29174  29575  0
29385  29575  29174  0
29579  29384  29165  0
29165  29576  29579  0
29580  29579  29576  0
29581  29384  29579  0
29385  29386  29582  0
29583  29386  29384  0
29384  29581  29583  0
29584  29583  29581  0
29585  29584  29581  0
29581  29586  29585  0
29386  29583  29587  0
29588  29587  29583  0
29583  29584  29589  0
29583  29589  29588  0
29585  29586  29590  0
29591  29590  29586  0
29388  29589  29584  0
29592  29588  29589  0
29584  29585  29388  0
29390  29388  29585  0
29585  29590  29390  0
29391  29390  29590  0
29590  29591  29391  0
29593  29391  29591  0
29589  29388  29387  0
29589  29387  29592  0
29391  29593  29394  0
29594  29394  29593  0
29387  29392  29592  0
29595  29592  29392  0
29394  29594  29398  0
29596  29398  29594  0
29392  29395  29595  0
29597  29595  29395  0
29398  29596  29397  0
29598  29599  29600  0
29601  29600  29599  0
29602  29600  29603  0
29600  29601  29603  0
29604  29602  29603  0
29605  29603  29601  0
29603  29605  29604  0
29606  29604  29605  0
29395  29396  29597  0
29607  29597  29396  0
29396  29397  29607  0
28983  29401  29400  0
29400  29608  29399  0
29609  29399  29608  0
29399  29609  29179  0
29179  29609  29402  0
29598  29600  29610  0
29611  29610  29600  0
29600  29602  29611  0
29602  29604  29611  0
29606  29611  29604  0
29612  29400  29401  0
29613  29401  28985  0
29400  29612  29608  0
29608  29614  29609  0
29615  29402  29609  0
29402  29615  29403  0
29616  29403  29615  0
29403  29616  29404  0
29182  29404  29617  0
29404  29616  29617  0
29610  29611  29618  0
28985  29405  29613  0
29617  29406  29182  0
29617  29619  29406  0
29407  29405  29183  0
29620  29405  29407  0
29621  29620  29407  0
29407  29184  29621  0
29184  29185  29621  0
29622  29621  29185  0
29185  29186  29622  0
29408  29622  29186  0
29415  29414  29623  0
29415  29623  29416  0
29416  29623  29624  0
29625  29626  29627  0
29628  29629  29626  0
29630  29631  29629  0
29426  29214  29632  0
29426  29632  29427  0
29633  29214  29429  0
29633  29429  29634  0
29633  29635  29636  0
29633  29636  29214  0
29633  29634  29635  0
29214  29636  29632  0
29427  29637  29217  0
29427  29217  29425  0
29427  29632  29637  0
29434  29638  29631  0
29429  29430  29639  0
29429  29639  29634  0
29217  29637  29640  0
29217  29640  29431  0
29433  29641  29638  0
29433  29638  29434  0
29433  29223  29642  0
29433  29642  29641  0
29430  29435  29643  0
29430  29643  29639  0
29431  29640  29436  0
29436  29642  29223  0
29226  29437  29644  0
29226  29644  29438  0
29435  29645  29643  0
29435  29439  29646  0
29435  29646  29645  0
29441  29647  29648  0
29227  29649  29225  0
29227  29440  29649  0
29438  29442  29229  0
29438  29644  29442  0
29441  29648  29235  0
29440  29233  29650  0
29439  29444  29646  0
29235  29648  29651  0
29235  29651  29237  0
29233  29445  29650  0
29444  29652  29646  0
29237  29651  29240  0
29445  29232  29026  0
29444  29449  29653  0
29444  29653  29654  0
29240  29651  29450  0
29026  29447  29655  0
29026  29655  29445  0
29450  29656  29250  0
29657  29658  29659  0
29660  29659  29658  0
29447  29246  29655  0
29653  29449  29661  0
29250  29656  29462  0
29656  29662  29462  0
29657  29663  29664  0
29657  29659  29663  0
29665  29659  29660  0
29245  29453  29036  0
29246  29454  29666  0
29246  29666  29655  0
29449  29455  29661  0
29661  29455  29667  0
29462  29662  29465  0
29662  29663  29668  0
29662  29668  29465  0
29663  29659  29669  0
29659  29665  29669  0
29244  29247  29456  0
29670  29033  29456  0
29456  29247  29671  0
29033  29670  29245  0
29672  29245  29670  0
29245  29672  29453  0
29673  29453  29672  0
29453  29673  29248  0
29248  29673  29458  0
29460  29666  29454  0
29669  29668  29663  0
29669  29665  29674  0
29669  29674  29675  0
29676  29675  29674  0
29247  29457  29671  0
29455  29253  29667  0
29677  29667  29253  0
29678  29465  29668  0
29668  29669  29678  0
29669  29675  29678  0
29679  29675  29676  0
29680  29457  29464  0
29466  29249  29459  0
29460  29467  29681  0
29253  29255  29677  0
29682  29677  29255  0
29469  29465  29678  0
29683  29469  29678  0
29678  29675  29683  0
29679  29683  29675  0
29684  29680  29464  0
29685  29684  29464  0
29467  29471  29681  0
29258  29686  29472  0
29255  29468  29682  0
29687  29682  29468  0
29688  29469  29683  0
29683  29679  29688  0
29689  29688  29679  0
29464  29470  29685  0
29466  29474  29257  0
29261  29472  29262  0
29687  29468  29473  0
29469  29688  29484  0
29474  29690  29475  0
29691  29475  29690  0
29469  29484  29477  0
29692  29484  29688  0
29688  29689  29692  0
29475  29691  29478  0
29476  29479  29693  0
29694  29693  29479  0
29695  29484  29692  0
29270  29481  29480  0
29696  29072  29480  0
29697  29480  29481  0
29072  29696  29271  0
29485  29271  29696  0
29271  29485  29272  0
29698  29470  29483  0
29699  29277  29478  0
29486  29277  29699  0
29279  29486  29479  0
29694  29479  29486  0
29484  29695  29280  0
29488  29280  29695  0
29700  29080  29081  0
29485  29701  29273  0
29702  29487  29488  0
29081  29282  29700  0
29703  29700  29282  0
29704  29273  29701  0
29273  29704  29278  0
29489  29278  29704  0
29483  29492  29698  0
29705  29698  29492  0
29487  29702  29493  0
29706  29493  29702  0
29702  29707  29706  0
29282  29284  29703  0
29708  29703  29284  0
29704  29709  29489  0
29496  29489  29709  0
29491  29498  29492  0
29710  29492  29498  0
29492  29710  29705  0
29493  29706  29494  0
29284  29495  29708  0
29711  29500  29291  0
29291  29089  29711  0
29089  29285  29711  0
29712  29711  29285  0
29285  29494  29712  0
29494  29706  29712  0
29713  29712  29706  0
29503  29501  29292  0
29498  29497  29710  0
29714  29502  28879  0
28879  29290  29714  0
29505  29503  29504  0
29295  29502  29715  0
29296  29298  29505  0
29299  29506  29716  0
29508  29094  29717  0
29308  29717  29094  0
29299  29716  29509  0
29305  29718  29511  0
29305  29512  29719  0
29305  29719  29718  0
29312  29717  29308  0
29510  29720  29301  0
29301  29720  29514  0
29512  29311  29519  0
29512  29519  29721  0
29512  29721  29719  0
29513  29722  29723  0
29513  29723  29516  0
29516  29723  29521  0
29717  29312  29314  0
29717  29314  29522  0
29720  29510  29724  0
29515  29725  29309  0
29309  29725  29726  0
29309  29726  29517  0
29519  29518  29727  0
29519  29727  29728  0
29519  29728  29721  0
29521  29729  29525  0
29521  29525  29520  0
29729  29522  29525  0
29729  29730  29522  0
29517  29726  29731  0
29517  29731  29523  0
29518  29524  29727  0
29727  29524  29732  0
29523  29731  29733  0
29523  29733  29526  0
29524  29316  29734  0
29524  29734  29732  0
29526  29735  29527  0
29324  29736  29316  0
29316  29736  29734  0
29734  29736  29737  0
29329  29330  29738  0
29329  29738  29528  0
29528  29738  29739  0
29528  29740  29529  0
29528  29739  29740  0
29324  29529  29741  0
29324  29741  29736  0
29114  29742  29530  0
29330  29335  29738  0
29738  29335  29534  0
29738  29534  29739  0
29530  29743  29531  0
29531  29743  29532  0
29333  29532  29744  0
29333  29744  29533  0
29534  29535  29745  0
29534  29745  29739  0
29535  29536  29746  0
29535  29746  29745  0
29536  29341  29539  0
29536  29539  29747  0
29536  29747  29746  0
29537  29748  29749  0
29537  29749  29750  0
29537  29750  29338  0
29537  29533  29744  0
29537  29744  29748  0
29539  29751  29747  0
29539  29538  29752  0
29539  29752  29751  0
29538  29753  29752  0
29538  29540  29754  0
29538  29754  29753  0
29541  29755  29542  0
29543  29349  29344  0
29345  29131  29756  0
29345  29756  29545  0
29338  29750  29134  0
29541  29546  29755  0
29546  29757  29755  0
29546  29547  29757  0
29547  29349  29758  0
29547  29758  29757  0
29131  29548  29756  0
29548  29549  29759  0
29549  29760  29759  0
29760  29549  29141  0
29760  29141  29761  0
29141  29762  29761  0
29143  29140  29763  0
29141  29142  29762  0
29142  29764  29762  0
29550  29764  29142  0
29550  29765  29764  0
29552  29550  29356  0
29552  29765  29550  0
29552  29766  29765  0
29354  29767  29145  0
29551  29766  29552  0
29551  29553  29768  0
29551  29768  29766  0
29553  29554  29769  0
29553  29769  29768  0
29358  29144  29770  0
29358  29770  29771  0
29358  29771  29150  0
29144  29145  29770  0
29554  29772  29769  0
29150  29771  29555  0
29554  29362  29773  0
29554  29773  29772  0
29772  29773  29774  0
29362  29556  29773  0
29773  29556  29775  0
29773  29775  29774  0
29776  28941  29555  0
29556  29557  29777  0
29778  28941  29776  0
29779  29557  29558  0
29779  29558  29780  0
29779  29781  29557  0
29777  29557  29781  0
28941  29778  29559  0
29780  29558  29560  0
29780  29560  29782  0
29780  29782  29779  0
29561  29366  29562  0
29367  29563  29783  0
29367  29783  29562  0
29365  29559  29564  0
29563  29565  29784  0
29563  29784  29783  0
29565  29785  29784  0
29155  29564  29566  0
29565  29567  29785  0
29785  29567  29786  0
29567  29371  29786  0
29371  29571  29787  0
29788  29787  29571  0
29369  29569  29789  0
29369  29789  29790  0
29569  29570  29789  0
29791  29572  29374  0
29374  29162  29791  0
29792  29793  29790  0
29790  29794  29792  0
29795  29788  29571  0
29571  29575  29795  0
29574  29578  29796  0
29797  29796  29578  0
29578  29793  29797  0
29792  29797  29793  0
29575  29385  29798  0
29799  29798  29385  0
29576  29577  29580  0
29582  29799  29385  0
29579  29580  29581  0
29586  29581  29580  0
29800  29586  29580  0
29582  29386  29801  0
29386  29587  29801  0
29802  29801  29587  0
29803  29586  29800  0
29587  29588  29802  0
29804  29802  29588  0
29586  29803  29591  0
29593  29591  29803  0
29592  29804  29588  0
29804  29592  29805  0
29806  29807  29805  0
29805  29592  29806  0
29595  29806  29592  0
29598  29808  29809  0
29809  29599  29598  0
29809  29810  29599  0
29811  29599  29810  0
29599  29811  29601  0
29605  29601  29811  0
29811  29807  29605  0
29812  29605  29807  0
29807  29806  29812  0
29813  29812  29806  0
29806  29595  29813  0
29597  29813  29595  0
29607  29397  29596  0
29808  29598  29814  0
29610  29814  29598  0
29605  29812  29815  0
29816  29815  29812  0
29605  29815  29606  0
29812  29813  29816  0
29817  29816  29813  0
29813  29597  29817  0
29607  29817  29597  0
29808  29814  29818  0
29819  29818  29814  0
29814  29610  29819  0
29618  29819  29610  0
29611  29606  29618  0
29618  29606  29820  0
29821  29820  29606  0
29401  29613  29612  0
29614  29608  29612  0
29614  29822  29609  0
29823  29609  29822  0
29609  29823  29615  0
29405  29612  29613  0
29824  29612  29405  0
29616  29619  29617  0
29405  29620  29824  0
29825  29620  29621  0
29622  29825  29621  0
29622  29408  29826  0
29410  29826  29408  0
29408  29409  29410  0
29413  29827  29414  0
29827  29828  29414  0
29414  29828  29623  0
29624  29623  29829  0
29418  29196  29830  0
29196  29202  29830  0
29831  29830  29202  0
29832  29831  29202  0
29626  29833  29834  0
29626  29834  29627  0
29627  29834  29835  0
29835  29834  29836  0
29626  29837  29833  0
29626  29629  29838  0
29626  29838  29837  0
29836  29839  29840  0
29836  29840  29841  0
29631  29842  29629  0
29635  29843  29844  0
29635  29844  29636  0
29635  29634  29845  0
29635  29845  29843  0
29636  29844  29846  0
29636  29846  29632  0
29632  29846  29847  0
29632  29847  29637  0
29841  29840  29848  0
29634  29639  29845  0
29637  29847  29849  0
29637  29849  29640  0
29640  29642  29436  0
29640  29849  29850  0
29640  29850  29642  0
29642  29850  29641  0
29845  29639  29851  0
29639  29643  29851  0
29647  29848  29648  0
29848  29840  29852  0
29437  29853  29854  0
29437  29225  29649  0
29437  29649  29853  0
29437  29854  29644  0
29644  29854  29855  0
29643  29645  29856  0
29645  29646  29857  0
29645  29857  29858  0
29645  29858  29856  0
29648  29848  29859  0
29848  29852  29859  0
29649  29440  29860  0
29644  29861  29442  0
29644  29855  29861  0
29646  29652  29857  0
29857  29652  29862  0
29859  29852  29863  0
29440  29650  29860  0
29442  29861  29443  0
29648  29859  29864  0
29648  29864  29651  0
29859  29863  29864  0
29443  29865  29446  0
29443  29861  29865  0
29652  29444  29654  0
29652  29654  29862  0
29864  29863  29866  0
29445  29867  29868  0
29445  29868  29650  0
29446  29869  29451  0
29446  29451  29239  0
29446  29865  29869  0
29654  29870  29862  0
29651  29864  29656  0
29651  29656  29450  0
29864  29866  29656  0
29866  29863  29664  0
29664  29871  29657  0
29664  29863  29871  0
29871  29872  29657  0
29872  29658  29657  0
29445  29655  29867  0
29654  29653  29661  0
29654  29661  29870  0
29656  29866  29662  0
29866  29664  29662  0
29658  29873  29660  0
29655  29874  29867  0
29451  29875  29452  0
29655  29666  29874  0
29876  29452  29875  0
29662  29664  29663  0
29665  29877  29674  0
29878  29674  29877  0
29874  29666  29879  0
29874  29879  29880  0
29452  29876  29461  0
29661  29667  29870  0
29670  29456  29881  0
29666  29460  29681  0
29666  29681  29879  0
29667  29677  29882  0
29878  29676  29674  0
29883  29676  29878  0
29671  29884  29456  0
29881  29456  29884  0
29458  29673  29885  0
29886  29879  29681  0
29887  29676  29883  0
29457  29680  29671  0
29461  29888  29258  0
29686  29258  29888  0
29882  29677  29682  0
29676  29887  29679  0
29889  29679  29887  0
29680  29684  29890  0
29459  29891  29466  0
29466  29891  29474  0
29681  29471  29886  0
29892  29886  29471  0
29679  29889  29689  0
29893  29684  29685  0
29690  29474  29891  0
29471  29476  29892  0
29693  29892  29476  0
29894  29262  29472  0
29262  29894  29473  0
29687  29473  29894  0
29689  29889  29692  0
29895  29692  29889  0
29685  29470  29893  0
29691  29896  29478  0
29897  29478  29896  0
29693  29694  29898  0
29899  29898  29694  0
29692  29895  29695  0
29900  29695  29895  0
29480  29697  29696  0
29698  29893  29470  0
29478  29897  29699  0
29901  29699  29897  0
29699  29901  29486  0
29899  29694  29486  0
29695  29902  29488  0
29702  29488  29902  0
29695  29900  29902  0
29707  29702  29902  0
29080  29700  29481  0
29481  29700  29697  0
29903  29697  29700  0
29904  29696  29697  0
29696  29904  29485  0
29905  29485  29904  0
29485  29905  29701  0
29906  29701  29905  0
29907  29908  29698  0
29701  29906  29909  0
29701  29909  29704  0
29698  29705  29907  0
29707  29910  29706  0
29911  29703  29708  0
29912  29909  29906  0
29704  29909  29709  0
29913  29907  29705  0
29914  29915  29916  0
29917  29916  29915  0
29916  29917  29918  0
29706  29910  29713  0
29919  29911  29708  0
29708  29495  29919  0
29920  29705  29710  0
29705  29920  29913  0
29914  29921  29915  0
29922  29918  29917  0
29290  29499  29714  0
29495  29501  29919  0
29923  29919  29501  0
29501  29503  29923  0
29709  29924  29496  0
29709  29925  29924  0
29926  29496  29924  0
29496  29926  29497  0
29927  29497  29926  0
29497  29927  29710  0
29928  29710  29927  0
29710  29928  29920  0
29915  29921  29929  0
29915  29929  29930  0
29931  29915  29930  0
29915  29931  29917  0
29932  29917  29931  0
29917  29932  29933  0
29917  29933  29922  0
29934  29922  29933  0
29714  29499  29935  0
29936  29923  29503  0
29924  29925  29937  0
29938  29933  29932  0
29502  29714  29715  0
29503  29505  29936  0
29927  29926  29928  0
29930  29939  29931  0
29930  29940  29939  0
29941  29931  29939  0
29931  29941  29932  0
29932  29941  29938  0
29942  29938  29941  0
29943  29933  29938  0
29944  29943  29938  0
29507  29945  29505  0
29505  29298  29507  0
29941  29939  29946  0
29942  29944  29938  0
29295  29715  29947  0
29295  29947  29506  0
29508  29945  29507  0
29941  29948  29942  0
29508  29717  29949  0
29716  29506  29950  0
29718  29951  29511  0
29718  29719  29951  0
29717  29952  29949  0
29509  29716  29510  0
29513  29511  29722  0
29952  29717  29522  0
29952  29522  29730  0
29510  29953  29724  0
29720  29724  29514  0
29514  29954  29515  0
29721  29728  29955  0
29521  29723  29956  0
29521  29956  29729  0
29729  29956  29730  0
29726  29725  29957  0
29726  29957  29731  0
29727  29732  29958  0
29727  29958  29728  0
29526  29733  29735  0
29735  29114  29527  0
29736  29959  29737  0
29736  29741  29959  0
29114  29735  29742  0
29739  29745  29740  0
29740  29745  29960  0
29530  29742  29961  0
29530  29961  29743  0
29743  29961  29962  0
29743  29749  29532  0
29532  29749  29748  0
29532  29748  29744  0
29745  29746  29960  0
29746  29747  29960  0
29743  29962  29963  0
29743  29963  29749  0
29749  29963  29964  0
29749  29964  29750  0
29960  29747  29965  0
29747  29751  29966  0
29747  29966  29967  0
29747  29967  29965  0
29540  29968  29754  0
29540  29542  29968  0
29542  29969  29968  0
29542  29755  29969  0
29755  29970  29969  0
29543  29758  29349  0
29543  29971  29758  0
29543  29544  29971  0
29751  29752  29966  0
29755  29757  29970  0
29134  29750  29140  0
29972  29140  29750  0
29759  29760  29973  0
29760  29761  29973  0
29140  29972  29763  0
29761  29762  29974  0
29762  29764  29974  0
29143  29763  29354  0
29767  29354  29763  0
29764  29765  29975  0
29764  29975  29976  0
29765  29766  29977  0
29765  29977  29975  0
29978  29145  29767  0
29766  29768  29977  0
29145  29978  29770  0
29768  29769  29979  0
29768  29979  29977  0
29769  29772  29980  0
29769  29980  29979  0
29772  29774  29980  0
29980  29774  29981  0
29981  29774  29982  0
29774  29775  29982  0
29556  29983  29775  0
29556  29777  29983  0
29982  29775  29983  0
29779  29782  29984  0
29779  29984  29781  0
29985  29559  29778  0
29782  29986  29984  0
29782  29560  29986  0
29560  29561  29987  0
29560  29987  29986  0
29561  29562  29988  0
29561  29988  29987  0
29562  29783  29988  0
29559  29985  29564  0
29989  29564  29985  0
29989  29566  29564  0
29990  29566  29989  0
29786  29991  29992  0
29786  29992  29785  0
29991  29786  29787  0
29991  29787  29992  0
29566  29990  29568  0
29993  29568  29990  0
29786  29371  29787  0
29568  29993  29570  0
29994  29570  29993  0
29794  29790  29789  0
29789  29570  29794  0
29570  29994  29794  0
29572  29791  29995  0
29996  29791  29162  0
29162  29573  29996  0
29796  29573  29574  0
29994  29792  29794  0
29997  29795  29575  0
29798  29997  29575  0
29577  29572  29998  0
29995  29998  29572  0
29999  29796  29797  0
29797  29792  29999  0
29577  29998  29580  0
30000  29580  29998  0
29799  29582  30001  0
29801  30001  29582  0
30000  29800  29580  0
29801  29802  30002  0
29800  30003  29803  0
30004  29803  30003  0
29593  29803  30004  0
29802  29804  30005  0
29805  30005  29804  0
29594  29593  30004  0
29805  30006  30005  0
30007  29810  30008  0
29811  29810  30007  0
30007  30006  29811  0
29807  29811  30006  0
30006  29805  29807  0
29594  30009  29596  0
29808  30010  29809  0
29810  29809  30010  0
29817  29607  30011  0
29596  30011  29607  0
29821  29606  29815  0
29816  29821  29815  0
29819  29618  29820  0
29823  30012  29615  0
29616  29615  30012  0
29612  29824  29614  0
29614  30013  30014  0
29614  30014  29822  0
29614  29824  30013  0
29822  30014  30015  0
29822  30015  29823  0
29823  30015  30012  0
30012  30016  29616  0
29616  30016  29619  0
29619  30016  30017  0
29825  29824  29620  0
29824  29825  30013  0
30018  30013  29825  0
29825  29622  30019  0
30020  30019  29622  0
29825  30019  30018  0
29622  29826  30020  0
29413  30021  30022  0
29413  30022  29827  0
29827  30022  30023  0
29827  30023  29828  0
29828  30023  30024  0
29828  30024  29623  0
29623  30024  30025  0
29623  30025  29829  0
29829  30025  30026  0
29829  30026  29832  0
30027  30028  29830  0
29830  29831  30027  0
30029  30027  29831  0
29831  29832  30029  0
29832  30026  30029  0
29834  30030  30031  0
29834  30031  29836  0
29836  30031  30032  0
29836  30032  29839  0
29837  30033  29833  0
29833  30033  30030  0
29833  30030  29834  0
29838  29629  29842  0
29838  29842  30034  0
29838  30034  30035  0
29838  30035  29837  0
29839  30036  29840  0
29839  30032  30037  0
29839  30037  30036  0
30032  30038  30037  0
30036  30037  30039  0
30037  30038  30040  0
30037  30040  30039  0
29846  30041  29847  0
29847  30041  30042  0
29842  29631  29638  0
29842  29638  29641  0
29845  29851  30043  0
29845  30043  29843  0
29847  30042  29849  0
29849  30042  29850  0
29840  30036  30044  0
30036  30039  30044  0
30039  30040  30045  0
30039  30045  30044  0
29851  29643  29856  0
29840  30044  30046  0
29840  30046  29852  0
29853  29649  30047  0
29854  29853  30048  0
29854  30048  29855  0
29858  30049  29856  0
30044  30045  30046  0
29855  30050  29861  0
29855  30051  30050  0
29857  30052  29858  0
29852  30053  29863  0
29852  30046  30053  0
30046  30054  30053  0
29860  30047  29649  0
29861  30050  29865  0
29857  29862  30052  0
30052  29862  30055  0
30052  30055  30056  0
30053  29871  29863  0
30053  30054  29871  0
30054  30046  30057  0
30054  30057  30058  0
29860  29650  29868  0
29871  30054  29872  0
30054  30058  29658  0
30054  29658  29872  0
30058  30057  30059  0
30058  30059  29658  0
29868  29867  30060  0
29868  30060  30061  0
30060  30062  30061  0
29862  29870  30063  0
29862  30063  30055  0
29658  30059  29873  0
30064  29873  30059  0
29867  29874  30060  0
30062  30060  30065  0
30065  30066  30062  0
30065  30067  30066  0
30068  29451  29869  0
29451  30068  29875  0
30064  29877  29660  0
30064  29660  29873  0
30065  30060  30069  0
30065  30069  30067  0
30070  29875  30068  0
29877  29665  29660  0
30060  29874  29880  0
30060  29880  30069  0
29875  30070  29876  0
30071  30072  29878  0
30071  30073  30072  0
30074  30072  30073  0
30071  29878  29877  0
30069  29880  30075  0
29870  29667  30063  0
30063  29667  30076  0
29670  29881  30077  0
29670  30077  29672  0
29672  30077  29885  0
29672  29885  29673  0
29880  29879  30078  0
29880  30078  30075  0
30075  30078  30079  0
29876  29888  29461  0
29667  29882  30076  0
30080  30074  30081  0
30072  29883  29878  0
30082  29885  30077  0
29885  30082  29459  0
29885  29459  29458  0
29879  29886  30078  0
30078  30083  30079  0
30074  30084  30072  0
29883  30072  30084  0
30074  30080  30084  0
29671  30085  29884  0
29881  29884  30085  0
29671  29680  30085  0
29890  30085  29680  0
30086  29459  30082  0
29459  30086  29891  0
30086  30087  29891  0
29886  29892  30078  0
30088  30078  29892  0
30078  30088  30083  0
30089  30083  30088  0
30090  29686  29888  0
30091  30084  30080  0
30084  30092  29883  0
29887  29883  30092  0
29890  29684  30093  0
29686  30090  29472  0
30094  29472  30090  0
29472  30094  29894  0
29687  30095  29682  0
30096  29682  30095  0
30084  30097  30092  0
30098  30092  30097  0
30084  30091  30097  0
30092  30098  29887  0
30099  30093  29684  0
29684  29893  30099  0
29891  30087  29690  0
30100  29690  30087  0
29892  29693  30088  0
30101  30088  29693  0
30088  30101  30089  0
30102  30097  30091  0
30103  29887  30098  0
29887  30103  29889  0
30104  30099  29893  0
29690  30100  29691  0
30105  29691  30100  0
29691  30105  29896  0
29693  29898  30101  0
30097  30106  30098  0
30107  30098  30106  0
30098  30107  30103  0
29895  29889  30103  0
30108  30104  29893  0
29896  30105  29897  0
30109  29897  30105  0
29893  29698  29908  0
29893  29908  30108  0
30110  29486  29901  0
29899  29486  30110  0
30111  30103  30107  0
30103  30111  29895  0
29895  30111  29900  0
30112  29900  30111  0
29900  30112  29902  0
29707  29902  30112  0
30113  29697  29903  0
29697  30113  29904  0
30114  30108  29908  0
29908  29907  30114  0
30115  30114  29907  0
30116  30117  30118  0
30117  30116  30119  0
30120  30119  30116  0
29700  29703  29903  0
30121  29904  30113  0
29904  30121  29905  0
29913  30115  29907  0
30115  29913  30118  0
30122  30118  29913  0
30118  30122  30116  0
30116  29914  30120  0
29916  30120  29914  0
30120  29916  30123  0
30123  29916  29918  0
30123  29918  30124  0
29703  29911  29903  0
30125  29903  29911  0
30126  30116  30122  0
30116  30126  29914  0
29921  29914  30126  0
30127  29911  29919  0
30128  30127  29919  0
29906  30129  29912  0
29909  29912  29709  0
29925  29709  29912  0
29913  29920  30122  0
30126  30122  29920  0
29500  30130  29499  0
30131  29500  29711  0
29711  29712  30131  0
30132  30131  29712  0
29712  29713  30132  0
29923  30128  29919  0
29912  30129  30133  0
29920  29928  30126  0
30134  30126  29928  0
30135  30126  30134  0
30126  30135  29921  0
29929  29921  30135  0
30130  29935  29499  0
29923  29936  30136  0
29925  30137  29937  0
29940  29929  30135  0
29929  29940  29930  0
29943  29934  29933  0
29934  29943  30138  0
29714  30139  29715  0
29714  29935  30139  0
29945  29936  29505  0
29940  30135  30140  0
29936  29945  30141  0
29924  29937  30142  0
29924  30142  29926  0
29926  30142  30143  0
29926  30143  29928  0
29940  30144  29946  0
29940  29946  29939  0
29940  30140  30144  0
29715  30145  30146  0
29715  30146  29947  0
29945  29508  29949  0
29946  29948  29941  0
29942  30147  29944  0
29942  29948  30148  0
29942  30148  30147  0
29506  29947  29950  0
29951  30149  29511  0
29951  29719  30150  0
30151  29949  29952  0
29716  29950  30152  0
29716  30152  29510  0
29719  29721  29955  0
29719  29955  30153  0
29719  30153  30150  0
29511  30149  29722  0
29722  30154  29723  0
29723  30154  30155  0
29723  30155  29956  0
29956  30155  30156  0
29956  30156  29730  0
29730  30156  29952  0
29724  29954  29514  0
29954  30157  29515  0
29515  30157  29725  0
29955  30158  30153  0
29955  30159  30158  0
29955  29728  30159  0
29725  30157  30160  0
29725  30160  29957  0
29958  30161  29728  0
29732  29734  30162  0
29732  30162  29958  0
29733  29731  29957  0
29733  29957  30163  0
29733  30163  30164  0
29733  30164  29735  0
29734  29737  30162  0
30162  30165  29958  0
30162  29737  30166  0
29735  30167  29742  0
29742  30167  30168  0
29740  30169  29529  0
29529  30169  29741  0
29741  30169  29959  0
29959  30170  29737  0
29742  30168  29961  0
29740  29960  29965  0
29740  29965  30169  0
30169  30170  29959  0
30169  30171  30170  0
29965  30171  30169  0
29965  29967  30172  0
29965  30172  30171  0
29752  29753  30173  0
29754  30174  29753  0
29754  29968  30174  0
29969  29970  30175  0
30176  29757  29758  0
30176  29758  29971  0
29971  29544  30177  0
29544  29545  30178  0
29544  30178  30177  0
29545  30179  30178  0
29545  29756  30179  0
30180  29750  29964  0
29967  29966  30181  0
29967  30181  30182  0
29967  30182  30172  0
29966  29752  30183  0
29752  30173  30183  0
29753  30174  30184  0
29753  30184  30173  0
29970  29757  30176  0
29970  30176  30175  0
29756  29548  30185  0
29756  30185  30186  0
30182  30181  30187  0
30181  29966  30188  0
29966  30183  30188  0
30183  30173  30189  0
29548  29759  30185  0
30181  30188  30190  0
30181  30190  30187  0
29973  29761  30191  0
29974  30191  29761  0
29974  30192  30191  0
29976  29974  29764  0
30192  29974  29976  0
29763  30193  29767  0
30194  30195  30196  0
30194  30197  30195  0
30196  30198  30194  0
30199  30198  30196  0
30200  30198  30199  0
29976  29975  30201  0
29976  30201  30202  0
30194  30198  30200  0
29975  29977  30201  0
29977  29979  30201  0
30203  29770  29978  0
30203  29771  29770  0
30204  29979  29980  0
30205  29555  29771  0
29980  29981  30204  0
30206  30204  29981  0
29982  30207  29981  0
30208  30207  29982  0
29555  30205  29776  0
30209  29776  30205  0
30210  29983  29777  0
29983  30208  29982  0
29984  29777  29781  0
29777  29984  30210  0
30211  30210  29984  0
29984  29986  30211  0
30212  30211  29986  0
29986  29987  30212  0
29987  29988  30213  0
30214  30213  29988  0
29988  29783  30214  0
30215  29985  29778  0
29783  29784  30216  0
29784  29785  30216  0
30217  29989  29985  0
30218  30216  29785  0
29785  29992  30218  0
30219  30218  29992  0
29989  30217  29990  0
30220  29990  30217  0
30221  30219  29992  0
29992  29787  30221  0
30222  29990  30220  0
29787  30223  30221  0
29990  30222  29993  0
29787  29788  30223  0
29997  29788  29795  0
29573  29796  29996  0
30224  29996  29796  0
29792  29994  30225  0
29792  30225  30226  0
29997  29798  30227  0
29798  29799  30227  0
30228  30227  29799  0
30229  29998  29995  0
29796  29999  30224  0
30226  29999  29792  0
29799  30001  30228  0
30230  30228  30001  0
30001  29801  30002  0
30001  30002  30230  0
30231  30230  30002  0
29800  30000  30003  0
29802  30232  30002  0
30002  30232  30231  0
30000  30233  30003  0
30005  30232  29802  0
30234  30003  30233  0
30235  30232  30006  0
30005  30006  30232  0
29594  30004  30003  0
30236  30237  30238  0
30239  30238  30237  0
30238  30239  30240  0
30241  30240  30239  0
30008  30235  30007  0
30006  30007  30235  0
30003  30009  29594  0
30003  30234  30009  0
30242  30009  30234  0
30010  30008  29810  0
30243  30011  30009  0
29596  30009  30011  0
30242  30243  30009  0
29808  30244  30010  0
29808  29818  30244  0
30245  30244  29818  0
30246  29821  30247  0
29816  30247  29821  0
29817  30247  29816  0
30243  30247  29817  0
29817  30011  30243  0
30248  30245  29818  0
30249  29820  30250  0
30250  29820  30251  0
29821  30251  29820  0
30250  30251  30252  0
29818  29819  30248  0
30249  30248  29819  0
29819  29820  30249  0
30253  30014  30013  0
30254  30014  30253  0
30015  30255  30012  0
30012  30255  30016  0
30017  30016  30255  0
30013  30018  30253  0
30253  30018  30254  0
30256  30254  30018  0
30255  30257  30258  0
30255  30258  30017  0
30020  30018  30019  0
30018  30020  30256  0
30259  30256  30020  0
30022  30021  30023  0
30023  30260  30024  0
30024  30261  30025  0
30025  30261  30026  0
30028  30027  30262  0
30027  30263  30262  0
30027  30029  30264  0
30027  30264  30263  0
30033  30265  30030  0
30030  30265  30266  0
30030  30266  30031  0
30031  30266  30032  0
30035  30034  30267  0
29837  30268  30033  0
29837  30035  30267  0
29837  30267  30268  0
30033  30268  30269  0
30033  30269  30270  0
30033  30270  30265  0
30265  30271  30266  0
30265  30270  30271  0
30032  30266  30272  0
30032  30272  30038  0
30273  30034  29842  0
30273  29842  30274  0
30273  30275  30034  0
30034  30275  30267  0
30268  30267  30276  0
30268  30276  30269  0
30270  30277  30271  0
30038  30272  30278  0
30038  30278  30040  0
29843  30043  29844  0
29844  30279  30280  0
29844  30280  29846  0
29844  30043  30279  0
29846  30280  30041  0
30042  30041  30281  0
30042  30281  30274  0
30274  29850  30042  0
30274  30281  30273  0
30274  29842  29641  0
30274  29641  29850  0
30269  30282  30270  0
30270  30282  30277  0
30040  30278  30283  0
29851  29856  30049  0
29851  30049  30284  0
30049  30285  30284  0
30045  30040  30283  0
29853  30047  30286  0
30048  30051  29855  0
30048  30287  30051  0
30049  29858  30052  0
30049  30052  30285  0
30045  30283  30288  0
30045  30288  30046  0
30051  30289  30050  0
30052  30056  30285  0
30046  30288  30057  0
30047  29860  30061  0
30047  30061  30286  0
30286  30061  30290  0
30050  30291  29865  0
29860  29868  30061  0
30290  30061  30062  0
30290  30062  30292  0
29865  30291  29869  0
30293  29869  30291  0
30055  30294  30295  0
30062  30066  30292  0
29869  30293  30068  0
30055  30063  30296  0
30055  30296  30294  0
30297  29877  30064  0
30297  30064  30059  0
30297  30298  29877  0
30066  30067  30299  0
30066  30299  30292  0
30067  30300  30299  0
30071  29877  30298  0
30073  30071  30298  0
30067  30069  30075  0
30067  30075  30300  0
30070  30301  29876  0
30063  30076  30296  0
30302  30081  30074  0
30302  30074  30073  0
30075  30079  30300  0
30303  30300  30079  0
30304  30303  30079  0
30305  30076  29882  0
30306  30077  29881  0
30077  30306  30082  0
30307  30082  30306  0
30082  30307  30086  0
30308  30086  30307  0
30079  30083  30304  0
30309  30305  29882  0
30081  30310  30080  0
30311  29881  30085  0
30312  30085  29890  0
29881  30311  30306  0
30086  30308  30087  0
30313  30087  30308  0
30083  30089  30304  0
30314  30304  30089  0
29682  30315  29882  0
30309  29882  30315  0
29682  30096  30315  0
29890  30093  30312  0
30100  30087  30313  0
30094  30316  29894  0
29687  29894  30316  0
30316  30095  29687  0
30080  30317  30091  0
30093  30099  30318  0
30313  30319  30100  0
30105  30100  30319  0
30089  30101  30314  0
30320  30314  30101  0
30102  30091  30321  0
30317  30321  30091  0
30322  30318  30099  0
30099  30104  30322  0
30109  30105  30323  0
30324  30101  29898  0
30101  30324  30320  0
30106  30097  30102  0
