#!ascii file
-22.045837   11.704842  -24.955666  0
-19.576488   11.690931  -24.864229  0
-25.727936   10.517015  -21.755108  0
-37.105621   15.323436  -22.644142  0
-37.488861   15.870948  -23.177591  0
-24.653643   10.350451  -23.837244  0
-38.399532   15.794739  -23.821522  0
-25.242527    9.868675  -24.444206  0
-39.039986   15.957550  -25.144142  0
-39.937347   14.962357  -24.944454  0
-39.503094   14.230240  -27.091967  0
-38.721680   13.997996  -28.018421  0
-35.306709   10.973295  -29.841843  0
-35.515339   12.536853  -29.461515  0
-31.090025   10.715063  -31.585411  0
-32.722908   11.968699  -30.622252  0
-29.660763   11.854985  -31.757992  0
-25.521389   12.438987  -31.908627  0
-10.486077   15.019123   76.297096  0
 -8.597724   15.003525   75.693130  0
-12.469542   14.047995   75.888496  0
-13.669093   13.682402   74.593376  0
 -6.342342   14.345280   73.401833  0
-15.414095   12.860563   73.524467  0
 -6.151150   13.948404   71.899673  0
-15.840913   12.717958   71.688217  0
-15.543668   12.688069   69.582741  0
 -5.908575   13.052353   69.952744  0
-20.471699   12.799336   71.693863  0
  1.501048   14.205288   66.352287  0
 -4.202534   11.021504   71.325523  0
 -4.765473   12.138812   70.668167  0
-18.924223   12.676250   70.550667  0
-22.861870   13.219362   71.240639  0
-18.539515   11.004808   68.269066  0
-18.401903   12.701753   69.442093  0
-25.157310   14.185193   70.036819  0
  1.766276   13.272534   63.491558  0
  0.639395   13.520390   62.101917  0
  0.024480   13.062586   60.954533  0
-14.520127   11.381915   64.093376  0
-17.895445   12.582421   68.395439  0
-17.681463   11.192515   66.592560  0
-18.227768    9.808612   65.872093  0
-17.160831   12.316497   66.266258  0
-27.302088   14.450994   67.815147  0
-28.224499   15.251987   67.303406  0
-32.280720   13.365376   65.844086  0
-34.429981   12.136333   64.920372  0
-34.186661   13.385451   65.041138  0
-14.437965   11.565125   62.682541  0
-34.395851   11.688144   63.925968  0
-13.983772   11.650857   61.389473  0
-16.078655   12.637024   62.935356  0
-18.151030    8.421605   62.445316  0
-15.615005   11.104528   61.574398  0
-30.986921   11.365318   59.609634  0
-31.943121   11.596389   60.061161  0
 -2.027595   14.611007   57.721481  0
 -1.305864   14.048547   59.593380  0
-16.110758    9.329806   61.441811  0
-15.704118   10.700490   60.663990  0
-16.888681    9.158031   60.056137  0
-14.884798   11.895474   60.719997  0
 -0.129247   13.974853   56.354443  0
 -1.630936   14.574436   56.663403  0
-15.870555   12.297354   60.290524  0
-16.573738   10.344960   59.949142  0
-16.085911   12.240479   60.338444  0
-16.397478   12.728959   59.769524  0
-30.031042   11.017658   56.207100  0
  1.075618   13.588164   55.485294  0
 -0.719786   14.909527   55.372776  0
  2.279507   13.177647   54.664761  0
  2.602915   12.763560   53.461819  0
  2.550398   11.789512   52.289860  0
  1.878988   13.044148   52.492813  0
  2.031873   11.910831   51.240208  0
 -1.168561    9.946669   48.491829  0
 -2.258873    9.688289   48.213688  0
  1.200375   11.788263   49.543663  0
-26.919743   11.269011   46.860359  0
-27.330177   10.070557   44.267624  0
-27.074707   10.482548   42.041050  0
 -0.499172   14.051479   44.669231  0
 -2.999100   14.718705   45.328804  0
-41.591599   14.841016   43.410038  0
-43.458420   15.045031   44.813042  0
-45.919739   15.347577   45.495583  0
-47.838955   15.315235   45.676445  0
  0.744885   14.490265   42.937225  0
 -4.330582   14.532753   45.021160  0
 -5.979142   14.429821   44.410568  0
-26.846121   11.282339   40.732208  0
-44.014286   15.986691   43.739853  0
  1.160987   13.918947   41.183182  0
-43.727283   15.502678   39.592812  0
-44.087345   16.445286   41.248238  0
-45.865410   16.313564   39.804916  0
-47.815277   16.810471   39.134155  0
-49.023857   17.157473   39.413773  0
-50.242786   17.000828   39.881737  0
  1.200622   13.509398   39.240448  0
 -0.274411   11.635637   37.315178  0
  0.345281   12.311856   37.483227  0
  1.262755   12.645417   37.677742  0
 -1.038975   11.475556   36.483608  0
 -1.573362   11.750501   35.915440  0
 -2.210914   12.493603   35.769653  0
-27.689552   12.606563   39.769764  0
-30.926945   12.179332   37.771282  0
 -1.560482   13.396110   34.681377  0
 -2.288251   13.319326   35.161652  0
-35.177620   11.641109   36.553963  0
  0.641431   13.748371   31.718975  0
 -0.727084   12.709455   33.150547  0
-36.862331   11.303627   36.915543  0
-38.323566   11.332644   36.775803  0
-39.150173   10.438031   36.085052  0
-39.990124   10.085855   35.192093  0
-52.590446   14.403499   32.179626  0
-40.555878    9.089351   34.119507  0
-41.693893    9.052153   33.173119  0
-41.746803    9.536883   31.322678  0
-52.202572   14.987490   30.033312  0
-52.383823   15.876540   27.934454  0
-27.692656   12.029210   26.140726  0
-30.215240   11.155595   25.396177  0
-31.378740   11.277396   24.408941  0
-53.706821   15.912426   25.986458  0
-25.454777   14.272240   24.859535  0
-25.658670   13.988794   24.667707  0
-52.976570   16.893764   23.955797  0
-53.971760   16.329760   22.875782  0
-32.506561   11.841639   22.175247  0
-53.021931   16.775455   22.028460  0
  1.124249   13.435839   22.717348  0
-33.235680   11.910556   20.927788  0
-26.561312   13.964932   23.877100  0
-33.818096   12.141174   19.858540  0
-34.079063   12.369731   18.811525  0
  1.125618   12.650708   20.364998  0
-34.768536   12.916835   17.993006  0
-35.558395   13.731198   16.943304  0
-45.351120   12.359442   23.517941  0
  0.109883   12.786307   18.174213  0
-28.224558   13.703211   20.854996  0
-44.400517   15.561086   18.367258  0
-43.404572   16.831743   16.476927  0
-49.908508   14.121456   16.749760  0
-29.822874   13.735824   18.635914  0
-38.338982   16.256557   14.637921  0
-42.896290   17.739481   14.940486  0
 -0.501380   13.039724   16.743574  0
-30.984449   13.963883   17.398619  0
-39.471275   16.349722   13.053468  0
-43.565189   16.930037   13.239182  0
-42.515068   18.078644   13.810230  0
-33.591572   14.279721   16.131863  0
-41.864758   18.002846   12.902997  0
 -0.042885   13.431251   13.677720  0
-36.044724   14.319031   14.199079  0
-34.886284   15.404192   13.940534  0
  0.373211   13.159656   10.033195  0
  0.622472   12.739487    8.755937  0
-37.509857   15.345566   11.931517  0
-39.276287   15.498038    9.707839  0
-39.447498   15.374605    7.366276  0
-38.724426   15.245994    5.307438  0
-37.190849   14.920850    4.235648  0
-50.150963   15.356434   11.363829  0
-48.172581   15.007139   10.955551  0
-51.287148   15.004529   10.653259  0
-16.500954    9.822958    0.643197  0
-35.713554   15.266131    3.244383  0
-34.712692   15.503460    2.234898  0
-46.284550   13.632030    9.118677  0
-33.894188   15.570087    0.667547  0
-45.336140   13.791943    7.806033  0
 -5.894588   11.052688    0.891323  0
 -7.669554   10.903253    0.353260  0
 -9.621058   11.305538    0.483382  0
-11.579441   11.343314    0.143430  0
-15.491922   10.885970   -0.406235  0
-33.186008   14.673131   -0.022400  0
-42.323528   13.717429    6.222273  0
-50.703770   10.994716    0.959603  0
-50.862049   12.287975    0.767082  0
-21.242792   11.057341   -0.482837  0
-26.565416   13.617300   -0.374511  0
-32.537876   15.574209    0.192358  0
-30.379213   15.580871   -0.532165  0
-41.367859   13.414510    5.766041  0
-28.617582   14.258883   -0.398267  0
-49.848530   12.569006   -0.227609  0
-39.678360   13.432665    1.611208  0
-39.589153   14.189457    2.469057  0
-48.779633   12.452470   -0.426580  0
-39.721977   14.168859    0.085646  0
-39.380062   14.350904   -0.880547  0
-37.534145   14.630648   -0.691430  0
-45.085644   12.287415   -6.539417  0
-35.562054   14.079229   -0.851566  0
-44.243977   12.061822   -7.268838  0
-33.829659   14.932418   -0.786874  0
-32.625362   15.225728   -1.705576  0
-27.648890   17.747654   -5.955590  0
-42.920891   12.503495   -8.653463  0
-25.950472   16.752335   -7.138355  0
-51.635303   13.812346  -10.400847  0
-25.377462   16.326475   -8.826510  0
-44.072315   13.123715  -10.595700  0
-46.773144   13.702455  -10.887935  0
-52.067600   13.378649  -11.331901  0
-43.477959   13.763897  -10.360451  0
-45.327248   14.265958  -11.104035  0
-44.148304   14.249249  -11.114892  0
-48.684772   14.378587  -10.988858  0
-24.743401   16.280512  -11.644869  0
-46.614738   11.899405  -18.116159  0
-48.363987   11.857985  -16.830830  0
-51.114479   13.411602  -13.452622  0
-20.176773   15.666336  -13.825630  0
-24.488625   16.713041  -12.489548  0
-25.109169   16.381485  -12.593899  0
-43.205814   10.376014  -18.468304  0
-44.697929   11.235642  -18.687801  0
-49.081478   12.881075  -16.180027  0
-50.024761   13.853675  -14.561860  0
-17.363598   14.621511  -15.580244  0
-18.724888   15.745607  -15.570126  0
-19.682846   16.881556  -15.294448  0
-21.079756   17.571543  -14.391968  0
-23.528973   17.398540  -13.377607  0
-41.121689   10.007086  -21.207577  0
-43.318485   10.923610  -19.747120  0
-45.253788   12.336585  -18.827478  0
-47.738670   13.826829  -17.121508  0
-26.660807   10.793744  -20.186636  0
-36.943512   12.219428  -21.715742  0
-39.537342   10.267692  -21.610525  0
-37.731236   11.481577  -22.065145  0
-42.434467   10.968416  -20.937943  0
-42.988434   11.680822  -20.207228  0
-43.627354   12.077715  -19.437630  0
-19.071453   17.028231  -18.080885  0
-19.244625   17.749063  -16.293657  0
-18.744785   15.785151  -19.972446  0
-20.187538   18.627209  -15.403864  0
-25.634859   12.125540  -22.067915  0
-36.832058   13.587044  -22.437788  0
-18.565620   14.640004  -22.907619  0
-18.264832   15.103338  -21.230602  0
-19.078836   13.595617  -24.046719  0
-22.934837   12.254391  -24.629473  0
-19.358681   13.373783  -25.118502  0
-20.527060   12.640745  -25.887474  0
-26.540655   10.898205  -20.781563  0
-37.051037   16.123770  -22.274372  0
-25.302633   11.700287  -22.607063  0
-24.611887   11.373410  -23.634493  0
-37.899548   17.144308  -23.569874  0
-38.050602   17.211781  -24.562840  0
-38.251072   17.363388  -26.630911  0
-38.367775   15.748717  -27.579323  0
-35.421513   14.254492  -29.503704  0
-37.114326   14.557858  -28.840919  0
-31.407822   13.524534  -30.860287  0
-32.785080   15.297734  -30.396469  0
-34.266842   14.918085  -30.092369  0
-24.589418   13.695208  -31.636427  0
-25.354389   14.632926  -31.499943  0
-28.269062   12.700930  -31.844990  0
-26.804083   14.181710  -31.892235  0
-11.813324   14.713770   76.276070  0
-12.292005   14.495194   75.082848  0
 -7.660412   15.792725   74.091583  0
-15.167413   13.608794   73.938515  0
-15.960398   13.379626   72.874794  0
-15.908129   14.560175   73.501457  0
 -0.533567   14.725959   71.299507  0
  0.775960   13.897056   70.064041  0
  0.289689   15.502286   70.845009  0
 -0.994056   13.424092   71.927086  0
 -2.538030   14.251812   71.674637  0
 -2.521144   11.667960   72.184273  0
-16.269768   13.768007   71.565369  0
  1.489055   13.986992   68.272133  0
  1.125758   15.683554   69.394508  0
 -3.654385   12.616436   71.548775  0
 -6.437326   15.228806   70.358650  0
  1.263604   15.233438   67.328835  0
-15.037699   11.866408   67.029480  0
  0.955635   14.319852   64.175781  0
-19.849655   14.483050   71.136856  0
-21.671646   14.621382   71.341156  0
-23.699171   14.680798   71.099129  0
  0.366017   14.268704   62.493484  0
-15.665996   12.648949   65.570877  0
-18.774590   14.146726   70.170914  0
-17.992752   14.228525   68.181068  0
-24.851631   16.077923   70.165581  0
-26.594936   15.631719   68.642868  0
-29.165663   16.176893   66.762177  0
-15.545596   12.158579   63.612473  0
-17.231617   13.385802   66.197037  0
-35.091587   12.683856   63.877312  0
-15.928967   12.952694   61.936455  0
-17.339411   14.033953   64.959259  0
-34.422493   11.626212   62.489422  0
-33.617889   11.613468   61.054482  0
 -2.207047   15.021599   58.850292  0
-16.050011   13.103870   60.718414  0
-15.818022   12.433730   61.033199  0
 -1.927446   16.006330   57.571739  0
-16.619905   13.466579   60.902744  0
-17.022400   14.652641   59.608150  0
 -2.201370   14.999937   56.137115  0
-17.098486   14.431388   59.831482  0
-29.941591   10.399033   54.157051  0
  1.740104   13.716784   53.815620  0
  0.251856   14.568685   54.259899  0
-30.082150    9.668015   51.697739  0
  1.052586   14.090329   52.851372  0
 -0.161148   15.552434   54.505646  0
  1.975180   13.378753   51.058033  0
-28.538464    9.950367   49.721233  0
-29.983561    9.818411   50.525173  0
  1.540823   12.978471   49.293274  0
  0.013165   11.839812   48.149567  0
 -1.379499   11.509628   47.264591  0
 -3.346327   11.544831   46.983395  0
-27.770206   10.530231   48.693668  0
-29.120268   10.658433   48.941505  0
-28.551933   11.667982   47.603691  0
-27.215538   11.097507   45.842098  0
 -7.384820   13.694581   44.436756  0
-27.523964   10.316795   45.227737  0
 -7.483925   15.214119   43.101753  0
-28.007143   10.505993   41.580650  0
-29.128492   10.444295   43.085308  0
-28.873325   10.529978   41.553459  0
-28.331034   11.515274   40.448723  0
-27.197647   12.179799   40.028831  0
-47.521950   16.948965   43.797729  0
-48.792423   16.086189   44.601585  0
-49.691883   16.818344   42.397938  0
 -1.220764   15.411830   44.267422  0
 -3.689757   15.637196   44.246296  0
-26.504726   12.289376   39.951019  0
-43.568943   16.381132   42.360619  0
 -5.670654   15.779084   43.169460  0
-47.069138   17.392593   41.176964  0
-48.655891   17.416010   41.730671  0
  1.344266   13.845371   36.643723  0
 -0.186127   13.029698   36.083603  0
 -2.606040   13.975583   35.142330  0
-29.359076   13.251330   39.641151  0
-31.226578   13.316072   38.946003  0
 -2.513790   14.039734   34.696693  0
 -1.701669   14.295902   34.610710  0
-33.827400   13.143348   37.224674  0
-35.277775   12.707410   36.424915  0
 -1.164706   13.416774   33.196598  0
 -1.289559   14.094326   34.239395  0
-36.919136   12.871550   36.490887  0
-40.048515   11.313100   35.698772  0
-41.811176    9.748004   34.463493  0
-43.186298    9.917371   33.006046  0
-42.171463   11.037027   34.736813  0
  1.202417   14.797065   30.224932  0
 -0.493594   14.224746   32.318817  0
-42.998230    9.796206   32.059296  0
-43.525036   11.511366   33.736450  0
-43.826141   11.019867   31.872166  0
-29.095795   11.919748   25.764103  0
-27.717718   12.884424   24.405567  0
-29.705530   12.190644   24.552088  0
  0.993815   14.845858   23.606617  0
-30.916256   12.536459   23.361729  0
-31.744221   12.208917   22.427242  0
-42.195522   12.866782   27.740566  0
-32.592052   12.790100   21.767828  0
-41.849274   12.903986   26.138535  0
-33.062206   12.496444   21.576735  0
-33.643688   13.053474   20.399483  0
-27.138889   14.344602   22.533163  0
-34.786556   13.555294   18.934334  0
-36.428535   14.854737   18.046490  0
-46.111008   13.202326   21.998878  0
-45.756630   13.970762   20.026976  0
  0.886792   13.677419   19.669743  0
-37.170071   15.729374   16.876343  0
-38.116035   16.419218   15.761924  0
-41.965317   17.346811   16.898731  0
-41.441139   17.895113   15.317053  0
-28.025675   14.656517   20.126316  0
-42.305126   18.028471   15.124259  0
-41.517536   18.242529   14.022385  0
-30.263582   14.447533   17.318302  0
-39.872326   17.640615   14.088388  0
-40.778042   17.953518   13.162175  0
-32.806999   15.204316   15.421390  0
  0.032018   13.484136   11.970378  0
  0.133134   13.297679   11.072125  0
-36.495636   16.431946   12.578709  0
-38.579563   16.468197   10.565577  0
-39.495461   16.339800    8.629817  0
  0.445622   13.028326    6.569663  0
-39.060574   16.807232    6.342973  0
-37.758163   16.408689    4.478595  0
 -0.199940   12.966621    5.160336  0
 -1.038455   12.811866    3.323853  0
-36.011738   16.397680    3.928201  0
-34.748512   16.617449    2.830220  0
-51.200600   15.420516   10.091746  0
-33.966450   16.534216    1.555504  0
-46.486099   14.895989    9.935833  0
 -1.753463   13.079518    1.388767  0
-33.833092   16.435671    0.713985  0
-44.631931   14.682360    6.755518  0
-52.062222   14.364888    5.330843  0
 -3.411281   12.061769    1.307445  0
 -7.720811   11.594555   -0.424895  0
 -9.338802   11.584140   -0.960187  0
-10.919723   11.744822   -1.553343  0
-12.572080   11.595430   -0.868270  0
-13.759239   11.842254   -0.900729  0
-17.680830   10.197602   -0.551167  0
-16.625244    9.896052    0.172374  0
-32.945305   16.556866    0.426570  0
-43.588066   14.812465    6.090477  0
-51.346947   14.600602    2.432701  0
-51.842968   14.856084    3.771319  0
 -4.384579   13.074312    0.077298  0
 -7.094619   13.234772   -1.020909  0
 -8.856286   12.818050   -1.485872  0
 -9.918237   11.953590   -1.843995  0
-12.274084   11.894735   -2.237875  0
-23.884398   12.742202   -0.822569  0
-25.686510   14.015651   -0.701931  0
-41.816578   14.755427    5.512774  0
-49.728909   13.901674    0.137942  0
-27.379833   14.847300   -0.909203  0
-28.876925   15.292461   -1.114906  0
-40.566772   14.472694    4.625198  0
-48.174023   13.667258   -0.870628  0
-47.301407   13.233691   -2.715750  0
-39.589176   14.599205    0.869564  0
-46.676498   13.010899   -4.568938  0
-46.192482   13.578364   -5.629142  0
-45.797310   12.744195   -6.101434  0
-38.859039   14.918421   -1.043410  0
-35.702267   15.081776   -0.386282  0
-31.563791   17.163782   -3.632424  0
-43.867779   13.021384   -8.681788  0
-30.511770   18.144979   -4.476866  0
-27.033466   17.449347   -7.132734  0
-28.123108   18.540241   -6.073505  0
-29.326941   18.878098   -5.233168  0
-43.694397   13.891913   -9.608197  0
-51.082664   14.545318  -11.749791  0
-43.865593   15.039129  -10.510981  0
-46.797916   15.264152  -10.398121  0
-48.715267   15.425799  -10.195332  0
-49.903114   15.625093  -10.620292  0
-50.474983   15.659047  -11.420774  0
-50.390553   15.198812  -12.907464  0
-25.511145   16.344736  -12.791642  0
-25.918854   16.160961  -13.590163  0
-48.971428   14.337586  -15.814658  0
-24.776510   16.914154  -13.464332  0
-21.985888   18.992607  -14.467334  0
-23.920424   18.284208  -14.155934  0
-38.859669   12.035728  -22.615797  0
-40.091099   11.583405  -22.496042  0
-42.717358   13.449988  -18.128275  0
-41.712978   13.867368  -18.694000  0
-44.673393   13.366322  -18.461773  0
-46.000458   14.514305  -18.185953  0
-19.982042   18.747887  -18.073353  0
-19.594940   18.519495  -16.798519  0
-18.492929   17.729872  -19.749937  0
-37.700268   12.833689  -22.544504  0
-39.598862   13.917007  -23.519110  0
-38.474495   13.659068  -23.233545  0
-41.064209   12.063449  -22.387014  0
-41.837933   11.578878  -21.579941  0
-42.170612   12.559383  -20.897352  0
-18.323080   16.314983  -21.575218  0
-26.453182   11.947020  -21.501526  0
-40.698586   14.434088  -23.202883  0
-41.561176   13.705749  -22.026043  0
-23.372950   13.682499  -24.131250  0
-21.445795   13.363656  -26.184107  0
-19.304323   15.295158  -24.484560  0
-19.969860   14.907979  -25.731024  0
-37.072227   17.083481  -22.676645  0
-37.637699   18.410940  -22.912840  0
-37.958672   18.903585  -24.085438  0
-37.788071   18.975718  -25.849148  0
-37.186859   17.639902  -28.223402  0
-36.161800   16.031858  -29.046936  0
-30.371353   16.003757  -30.596500  0
-28.323463   14.411450  -31.561745  0
-26.493576   16.438936  -30.743093  0
-11.474854   15.419561   76.114738  0
-10.208508   15.834734   75.551094  0
-12.074662   15.122359   74.746109  0
 -9.211366   16.414883   74.597389  0
-13.956512   15.448751   74.197113  0
-15.841073   16.479099   73.243675  0
 -7.009734   16.801893   72.102783  0
-16.755924   15.669672   72.662460  0
-16.939327   15.047615   71.507843  0
-16.097025   13.630410   68.456383  0
-17.000250   14.781759   68.035767  0
  0.639866   15.680198   65.290672  0
 -0.142578   15.179732   62.828915  0
 -4.944633   15.050366   69.876747  0
 -5.965855   14.858920   69.389275  0
-16.378933   13.488492   66.236343  0
-16.922697   14.409121   65.708412  0
-22.865448   15.836751   71.207558  0
-16.276072   13.209536   64.342842  0
-17.066252   14.379758   64.127892  0
-19.583778   16.227064   70.060837  0
-18.516495   15.890196   67.712601  0
-23.745955   17.367916   70.869705  0
-24.820711   18.265030   69.933372  0
-30.650354   16.184351   66.277344  0
 -0.380979   14.944492   61.008743  0
-17.822575   14.330426   66.835304  0
-27.497015   17.753910   67.227219  0
-32.118118   15.673751   65.646202  0
-33.519978   15.740756   64.763611  0
-35.226131   14.062084   64.064499  0
 -1.048434   15.359526   59.692699  0
-35.335270   12.379833   62.251724  0
-36.135506   13.757610   62.733238  0
-17.435984   14.451009   60.921547  0
-17.500267   14.984391   61.953011  0
-17.302958   14.135457   62.939644  0
-18.316959   14.941639   64.018616  0
-35.727444   12.923428   61.386543  0
-17.378147   14.886946   59.996666  0
-18.539356   15.240826   61.886246  0
-33.461346   12.025318   60.045151  0
-35.150890   12.909869   60.213249  0
-31.394947   11.709691   58.452110  0
-33.088383   12.479004   58.781269  0
-17.840420   14.887148   60.409695  0
-34.694805   13.214787   58.949821  0
-31.423599   11.476156   56.297874  0
 -2.172307   15.826092   56.051102  0
-17.378622   16.011639   59.189060  0
-31.345621   10.058377   53.050438  0
-32.048626   10.811428   54.575371  0
-33.260487   12.144595   57.394321  0
-32.887871   10.419662   53.027397  0
-33.694275   10.970539   55.130535  0
-31.971237   10.244851   50.834553  0
 -0.646566   16.249460   55.251408  0
-32.760464   10.854593   50.457413  0
  1.690795   14.357446   51.118336  0
  0.528096   14.853065   52.609783  0
-31.084986   10.779687   49.558342  0
  1.039475   14.052176   47.815079  0
-30.007278   11.285378   48.335033  0
-31.623600   11.365497   48.602196  0
 -0.485998   12.901031   47.080688  0
 -2.408891   12.929577   46.316872  0
 -4.415221   13.450799   45.983410  0
-30.870476   12.143654   47.701649  0
 -6.691491   13.527708   45.654629  0
-28.244144   11.637503   46.438843  0
-28.244097   10.352483   45.143284  0
-29.183100   10.586323   45.119701  0
 -7.527664   15.760160   42.868790  0
-29.833759   10.910730   40.848415  0
-30.376875   10.428864   42.129955  0
-30.806431   11.092051   41.227558  0
-29.994617   10.500556   43.656826  0
-31.199932   10.908929   42.724491  0
-31.639706   12.018287   41.378014  0
-30.875778   11.586660   40.559120  0
-29.272243   12.856317   40.088573  0
-28.243921   13.246166   40.036671  0
-46.218239   17.238392   42.714458  0
  0.295885   15.394863   43.008991  0
  0.618786   15.700399   42.215496  0
 -1.694841   16.795307   43.392670  0
 -3.060952   17.105143   43.156128  0
 -6.991331   16.830929   42.312519  0
  1.234243   15.507561   40.401646  0
  1.449633   16.359703   38.717644  0
  0.372318   14.081722   35.788696  0
  1.084078   14.753907   35.351906  0
 -0.462896   14.262073   35.047161  0
-27.732330   13.431468   40.021706  0
-28.660879   13.994479   39.985107  0
 -1.651235   14.235505   34.939365  0
-30.728264   14.533749   39.867413  0
-32.730103   14.753921   39.692921  0
 -2.257703   15.452638   34.165615  0
-33.341259   14.258974   39.084267  0
-36.324387   13.722113   36.759804  0
 -1.326283   15.147112   33.730469  0
-38.516121   12.876305   36.472164  0
-40.718685   12.408106   35.567493  0
-42.462910   12.564363   34.963207  0
-42.718182   11.903734   29.182207  0
-26.325758   14.064350   24.235748  0
-28.079798   13.918325   22.619963  0
-29.206030   13.325656   22.740961  0
  1.340608   17.970728   23.927576  0
-25.092901   15.834476   25.278395  0
-30.952219   13.186561   21.906801  0
-31.652460   13.156693   21.200039  0
-25.704870   15.863052   24.184460  0
  1.087289   14.053001   21.282419  0
-35.908489   15.261815   18.250395  0
-45.018799   12.600620   24.833960  0
-38.528564   16.763170   17.799437  0
  0.886079   14.934664   19.636003  0
-27.434223   14.999505   21.672380  0
-39.331718   17.489702   16.607620  0
-40.348095   17.716291   17.640074  0
-40.691395   17.736366   17.162573  0
-42.535877   17.067034   17.705843  0
-39.799564   17.389538   15.511872  0
 -0.686931   14.307160   18.124046  0
 -1.325269   14.646435   16.904329  0
-30.058535   15.347409   17.547487  0
-31.598829   15.672682   15.982784  0
 -0.432132   13.889228   12.687931  0
-34.104748   16.461845   14.208598  0
 -2.429106   14.494170   12.381783  0
  0.106763   14.296933    9.722021  0
  0.218731   14.494801    8.356709  0
  0.193646   12.902392    8.089204  0
  0.041850   13.768445    7.423680  0
-39.298672   17.330973    8.970721  0
-38.341713   17.530632    4.999412  0
 -0.538178   13.622161    6.598956  0
-36.788174   18.078735    4.326084  0
-35.655949   17.535872    3.618111  0
 -0.626829   13.771058    5.237629  0
 -0.481370   13.985641    3.700817  0
-49.767601   16.511911   11.737391  0
-48.078808   16.333473   11.383613  0
-50.933819   16.239355   10.399163  0
 -0.601663   13.971374    2.405874  0
-45.682438   15.707326    9.743158  0
 -0.632354   15.550151    0.913899  0
-34.011585   17.810192    0.826042  0
-44.721756   15.614470    8.105095  0
-44.274380   15.824722    6.628256  0
-51.596218   15.875235    5.882000  0
 -2.497853   14.650473   -0.143240  0
 -3.946860   14.555104   -1.093875  0
-14.393247   12.582774   -1.263220  0
-33.222378   18.537527   -0.225082  0
 -5.554826   14.241596   -1.342939  0
-10.926882   12.444297   -2.531875  0
-12.802061   12.720519   -2.635323  0
-13.451218   13.367035   -1.773445  0
-14.916516   12.383999   -1.448570  0
-19.411291   10.799452   -0.938996  0
-22.007126   12.222664   -1.360293  0
-30.728077   17.022100   -1.150222  0
-42.743519   15.858752    5.829128  0
-49.930069   15.688303    1.505697  0
-11.941876   13.020647   -2.915165  0
-12.808854   14.259257   -2.454352  0
-13.833026   13.919642   -1.340513  0
-25.464367   14.790225   -1.598945  0
-23.746984   13.313942   -1.693335  0
-27.310720   15.503946   -1.736734  0
-28.945765   16.396795   -1.630700  0
-40.797710   15.693908    4.970856  0
-39.523365   16.075140    3.593626  0
-39.050442   15.215653    1.700179  0
-48.665596   14.877208    0.286048  0
-47.798393   16.023727    0.225694  0
-40.227463   15.981279    0.351152  0
-39.282749   15.516273    1.080717  0
-40.411686   15.748757   -0.755487  0
-46.743271   14.224071   -3.275570  0
-39.968750   16.079535   -1.445933  0
-46.196934   14.887142   -4.694599  0
-37.983604   15.664850   -0.148081  0
-36.584888   15.866846    0.094141  0
-32.876511   16.849421   -2.385918  0
-34.302929   16.463413   -0.458919  0
-35.379635   16.044394   -0.383823  0
-45.779388   14.485796   -7.566804  0
-44.959286   13.415129   -8.129806  0
-44.696289   14.178814   -8.850335  0
-28.994625   18.949495   -5.976972  0
-44.377953   15.176090   -9.400242  0
-28.060490   17.987743   -6.778469  0
-25.404663   17.133875   -8.945129  0
-24.595013   16.624380  -10.715222  0
-44.536385   15.487928  -11.008191  0
-48.196396   16.097364   -9.645834  0
-50.058731   16.382713  -11.465223  0
-49.500088   16.641945  -10.101988  0
-27.198242   15.792738  -14.832574  0
-39.176704   16.265606  -16.617687  0
-38.510563   15.851395  -15.846620  0
-37.738098   16.380577  -15.241863  0
-40.224861   15.200788  -16.965137  0
-40.824005   14.726843  -16.539370  0
-37.677708   16.080175  -14.870172  0
-39.826359   15.817703  -15.270727  0
-26.056746   16.498283  -14.480965  0
-26.744892   16.274765  -14.542342  0
-40.644829   15.586391  -18.259579  0
-41.899982   14.474333  -16.698624  0
-43.177261   14.502351  -16.971233  0
-44.907677   15.364223  -17.723143  0
-48.191002   15.534367  -16.008818  0
-22.945625   19.142113  -15.529930  0
-25.873894   17.309803  -15.128426  0
-27.103472   16.217806  -15.838592  0
-40.059395   16.863535  -18.181698  0
-40.956921   16.403591  -19.838598  0
-41.451431   14.410943  -20.058989  0
-46.871635   15.302293  -17.600191  0
-20.458332   19.537230  -16.471405  0
-21.396025   19.943359  -15.575297  0
-37.448177   14.298438  -23.019478  0
-18.062038   17.320168  -20.773741  0
-18.120506   17.793119  -21.620426  0
-19.199928   18.768297  -19.304699  0
-26.203363   12.736619  -21.967567  0
-38.600208   15.597445  -23.511593  0
-39.779591   15.608616  -23.515057  0
-40.807934   16.195131  -22.164371  0
-18.838358   17.357533  -23.603842  0
-21.907034   14.031487  -26.000496  0
-24.083479   14.028399  -23.498888  0
-24.339598   14.627577  -23.728876  0
-40.333744   16.006805  -23.063585  0
-20.922859   14.487163  -26.280361  0
-36.283813   18.482449  -21.751257  0
-26.120779   12.776482  -22.817236  0
-25.517057   12.844189  -23.378967  0
-37.384190   19.997496  -23.470861  0
-37.363846   20.573465  -25.125622  0
-36.957596   20.454750  -26.970734  0
-37.492413   19.117405  -27.479464  0
-35.672691   19.367933  -28.572149  0
-33.042484   18.364391  -29.743023  0
-33.792736   20.106531  -28.850357  0
-32.282837   20.180878  -29.283178  0
-31.284237   19.638788  -29.399660  0
-34.291874   16.831020  -29.914722  0
-28.428572   17.618231  -30.510162  0
-29.963930   18.785812  -29.751398  0
-27.244518   18.490904  -29.610781  0
-28.467543   19.487041  -29.609179  0
-10.928670   16.303040   74.546341  0
 -8.906914   17.482725   73.391365  0
-13.421845   16.836733   73.728928  0
-17.548725   16.994255   71.467690  0
-17.730198   16.058676   69.550514  0
-21.779587   17.238169   71.046867  0
-17.224566   15.731565   65.819763  0
-17.373844   14.781941   63.353462  0
-19.777294   18.131542   69.292168  0
-21.236206   18.680716   70.664940  0
-18.830072   17.729620   67.146957  0
-23.834660   19.185047   70.036690  0
-26.066154   19.090937   68.108490  0
-18.653681   15.963688   65.689499  0
-19.152414   17.020319   64.732552  0
-29.051216   17.927166   66.201744  0
-31.960003   16.681526   65.817726  0
-30.622261   17.759220   65.839760  0
-19.150055   16.133226   63.547344  0
-31.952997   17.324110   65.253403  0
-35.524960   15.284996   63.406334  0
-17.647617   15.679998   60.995895  0
-36.960457   14.343304   61.823196  0
-36.838726   15.256568   62.365852  0
-17.738358   16.361523   59.608356  0
-36.820343   14.242745   60.714588  0
-37.335186   15.339342   61.194511  0
-18.521780   16.491377   60.884060  0
-19.106476   16.974039   62.654118  0
-25.990791   17.385290   60.048000  0
-26.542927   17.175488   59.419769  0
-27.718203   17.982704   61.629025  0
-36.984657   15.017118   60.117664  0
-18.043863   16.097481   60.130451  0
-25.740135   17.819395   57.819256  0
-36.194447   14.361607   59.050938  0
-17.825975   16.399837   59.492428  0
-35.468582   13.043012   58.098068  0
-34.290771   11.802786   56.995586  0
-35.833405   11.512615   55.992569  0
-36.858521   12.758070   57.099876  0
-37.305595   14.871412   58.589123  0
-38.517082   13.648501   56.432632  0
-38.000702   12.009331   55.764191  0
-38.192184   15.251680   57.947777  0
-38.805237   15.511638   57.118694  0
-39.277523   14.812146   56.182327  0
-34.234184   10.904337   52.905743  0
-35.755180   11.239011   53.342922  0
-37.433052   11.478045   54.832684  0
-39.620068   12.436454   54.930729  0
-39.937981   14.458746   55.516941  0
-41.217297   14.176366   54.806316  0
-33.554359   11.623530   49.789257  0
-35.193024   11.572098   51.087337  0
-37.311707   11.664834   52.670429  0
  1.581059   15.004240   50.674641  0
  0.817028   15.597234   52.097572  0
-36.442772   11.835449   49.896488  0
-39.124763   12.070187   51.600822  0
  1.296440   15.558615   47.775959  0
 -0.858767   13.656173   46.256218  0
-32.631947   12.272529   47.854973  0
-34.117599   12.203416   48.335289  0
-37.883732   12.322929   47.864765  0
-35.970169   12.009516   47.859188  0
-39.135090   12.466752   49.451092  0
-43.101532   12.990429   53.978058  0
-44.644966   13.023810   52.701927  0
-43.292103   12.122846   52.462288  0
-44.587761   13.921086   53.300621  0
  0.171456   15.121366   46.337212  0
 -1.695390   14.463094   45.570568  0
 -3.220486   14.438830   45.591751  0
 -4.998681   15.000674   44.518898  0
-29.972383   12.173106   46.901886  0
-35.432396   12.024349   45.263275  0
-34.934311   11.873534   46.579247  0
-40.384171   12.171432   49.974804  0
-39.729763   12.597866   48.242935  0
-41.624233   12.219483   49.638859  0
-42.682381   11.973429   50.957214  0
-44.702114   12.896036   51.198040  0
-29.823071   11.420173   46.180767  0
-37.047272   12.825817   44.222950  0
-38.700134   12.950633   46.587124  0
-40.933865   13.420722   47.779984  0
-39.461254   13.779633   46.287369  0
-43.646332   12.947224   49.674538  0
-31.030172   10.765225   45.101719  0
-34.513851   11.753761   43.492493  0
-38.450550   13.981981   44.328808  0
 -6.600078   16.081064   42.829021  0
-32.219040   11.060911   43.660923  0
-32.971390   10.940230   45.033543  0
-32.381660   11.731281   42.454205  0
-33.753120   12.532093   42.114948  0
-34.182213   11.448424   45.295738  0
-35.268074   12.940824   42.458961  0
-37.176537   13.666571   42.980972  0
-33.062881   12.779010   41.610661  0
-35.918285   13.705437   42.023499  0
-34.462921   13.336428   41.274982  0
-31.544456   12.598078   40.407501  0
-32.683216   13.151256   40.520947  0
 -0.386051   17.096735   42.019547  0
  0.774826   16.626814   41.252338  0
 -1.818169   18.040997   42.256569  0
 -5.413415   16.906052   42.422421  0
 -7.931649   17.024580   42.129967  0
  0.275078   17.714182   40.665195  0
 -5.123291   18.171228   41.571304  0
  1.460848   16.121410   35.690010  0
  0.302004   15.670886   34.846863  0
 -0.701938   15.416154   34.223034  0
 -1.690211   15.094577   34.519386  0
 -2.070011   14.904238   34.361012  0
-34.724735   14.304444   38.445942  0
 -1.738226   15.820427   33.936623  0
-38.591198   13.913616   36.900841  0
-40.462246   13.672293   36.282463  0
 -0.851325   15.506340   31.962667  0
 -1.282656   15.636812   32.399654  0
 -1.195922   16.100842   33.734562  0
-43.756660   13.045508   34.837395  0
-44.673000   12.318257   32.886436  0
  0.502716   16.772970   30.813889  0
-44.749695   12.370079   31.469635  0
-43.627888   12.248525   29.873487  0
-25.577267   16.175909   24.575686  0
-26.272331   15.805632   23.281826  0
-26.974810   14.279825   23.175316  0
-41.724171   13.465201   26.605211  0
-27.075171   15.503968   22.338343  0
-29.721357   13.790032   21.368830  0
-42.137936   13.721593   25.777021  0
-30.144211   14.646509   20.090250  0
-42.930252   13.042646   25.443830  0
-32.693432   14.010877   19.921415  0
-34.222942   14.515551   18.912109  0
-44.387215   13.219150   25.264626  0
-45.993855   13.231560   24.146240  0
-46.495144   14.930149   19.862597  0
-45.705524   15.081103   18.698795  0
-46.882950   14.058487   22.545549  0
-26.821617   16.100679   22.234165  0
-40.683876   17.707617   17.843708  0
-44.931366   15.969478   18.282509  0
  0.677319   16.051161   18.637926  0
-27.527325   16.049063   21.011286  0
-28.115486   16.200964   20.304071  0
 -1.181759   15.568242   17.748621  0
-29.075994   16.083406   19.214506  0
 -1.866132   15.535717   16.145519  0
 -2.357116   15.667191   14.396431  0
-31.535866   16.697834   16.160564  0
 -2.642110   15.341701   12.725726  0
 -2.697641   16.099525   13.290343  0
-32.891850   17.212664   15.244147  0
 -2.245370   14.974514   11.693655  0
  0.016472   15.887457    9.660639  0
-35.909615   18.304794   13.275041  0
-37.348518   18.078209   12.063451  0
 -0.372961   15.301943    8.148723  0
-38.781483   18.186285   10.153678  0
-38.982548   19.065674    7.747058  0
 -0.863469   14.771345    7.138905  0
-38.087929   19.118332    5.169430  0
 -0.462918   14.243111    6.518048  0
-36.237488   19.978695    3.790213  0
-35.512566   19.197281    2.904732  0
 -0.993119   14.723659    6.059879  0
 -0.856224   15.220209    4.605834  0
-34.303379   19.636251    1.336158  0
-34.759357   20.502825    2.056344  0
-47.975780   17.283772   11.794119  0
-50.442543   17.253593   11.122680  0
-51.035641   16.794231   10.247972  0
-50.826675   17.426903    8.921990  0
 -0.154475   15.635698    1.857851  0
 -0.556263   15.745336    3.075386  0
-46.102818   17.203241   11.045461  0
-51.267380   17.374102    6.835182  0
-44.897579   16.643257    9.652019  0
-44.229656   16.998051    8.138060  0
-51.249603   17.539965    4.457794  0
 -1.730115   16.089025   -0.238363  0
 -2.783390   16.110466   -1.334300  0
 -4.541138   15.803539   -1.940505  0
 -7.296356   14.856076   -1.642901  0
-10.771424   14.414048   -2.587715  0
 -9.919369   15.486682   -2.437303  0
 -8.558229   16.261749   -2.040071  0
-32.195484   18.883457   -1.031084  0
-30.443300   18.294868   -1.602692  0
-43.433620   17.206614    6.903328  0
-50.730301   17.619511    2.936439  0
-49.454327   16.998022    1.613985  0
-13.456953   15.229922   -1.721384  0
-12.835780   15.610089   -1.893530  0
-14.045529   13.935966   -1.652301  0
-17.291515   11.783889   -1.782882  0
-19.839983   11.715418   -1.805554  0
-22.899769   12.585105   -1.725545  0
-22.958820   13.008523   -2.253129  0
-26.938829   16.396158   -2.493876  0
-28.808784   18.029230   -2.221845  0
-41.827251   17.059803    6.525108  0
-40.140457   16.697273    5.245030  0
-11.963581   15.507859   -2.263734  0
-39.226170   16.592720    2.869947  0
-39.114170   16.511097    1.783472  0
-46.314873   15.651411   -2.331372  0
-40.299557   17.172499   -0.081813  0
-45.714714   16.562143   -3.917647  0
-38.949024   16.388317   -1.194536  0
-37.650921   16.373804    0.189772  0
-36.361874   16.878241   -0.012872  0
-46.271175   16.183979   -6.642316  0
-35.460205   16.691128    0.186303  0
-45.666992   16.869265   -7.750410  0
-45.052204   15.781849   -8.539438  0
-32.440418   18.146475   -4.360539  0
-31.633896   18.446985   -4.522280  0
-32.469788   18.458494   -5.037570  0
-30.032051   19.468245   -5.675822  0
-31.099169   18.722450   -5.483298  0
-32.221828   18.529839   -5.503608  0
-26.943762   18.025877   -7.750134  0
-28.849211   18.262831   -7.190055  0
-29.802830   19.506277   -6.316820  0
-43.829769   16.971298   -9.819479  0
-37.238716   16.705360  -14.106546  0
-36.071182   17.057978  -14.271695  0
-36.788685   16.645330  -14.990664  0
-45.177540   16.778084  -10.395353  0
-46.824375   17.144377   -9.753947  0
-48.368958   16.995647   -9.582326  0
-38.609879   16.836517  -14.545038  0
-49.385521   16.082783  -13.784176  0
-49.454330   17.479437  -12.152723  0
-48.465656   17.597496  -14.031345  0
-26.325216   16.206133  -13.905937  0
-28.114136   15.954865  -15.295742  0
-38.283531   17.910130  -15.521046  0
-41.657658   15.365233  -15.971478  0
-43.585190   16.275381  -16.607197  0
-28.245129   16.382202  -15.905168  0
-39.929607   17.796043  -17.542805  0
-25.047104   18.280176  -16.133324  0
-26.734785   16.741545  -16.660017  0
-27.304350   16.772240  -16.969034  0
-38.739063   19.437721  -16.318665  0
-39.809078   19.349213  -17.716105  0
-40.729137   18.766417  -19.586245  0
-46.403439   17.000210  -17.771749  0
-20.646435   19.929941  -17.652718  0
-21.587727   19.975243  -16.959743  0
-20.248543   19.843519  -19.388012  0
-22.482395   20.641685  -16.596045  0
-23.878609   19.955894  -17.229113  0
-25.575777   18.762352  -17.506081  0
-40.810272   18.461365  -21.385733  0
-18.359804   19.843235  -21.915640  0
-18.906103   19.541084  -20.566322  0
-37.528519   16.678175  -22.938826  0
-40.158287   17.998543  -22.767244  0
-21.975250   15.046434  -26.182047  0
-21.081266   15.901222  -26.251152  0
-23.160175   15.019757  -24.343096  0
-25.891689   13.305367  -22.727875  0
-36.384800   18.437092  -21.387543  0
-35.653011   17.882065  -20.843344  0
-38.099922   18.514240  -22.656141  0
-39.594116   17.363159  -22.920233  0
-19.879282   16.981550  -25.288433  0
-36.167698   19.923428  -22.542828  0
-35.707592   21.311264  -24.392836  0
-36.213139   21.434834  -26.180952  0
-35.350006   21.039701  -27.482954  0
-30.764519   20.875122  -29.142811  0
-31.268793   20.943056  -28.555672  0
-33.007133   20.480274  -28.313129  0
-29.377728   20.806480  -29.077623  0
-11.318315   17.750885   73.838852  0
-11.461914   18.898895   72.874207  0
-10.542198   18.207518   73.495705  0
 -8.665396   18.394676   72.372299  0
-14.635095   18.168791   73.123772  0
-16.709002   18.969528   72.332191  0
-18.039667   17.608692   69.559822  0
-17.767736   18.920271   71.113754  0
 -6.698481   18.017971   71.543083  0
 -5.901593   16.067810   69.778145  0
-17.561356   16.580782   67.962120  0
-17.856146   18.314234   68.015480  0
-17.125856   17.322744   66.448914  0
-20.795464   19.898579   70.186417  0
-19.151972   19.487690   67.671577  0
-22.395369   20.701118   69.991455  0
-25.266800   20.119753   68.854271  0
-24.606710   20.954525   68.819214  0
  0.136106   16.262703   60.885391  0
  0.242994   16.537283   62.946449  0
-17.193407   16.960215   63.603695  0
-27.527596   18.998558   66.088226  0
-25.274607   20.539883   66.797287  0
-16.821470   17.840288   61.665890  0
-18.957808   18.209572   65.875275  0
-26.472797   19.691080   64.554802  0
-28.394215   19.131132   64.550453  0
-30.797371   18.745623   64.765205  0
-32.962925   17.877432   64.303116  0
-34.361210   17.114893   63.629528  0
-17.453751   17.392761   60.255157  0
-18.843088   19.104132   65.422363  0
-25.663843   19.610168   62.800938  0
-26.356667   18.849379   62.546062  0
-25.272442   20.599665   63.993217  0
-24.947449   19.955112   61.569412  0
-29.452959   19.075813   63.527847  0
-30.963984   19.191698   63.129635  0
-32.637238   18.993935   63.164040  0
-25.348034   18.565681   60.849895  0
-25.161003   19.162621   59.648544  0
-29.859964   18.736555   62.212502  0
-34.689251   18.250010   62.531151  0
-36.768688   16.602579   62.027943  0
-16.814720   17.981865   58.729107  0
-25.462904   18.177540   58.974865  0
-27.758640   17.591873   59.657433  0
-29.046669   18.043215   60.216896  0
-30.510193   18.424494   60.491177  0
-32.721500   19.224092   61.068535  0
-34.461773   19.201138   61.436302  0
-37.860607   16.689577   60.746944  0
-36.813160   18.450684   60.740078  0
-17.785643   17.267620   60.372471  0
-24.483232   19.846577   59.419304  0
-24.650043   18.777132   58.363693  0
-38.007042   15.909145   59.711414  0
-38.075260   17.765423   59.992813  0
-24.721649   18.050091   57.057175  0
-26.951229   17.859169   57.240963  0
-29.317501   18.157862   57.936607  0
-31.988918   18.879049   58.849331  0
-38.642250   16.810600   58.957561  0
-38.339504   18.639380   58.691055  0
-25.516695   17.669725   56.246326  0
-30.517281   18.633896   57.068211  0
-38.958397   17.325418   58.039101  0
-24.991022   17.518660   56.055328  0
-28.036085   18.254673   55.147312  0
-29.243994   18.682316   55.648178  0
-39.105206   16.873186   56.783821  0
-26.407673   17.701866   55.078411  0
-30.067097   18.942648   54.299850  0
-39.592457   16.262644   55.489578  0
-39.959305   16.482885   54.559860  0
-27.415979   18.349173   54.149197  0
-28.770006   18.949759   53.128891  0
  1.721578   15.879038   50.661766  0
  0.952846   16.381752   52.477901  0
  0.549900   16.700785   54.019333  0
-43.398388   14.875892   53.834507  0
-45.636097   14.506792   51.157749  0
 -1.119183   15.994949   44.739243  0
 -2.973812   15.449310   44.805027  0
-32.135338   12.169026   47.039467  0
-33.510880   11.504799   46.354954  0
-38.638817   17.682962   51.420334  0
-39.720417   17.656673   51.008636  0
-41.854500   16.426531   52.777206  0
-45.174168   13.624500   49.933945  0
 -6.136102   14.979246   43.971828  0
-31.959621   11.391922   46.082207  0
-42.636826   13.910163   48.136055  0
-41.151905   15.363188   46.371605  0
-44.850422   15.029874   48.208248  0
-37.844135   14.562076   42.654472  0
-39.801678   15.203464   45.138184  0
-38.622292   14.941138   43.086380  0
-36.885567   14.639478   42.133587  0
-34.836475   14.616625   41.225929  0
-32.455444   14.350918   40.099506  0
-30.172724   15.120718   40.093990  0
-28.224617   14.502358   39.903889  0
-28.645771   15.950391   40.001705  0
 -0.670195   18.678398   41.308689  0
 -1.716543   18.869108   41.700878  0
 -7.003139   18.726068   41.551315  0
  0.561903   18.015076   39.156677  0
  1.398075   17.543558   36.761028  0
  1.116754   17.820208   35.264915  0
-29.494795   15.705369   39.923058  0
  0.707180   16.670313   34.721790  0
 -0.153848   16.396545   34.492298  0
 -1.114341   16.016047   34.239697  0
-31.735664   15.792934   39.871479  0
-33.052761   16.409973   39.553993  0
-33.960358   15.626146   39.420376  0
-36.070858   15.059214   38.662666  0
-35.369625   16.001003   39.320557  0
-36.700871   15.352467   39.082542  0
-37.322067   14.627940   37.824066  0
-38.180046   14.389386   37.977207  0
-37.957596   15.112010   38.716908  0
 -1.176085   16.864677   33.913914  0
 -1.738041   16.574759   33.725601  0
-39.054951   14.688529   38.188828  0
 -0.913906   16.849817   33.757660  0
-42.816280   14.910469   37.351730  0
-45.250412   14.046487   35.480125  0
-46.541393   13.182913   32.987770  0
  1.168079   18.794268   29.140545  0
 -0.969420   16.610662   31.754358  0
-44.656513   13.489156   29.481369  0
-42.345135   13.583659   27.518314  0
-43.427349   13.356689   28.470057  0
-24.988235   17.996305   26.540104  0
-25.789017   18.519478   25.793217  0
-42.503395   14.098139   26.897110  0
-26.709118   17.074221   22.952873  0
-27.585218   15.697975   21.284573  0
-27.183624   17.335632   21.852688  0
-28.511488   15.019156   21.037262  0
-31.271236   14.108387   19.862307  0
-43.459255   14.330616   26.017044  0
-45.582558   13.974695   25.220345  0
-28.117727   17.347887   20.757704  0
-31.554335   15.035338   18.944580  0
-32.963764   15.192513   17.897654  0
-34.859966   15.894769   17.611700  0
-46.786789   14.609967   24.341328  0
-47.267345   15.032098   22.070707  0
-26.396391   17.319483   23.252710  0
-25.932314   17.566744   24.111855  0
-37.687828   17.071323   17.175049  0
-43.057076   17.150934   18.064726  0
-43.359692   17.829365   17.915895  0
-45.676788   16.925755   18.785587  0
-46.984936   16.588408   20.028328  0
-26.854921   17.856247   22.704836  0
 -1.579985   16.357521   16.616959  0
-29.968941   16.916595   18.487780  0
 -2.123609   16.627186   15.332996  0
-30.963060   16.938375   17.179331  0
-31.888474   17.797001   16.219271  0
 -2.117285   16.915840   14.055962  0
  0.339694   19.011768   10.407646  0
-34.341648   18.046108   14.333869  0
  0.007143   18.073633    9.929169  0
 -0.235285   17.387585    9.594629  0
 -0.349426   16.755116    8.944022  0
-38.822285   19.293699    9.527908  0
 -0.826417   16.226271    7.840432  0
-38.286263   20.096085    6.511600  0
 -1.285180   16.050497    7.018292  0
 -1.339647   16.861822    5.778071  0
-33.541759   21.300755    2.234812  0
-34.887489   21.075943    2.793790  0
-33.451355   22.433914    3.266193  0
-31.811043   22.060957    3.820213  0
-32.068146   21.819279    2.633807  0
-35.366264   21.526985    3.740876  0
-37.607807   20.654583    5.256308  0
 -1.288765   16.735399    3.894683  0
-49.082916   18.254927   11.989063  0
-50.148540   18.510433   10.797137  0
-46.674568   18.496958   11.490846  0
 -0.647799   17.262642    2.367273  0
-32.535084   20.225843    0.551358  0
-50.964901   19.504801    6.561803  0
 -1.160209   16.963123    0.765265  0
-45.092541   18.186319   10.285844  0
-44.065804   18.349169    8.464458  0
 -2.312666   17.101252   -0.420438  0
 -4.105851   17.165941   -1.809994  0
-31.382547   19.925104   -0.845132  0
-43.279381   18.924755    7.546370  0
 -5.990171   16.496342   -2.302524  0
 -6.914928   17.317905   -2.203926  0
-11.903511   17.141434   -1.968438  0
-12.361666   16.985733   -1.533423  0
-30.273357   19.374500   -1.659934  0
-42.095963   18.172586    6.996472  0
-40.541035   18.360571    5.988471  0
-49.116669   18.742001    1.395813  0
 -9.978891   16.518854   -2.275303  0
-10.848922   16.691040   -2.480978  0
-13.741064   14.054776   -1.530012  0
-25.301802   14.569984   -2.538227  0
-28.244469   18.923784   -2.874055  0
-39.272793   17.471785    4.640133  0
-14.728533   12.636570   -2.047433  0
-19.235447   11.778522   -2.403517  0
-21.586422   12.125381   -2.686758  0
-24.884109   14.763992   -3.222494  0
-26.482767   17.446218   -3.427742  0
