#!ascii file
31125  31126  31136  0
30320  30836  31129  0
30527  30322  31137  0
30527  31137  30533  0
31138  30533  31137  0
30833  30528  31133  0
31139  31133  30528  0
31140  31139  30528  0
31141  30844  31125  0
31125  31136  31141  0
30850  31142  30852  0
31142  30850  31143  0
30533  31138  31144  0
30533  31144  30854  0
30535  30845  31145  0
30528  30846  31140  0
31146  31147  31148  0
31148  30862  31146  0
31149  31146  30862  0
31150  31149  30862  0
30844  31141  30848  0
31151  30848  31141  0
31141  31136  31151  0
30836  30099  30849  0
30836  30849  31152  0
30850  30853  31153  0
31154  31153  30853  0
30853  30859  31154  0
31155  31154  30859  0
30854  31144  31156  0
30854  31156  30855  0
30846  31148  31140  0
30861  31148  30846  0
31148  30861  30862  0
30863  31150  30862  0
31150  30863  31157  0
30847  30848  30856  0
30848  31151  31158  0
31159  30849  30857  0
31160  31161  30851  0
30858  30851  31161  0
30852  31160  30851  0
30863  31162  31157  0
30856  30848  30865  0
31163  31159  30857  0
31161  31160  31164  0
30859  30558  31155  0
31165  31155  30558  0
31166  31165  30558  0
30860  30855  31167  0
30863  30867  31162  0
30871  31162  30867  0
31162  31168  31169  0
31162  31169  31157  0
31162  30871  31168  0
31170  31171  31172  0
31170  31172  31173  0
31171  31170  31174  0
31171  31174  31175  0
30866  31176  30857  0
30857  31176  31163  0
31161  30878  30858  0
30870  30858  30878  0
31161  31164  31177  0
31161  31177  30878  0
30558  30559  31166  0
30871  30872  31178  0
30871  31178  31168  0
30869  31179  30873  0
30882  30881  31180  0
31180  31172  30882  0
31180  31173  31172  0
31172  31171  30882  0
31181  30882  31171  0
31171  31175  31181  0
31175  31182  31181  0
31183  31181  31182  0
31175  31184  31182  0
31182  31185  31183  0
30883  31183  31185  0
31182  31184  31185  0
31185  31176  30883  0
30876  30883  31176  0
31185  31184  31176  0
31176  30866  30876  0
31186  30878  31177  0
31166  30559  31187  0
31166  31187  31188  0
30559  30338  31189  0
30559  31189  31187  0
30872  31190  31178  0
30873  31179  31191  0
30873  31191  30879  0
30881  31179  31180  0
30881  30880  31192  0
30881  31192  31179  0
30882  31181  30888  0
31181  31183  31193  0
31183  30883  30889  0
31183  30889  31193  0
31186  31194  30887  0
31186  30887  30878  0
30872  30879  31191  0
30872  31191  31190  0
30880  31195  31192  0
30880  30888  31196  0
30880  31196  31195  0
30888  31197  31196  0
30888  31181  31197  0
31181  31193  31197  0
31193  30889  31198  0
31193  31198  31199  0
31193  31199  31197  0
30889  30890  31198  0
30887  30892  30886  0
30887  31194  31200  0
30887  31200  30892  0
31199  31198  31201  0
31198  30890  31201  0
30890  30893  31201  0
30892  31200  30898  0
30893  30894  31202  0
30893  31202  31201  0
30894  30896  31203  0
30894  31203  31202  0
31204  30897  30898  0
31204  30898  31200  0
31204  31200  31205  0
31204  31205  31206  0
30896  30899  31203  0
30899  30900  31207  0
30900  30347  31207  0
31204  31206  31208  0
31204  31208  30897  0
30897  31208  30901  0
30347  30579  31207  0
30579  30901  31208  0
30579  31208  31207  0
30903  30904  30905  0
30903  30905  30581  0
30904  31209  30905  0
30905  31209  30906  0
30589  30907  30904  0
30906  31209  30907  0
30592  30591  31210  0
30362  30595  31211  0
30362  31211  30591  0
30592  31210  31212  0
30592  31212  30593  0
30595  31213  31211  0
30593  31212  31214  0
30593  31214  30594  0
30596  31215  31213  0
30596  31213  30595  0
30594  31214  30908  0
31216  30908  31214  0
31217  30918  30915  0
31217  30915  31218  0
31217  31218  31219  0
31217  31220  30918  0
31221  30908  31216  0
30912  30599  30909  0
30599  30912  30602  0
30915  30914  31222  0
30915  31222  31218  0
30918  31220  30916  0
31223  30916  31220  0
30364  31224  30910  0
30600  30908  31221  0
30913  31222  30914  0
30916  31223  30921  0
30600  31225  30922  0
31226  30922  31225  0
30919  30923  30911  0
30911  30923  31227  0
30913  30926  31222  0
31222  30926  31228  0
30922  31226  30929  0
30923  30621  30932  0
30923  30932  31227  0
31229  30924  30925  0
30924  31229  30930  0
31230  30930  31229  0
30926  30624  31231  0
30926  31231  31228  0
30927  30936  30397  0
31226  31232  30929  0
30932  30933  31233  0
30932  31233  31227  0
30930  31230  30935  0
30386  29988  30936  0
31232  31234  30938  0
31232  30938  30929  0
31235  30934  30935  0
30624  30940  31231  0
31234  31236  30938  0
30938  31236  30937  0
30630  30941  30933  0
30933  30941  31237  0
30940  30939  31238  0
31239  31236  31234  0
31236  30942  30937  0
31240  31236  31239  0
30941  30943  31241  0
31235  31242  30934  0
30944  30934  31242  0
30939  30944  31238  0
31236  31240  30942  0
31243  30942  31240  0
30942  31243  30947  0
31244  30947  31243  0
30947  31244  30949  0
31245  30949  31244  0
30950  30949  31246  0
31245  31246  30949  0
31247  30950  31246  0
31248  30953  30951  0
30953  31249  30954  0
31250  30954  31249  0
30954  31251  30955  0
30960  30955  31251  0
30954  31250  31251  0
31252  31251  31250  0
31251  31253  30960  0
30961  30960  31253  0
31251  31252  31253  0
31254  30961  31253  0
30957  30950  31255  0
31247  31255  30950  0
31256  30957  31255  0
31248  30951  30958  0
31257  30958  30959  0
30961  31254  30651  0
30964  30651  31254  0
31254  31258  30964  0
30966  31259  30956  0
30962  30957  31256  0
30645  30967  30959  0
31260  30959  30967  0
30964  31261  30965  0
31262  30965  31261  0
30648  30963  30970  0
30968  31263  30967  0
31260  30967  31263  0
30965  31262  30969  0
31262  31264  30969  0
30971  30969  31264  0
30975  30971  31264  0
30417  30652  30966  0
30653  30970  30972  0
31263  30968  31265  0
31266  31265  30968  0
31267  31268  31269  0
31270  31269  31268  0
31268  31271  31270  0
31272  31270  31271  0
31271  31273  31272  0
30971  30975  30974  0
30652  30975  30966  0
30977  30976  31274  0
30972  31274  30976  0
31275  30977  31274  0
30657  30972  30976  0
30968  30973  31266  0
31276  31266  30973  0
31275  30677  30977  0
31276  30973  30979  0
31267  31277  31268  0
31278  31268  31277  0
31268  31278  31271  0
31273  31279  31280  0
31280  31279  31281  0
30980  31282  30979  0
30979  31282  31283  0
30979  31283  31276  0
31276  31283  31284  0
31276  31284  31285  0
31278  31286  31271  0
31279  31271  31286  0
31271  31279  31273  0
30677  31287  30989  0
31288  30434  30984  0
30434  31288  30978  0
30978  31288  30980  0
31279  31289  31281  0
30982  31290  30983  0
30982  30985  31290  0
30981  30983  30986  0
30985  30991  31290  0
30986  30983  31291  0
31292  30984  30988  0
30678  30989  31293  0
31294  31295  31002  0
30685  31002  31295  0
31296  31294  31002  0
30680  30685  31295  0
31295  31294  31297  0
31295  31297  30680  0
30680  31297  30991  0
30994  30986  31291  0
31298  31292  30988  0
30678  31293  31299  0
30678  31299  31000  0
31000  31299  31300  0
31000  31300  31001  0
31001  31300  31296  0
31001  31296  31002  0
31003  30995  31301  0
30994  31301  30995  0
31003  31301  31302  0
31003  31302  31004  0
30988  30992  31303  0
31304  31303  30992  0
30988  31303  31298  0
30992  30996  31304  0
31008  31304  30996  0
31004  31302  31305  0
31004  31305  31007  0
31306  31304  31008  0
31307  31306  31008  0
31008  31009  31307  0
31013  31307  31009  0
31007  31305  31308  0
31007  31308  31012  0
31304  31306  31309  0
31310  31309  31306  0
31306  31307  31310  0
31311  31013  31010  0
31010  31014  31311  0
31312  31307  31013  0
31013  31311  31312  0
31313  31312  31311  0
31311  31014  31313  0
31014  31015  31313  0
31015  31018  31313  0
30698  31018  31016  0
31016  31017  30698  0
31012  31314  31019  0
31315  31020  30695  0
30695  30696  31315  0
30696  31019  31316  0
30696  31316  31315  0
31020  31315  31317  0
31026  31318  31027  0
31022  31319  31028  0
31022  31021  31320  0
31028  31321  30702  0
30702  31321  31029  0
31032  31322  31033  0
31023  31033  31323  0
31023  31323  30703  0
30703  31323  31035  0
30703  31035  31025  0
30713  31038  31324  0
30713  31324  30715  0
30715  31324  31036  0
31026  31036  31318  0
31022  31320  31319  0
31029  31325  30716  0
31032  31037  31326  0
31032  31326  31322  0
31033  31322  31327  0
31033  31327  31323  0
31034  31035  31328  0
31034  31328  30711  0
30711  31328  31329  0
30711  31329  30712  0
30712  31329  31330  0
30712  31330  31038  0
31331  30716  31325  0
31332  30263  30716  0
31332  30477  30269  0
31332  30269  30263  0
31333  30477  31332  0
31039  31334  31037  0
31045  31041  31049  0
31041  30726  31049  0
30726  31042  31049  0
31039  31047  31335  0
31039  31335  31334  0
31040  31044  31043  0
31044  31059  31336  0
31044  31045  31059  0
31045  31049  31059  0
31335  31047  31337  0
31043  31044  30762  0
31043  30762  30751  0
31044  31336  30762  0
31047  30740  30760  0
31047  30760  31338  0
31047  31338  31337  0
31336  31059  30764  0
31336  30764  30762  0
31059  31049  31056  0
31049  31051  31056  0
30760  31055  31338  0
30769  31057  31339  0
30769  31339  31055  0
30764  31059  31058  0
31340  30778  31054  0
31057  30781  31064  0
31057  31064  31339  0
30778  31340  31061  0
30759  31341  31063  0
31064  31065  31342  0
31065  30788  31343  0
30785  31061  30786  0
31061  31340  30786  0
31068  31066  31341  0
30788  30789  31343  0
30790  31344  31067  0
31345  31067  31344  0
30790  30786  31346  0
30790  31346  31344  0
30786  31347  31346  0
31062  30285  31348  0
30789  30792  31349  0
30789  31349  31343  0
31070  31350  31071  0
31069  31067  31345  0
31069  31345  31070  0
30285  29904  31348  0
31068  31351  31072  0
31352  30794  31353  0
30794  31076  31353  0
30794  31352  30792  0
31349  30792  31352  0
30797  31073  30802  0
31077  30802  31073  0
31350  31073  31071  0
31354  30800  30799  0
31355  30799  31075  0
30800  31354  31076  0
30807  31077  30804  0
31356  30804  31077  0
31357  31356  31077  0
31072  31358  31074  0
31359  31074  31358  0
31074  31359  31078  0
31360  31078  31359  0
31078  31360  31079  0
31361  31079  31360  0
31083  31075  30803  0
31362  31355  31075  0
31075  31083  31362  0
31083  31084  31362  0
31363  31362  31084  0
30804  31356  31080  0
31364  31080  31356  0
31365  31081  30811  0
31079  31361  31082  0
31366  31082  31361  0
31084  31080  31363  0
31364  31363  31080  0
31086  31091  31367  0
31368  31367  31091  0
31367  30811  31086  0
31367  31365  30811  0
31082  31366  31087  0
31369  31087  31366  0
31364  31370  31371  0
31370  31364  31372  0
31373  31372  31364  0
31091  31092  31368  0
31087  31369  31095  0
31100  31099  31370  0
31370  31372  31100  0
31101  31100  31372  0
31372  31373  31101  0
31102  31101  31373  0
31373  31374  31102  0
31113  31102  31374  0
31375  31092  31096  0
30317  31105  31093  0
31109  31376  31108  0
31377  31376  31109  0
31098  31377  31109  0
31378  31099  30816  0
31102  31113  31111  0
31375  31096  31104  0
31379  31375  31104  0
31105  30317  29718  0
31376  31380  31108  0
30816  30825  31378  0
31381  31378  30825  0
31116  31115  31382  0
31116  31382  31122  0
31122  31382  31383  0
31124  31135  31379  0
31379  31135  31384  0
31383  31384  31135  0
31379  31104  31124  0
31117  31124  31104  0
31118  31119  31127  0
31385  31127  31119  0
31119  31105  31386  0
31119  31386  31385  0
30825  31120  31381  0
31387  31381  31120  0
31388  31387  31120  0
31120  31132  31388  0
31133  31388  31132  0
31122  31383  31134  0
31135  31134  31383  0
31127  31385  31126  0
30322  31130  31137  0
31110  31108  31131  0
31389  31136  31126  0
31126  31385  31390  0
31126  31390  31389  0
31142  31143  31391  0
30535  31392  30323  0
31139  31140  31393  0
31147  31393  31140  0
31136  31389  31151  0
31129  30836  31152  0
31394  31129  31152  0
30852  31142  31395  0
31391  31395  31142  0
31153  31143  30850  0
31148  31147  31140  0
31396  31150  31157  0
31150  31396  31397  0
31398  31397  31396  0
31151  31389  31399  0
31400  31394  31152  0
31401  31160  31402  0
31402  31160  30852  0
31402  30852  31403  0
31395  31403  30852  0
31154  31155  31404  0
31396  31157  31405  0
31396  31405  31398  0
31406  31158  31151  0
31151  31399  31406  0
31400  31152  31159  0
31400  31159  31407  0
31152  30849  31159  0
31160  31401  31408  0
31160  31408  31164  0
31155  31409  31404  0
31157  31169  31405  0
30848  31158  30865  0
31410  31411  31170  0
31410  31170  31173  0
31410  31407  31411  0
31411  31174  31170  0
31411  31159  31163  0
31411  31163  31174  0
31411  31407  31159  0
31164  31408  31412  0
31155  31165  31409  0
30855  31156  31413  0
30855  31413  31167  0
31169  31168  31414  0
30865  31158  31415  0
31415  31173  31180  0
31415  31158  31406  0
31415  31406  31173  0
31173  31406  31410  0
31174  31163  31184  0
31174  31184  31175  0
31163  31176  31184  0
31412  31416  31177  0
31412  31408  31417  0
31412  31417  31416  0
31412  31177  31164  0
31166  31188  31418  0
31166  31418  31165  0
31168  31419  31414  0
31168  31178  31419  0
30869  30865  31179  0
30865  31180  31179  0
30865  31415  31180  0
31177  31416  31420  0
31177  31420  31186  0
31188  31421  31418  0
31178  31190  31419  0
31419  31190  31422  0
31179  31192  31191  0
31186  31423  31194  0
31186  31420  31423  0
31424  31423  31420  0
31187  31421  31188  0
31190  31191  31422  0
31191  31192  31425  0
31191  31425  31422  0
31192  31195  31426  0
31192  31426  31425  0
31195  31196  31427  0
31195  31427  31426  0
31196  31428  31427  0
31196  31197  31428  0
31197  31429  31428  0
31197  31199  31430  0
31197  31430  31429  0
31423  31431  31432  0
31423  31432  31194  0
31423  31424  31431  0
31433  31431  31424  0
31194  31432  31200  0
31187  31434  31421  0
31199  31201  31430  0
31201  31435  31430  0
31431  31436  31205  0
31431  31205  31432  0
31431  31433  31436  0
31437  31436  31433  0
31432  31205  31200  0
31201  31202  31438  0
31201  31438  31435  0
31202  31203  31439  0
31202  31439  31438  0
31436  31437  31205  0
31206  31205  31437  0
31203  30899  31439  0
30899  31207  31440  0
30899  31440  31439  0
31207  31206  31440  0
31206  31207  31208  0
30904  30907  31209  0
30591  31211  31441  0
30591  31441  31210  0
31210  31442  31212  0
31443  31212  31442  0
31217  31219  31220  0
31214  31212  31443  0
31219  31444  31220  0
31445  31220  31444  0
30596  30910  31215  0
31446  31221  31216  0
30909  30911  31447  0
30909  31447  30912  0
31218  31222  31448  0
31220  31445  31223  0
30600  31221  31225  0
30912  31447  30920  0
31222  31449  31448  0
31450  31223  31445  0
31225  31221  31446  0
31225  31446  31226  0
31451  31226  31446  0
30911  31227  31452  0
30911  31452  31447  0
30920  31447  30925  0
31453  30925  31447  0
31222  31228  31449  0
31454  31449  31228  0
30921  31223  30927  0
31223  31450  30927  0
31455  30927  31450  0
31224  30364  30608  0
31456  31452  31227  0
30925  31453  31229  0
31457  31229  31453  0
31229  31457  31230  0
31228  31231  31454  0
31458  31454  31231  0
30927  30386  30936  0
30927  31455  30386  0
30608  30386  31455  0
31226  31451  31232  0
31459  31232  31451  0
31227  31233  31456  0
31460  31456  31233  0
31235  30935  31230  0
31231  31238  31458  0
31461  31458  31238  0
31232  31459  31234  0
31233  30933  31460  0
31231  30940  31238  0
31462  31461  31238  0
31463  31234  31459  0
31237  31460  30933  0
31235  31464  31242  0
31234  31463  31239  0
31465  31239  31463  0
31239  31465  31240  0
31466  31240  31465  0
30941  31241  31237  0
31467  31237  31241  0
31462  31238  30944  0
31240  31466  31243  0
31243  31466  31244  0
31468  31244  31466  0
31242  31469  30944  0
31242  31470  31469  0
31244  31468  31245  0
31471  31245  31468  0
31250  31249  31472  0
31473  31472  31249  0
31472  31474  31250  0
31475  31250  31474  0
31250  31475  31252  0
31476  31252  31475  0
31252  31476  31253  0
31477  31253  31476  0
31241  30943  31478  0
30956  31478  30943  0
31241  31478  31479  0
31480  31469  31470  0
31246  31245  31481  0
31471  31481  31245  0
31246  31481  31247  0
30953  31248  31249  0
31473  31249  31248  0
31253  31482  31254  0
31258  31254  31482  0
31253  31477  31482  0
31482  31483  31258  0
31484  31258  31483  0
31485  31483  31482  0
31486  31484  31483  0
31478  30956  31259  0
31487  31488  31489  0
31489  30962  31256  0
31489  31256  31487  0
31490  31487  31256  0
31256  31255  31490  0
31491  31490  31255  0
31255  31247  31491  0
30958  31492  31248  0
30958  31257  31492  0
31493  31494  31495  0
31495  31494  31496  0
31497  31496  31494  0
31498  31495  31496  0
31494  31493  31499  0
31500  31499  31493  0
31494  31499  31497  0
31501  31497  31499  0
31499  31500  31501  0
31258  31484  30964  0
31261  30964  31484  0
31484  31486  31261  0
31262  31261  31486  0
31502  31262  31503  0
31262  31486  31503  0
30966  31504  31259  0
31505  31506  31507  0
31506  31508  31507  0
31507  30970  31489  0
30963  31489  30970  0
31507  31489  31505  0
31488  31505  31489  0
31489  30963  30962  0
30959  31260  31257  0
31509  31257  31260  0
31257  31509  31492  0
31498  31492  31509  0
31509  31510  31495  0
31493  31495  31510  0
31509  31495  31498  0
31493  31511  31500  0
31500  31511  31512  0
31272  31512  31511  0
31513  31500  31512  0
31512  31272  31513  0
31514  31513  31272  0
31262  31502  31264  0
30975  31264  31502  0
31502  31503  31515  0
31502  31504  30975  0
30966  30975  31504  0
31502  31515  31504  0
30970  31507  31516  0
31516  31507  31508  0
31516  31508  31517  0
31260  31518  31509  0
31519  31509  31518  0
31260  31263  31518  0
31509  31519  31510  0
31269  31510  31519  0
31510  31269  31493  0
31270  31493  31269  0
31493  31270  31511  0
31272  31511  31270  0
31517  31274  31516  0
30972  31516  31274  0
31516  30972  30970  0
31518  31520  31519  0
31277  31519  31520  0
31518  31266  31520  0
31519  31277  31269  0
31267  31269  31277  0
31272  31273  31514  0
31280  31514  31273  0
31514  31280  31521  0
31522  31523  31280  0
31280  31523  31521  0
31274  31517  31275  0
31266  31276  31520  0
31285  31520  31276  0
31520  31285  31277  0
31524  31280  31281  0
31280  31524  31522  0
30677  31275  31525  0
31285  31284  31277  0
31526  31277  31284  0
31277  31526  31278  0
31527  31524  31281  0
31524  31528  31529  0
31530  31282  30980  0
31282  31530  31283  0
31531  31283  31530  0
31283  31531  31284  0
31526  31284  31531  0
31526  31532  31278  0
31286  31278  31532  0
31524  31527  31528  0
31288  31533  30980  0
30980  31533  31534  0
30980  31534  31530  0
31530  31534  31535  0
31530  31535  31531  0
31531  31536  31526  0
31526  31536  31532  0
31289  31537  31281  0
31281  31537  31527  0
31290  31538  30983  0
30984  31539  31288  0
31288  31539  31540  0
31288  31540  31533  0
31533  31540  31541  0
31533  31541  31542  0
31533  31542  31534  0
31534  31542  31535  0
31531  31535  31543  0
31531  31543  31536  0
31532  31536  31286  0
31286  31536  31289  0
31286  31289  31279  0
31537  31544  31527  0
31294  31545  31297  0
31294  31546  31545  0
31545  31290  30991  0
31545  30991  31297  0
31545  31547  31290  0
31290  31547  31538  0
31538  31291  30983  0
30984  31292  31539  0
31540  31548  31541  0
31541  31548  31542  0
31542  31543  31535  0
31543  31549  31536  0
31536  31549  31550  0
31536  31550  31289  0
30989  31551  31293  0
31294  31296  31546  0
31291  31538  31552  0
31291  31552  30994  0
31292  31553  31539  0
31539  31553  31554  0
31539  31554  31540  0
31540  31554  31548  0
31542  31548  31549  0
31542  31549  31543  0
31299  31555  31300  0
31300  31555  31556  0
31300  31556  31296  0
31296  31556  31546  0
31301  30994  31552  0
31301  31552  31557  0
31301  31557  31558  0
31301  31558  31302  0
31293  31559  31299  0
31299  31559  31560  0
31299  31560  31555  0
31555  31560  31556  0
31556  31560  31561  0
31556  31561  31546  0
31302  31558  31562  0
31302  31562  31305  0
31298  31303  31309  0
31303  31304  31309  0
31560  31559  31563  0
31560  31563  31561  0
31561  31563  31564  0
31561  31564  31565  0
31305  31566  31567  0
31305  31567  31308  0
31305  31562  31568  0
31305  31568  31566  0
31566  31568  31569  0
31566  31569  31567  0
31309  31310  31570  0
31559  31571  31572  0
31559  31572  31563  0
31308  31567  31314  0
31308  31314  31012  0
31567  31569  31573  0
31567  31573  31314  0
31570  31310  31574  0
31310  31307  31575  0
31310  31575  31574  0
31307  31312  31575  0
31312  31576  31575  0
31312  31313  31577  0
31312  31577  31576  0
31313  31578  31577  0
31313  31018  31579  0
31313  31579  31578  0
31018  30698  31580  0
31018  31580  31579  0
31571  31581  31582  0
31571  31582  31572  0
31563  31572  31583  0
31572  31582  31583  0
31314  31573  31019  0
31584  31019  31573  0
31580  30698  31585  0
31581  31586  31582  0
31019  31584  31316  0
30698  30700  31585  0
31316  31587  31315  0
31317  31315  31587  0
31317  31587  31588  0
31021  31020  31589  0
31020  31317  31589  0
30700  31027  31585  0
31590  31324  31038  0
31590  31038  31330  0
31591  31324  31590  0
31324  31591  31036  0
31592  31036  31591  0
31036  31592  31318  0
31319  31593  31028  0
31028  31593  31325  0
31028  31325  31321  0
31321  31325  31029  0
31322  31594  31327  0
31595  31327  31594  0
31322  31326  31594  0
31328  31035  31323  0
31328  31596  31329  0
31597  31329  31596  0
31328  31598  31596  0
31329  31597  31330  0
31590  31330  31597  0
31320  31599  31319  0
31319  31599  31593  0
31600  31325  31593  0
31325  31600  31331  0
31331  31601  30716  0
31332  30716  31601  0
31326  31602  31594  0
31327  31595  31323  0
31603  31323  31595  0
31323  31603  31328  0
31598  31328  31603  0
31331  31600  31601  0
31326  31037  31602  0
31604  31602  31037  0
31333  31332  31601  0
31037  31334  31604  0
31605  31604  31334  0
31053  30477  31333  0
31606  31334  31335  0
31334  31606  31605  0
31607  31605  31606  0
31335  31337  31606  0
31608  31337  31338  0
31609  31608  31338  0
31338  31055  31609  0
31339  31609  31055  0
31609  31339  31610  0
30748  31052  31611  0
31612  30759  30749  0
31339  31064  31613  0
31342  31613  31064  0
31054  30748  31340  0
31611  31340  30748  0
31614  31611  31052  0
30759  31612  31341  0
31615  31341  31612  0
31616  31342  31065  0
31340  31611  31617  0
31062  31614  31052  0
31063  31341  31066  0
31065  31343  31616  0
31618  31616  31343  0
30786  31340  31347  0
31617  31347  31340  0
31351  31341  31619  0
31615  31619  31341  0
31344  31346  31620  0
31621  31620  31346  0
31344  31620  31345  0
31346  31347  31621  0
31622  31621  31347  0
31348  31614  31062  0
31341  31351  31068  0
31623  31350  31070  0
31070  31345  31623  0
31620  31623  31345  0
31624  31072  31351  0
31076  31354  31353  0
31352  31353  31354  0
31352  31625  31349  0
31073  31350  31077  0
31626  31077  31350  0
31072  31624  31358  0
30799  31355  31354  0
31626  31357  31077  0
31348  29904  31627  0
29904  31081  31627  0
31628  31359  31358  0
31359  31628  31360  0
31629  31360  31628  0
31360  31629  31361  0
31630  31361  31629  0
31362  31363  31631  0
31632  31631  31363  0
31356  31357  31364  0
31633  31364  31357  0
31081  31365  31634  0
31367  31634  31365  0
31366  31361  31635  0
31635  31361  31636  0
31630  31636  31361  0
31635  31636  31637  0
31363  31364  31632  0
31638  31632  31364  0
31639  31367  31368  0
31639  31640  31367  0
31635  31637  31641  0
31635  31641  31366  0
31366  31641  31642  0
31366  31642  31369  0
31371  31638  31364  0
31643  31371  31370  0
31364  31633  31373  0
31374  31373  31633  0
31368  31092  31644  0
31379  31644  31092  0
31645  31376  31646  0
31647  31645  31646  0
31377  31646  31376  0
31648  31647  31646  0
31646  31377  31648  0
31649  31648  31377  0
31099  31378  31370  0
31650  31370  31378  0
31370  31650  31643  0
31374  31651  31113  0
31115  31113  31651  0
31374  31652  31651  0
31651  31652  31653  0
31651  31654  31115  0
31382  31115  31654  0
31651  31653  31654  0
31655  31656  31379  0
31379  31092  31375  0
31380  31376  31645  0
31377  31098  31657  0
31377  31657  31649  0
31369  31649  31657  0
31657  31098  31369  0
31383  31382  31655  0
31382  31654  31655  0
31655  31384  31383  0
31384  31655  31379  0
31378  31381  31658  0
31105  29718  31128  0
31105  31128  31386  0
31387  31388  31659  0
31387  31659  31381  0
31388  31133  31659  0
31386  31128  31394  0
31386  31394  31385  0
31128  31129  31394  0
31130  30323  31660  0
30323  31392  31660  0
31108  31661  31131  0
31133  31139  31662  0
31133  31662  31659  0
31663  31146  31149  0
31663  31149  31664  0
31664  31149  31665  0
31664  31665  31666  0
31665  31149  31667  0
31665  31667  31668  0
31385  31394  31390  0
31403  31395  31669  0
31403  31669  31670  0
31669  31395  31391  0
31391  31143  31153  0
30535  31145  31392  0
31139  31393  31662  0
31393  31147  31146  0
31149  31150  31397  0
31149  31397  31667  0
31390  31394  31400  0
31390  31400  31389  0
31403  31670  31671  0
31403  31671  31401  0
31403  31401  31402  0
31153  31154  31672  0
31145  31673  31392  0
31145  31674  31673  0
31397  31398  31675  0
31397  31675  31676  0
31397  31676  31667  0
31389  31400  31399  0
31401  31677  31678  0
31154  31404  31679  0
31154  31679  31672  0
31398  31405  31680  0
31398  31680  31675  0
31399  31407  31410  0
31399  31400  31407  0
31678  31417  31408  0
31678  31408  31401  0
31404  31409  31681  0
31404  31681  31679  0
31144  31138  31682  0
31144  31682  31156  0
31405  31169  31683  0
31405  31683  31680  0
31406  31399  31410  0
31417  31678  31684  0
31409  31165  31681  0
31156  31682  31685  0
31156  31685  31413  0
31683  31169  31686  0
31417  31684  31416  0
31687  31165  31418  0
31687  31681  31165  0
31413  31685  31688  0
31414  31689  31169  0
31686  31169  31689  0
31414  31419  31689  0
31690  31416  31684  0
31418  31421  31691  0
31418  31691  31692  0
31418  31692  31687  0
31419  31422  31693  0
31419  31693  31689  0
31693  31422  31425  0
31426  31427  31694  0
31694  31427  31428  0
31694  31428  31695  0
31695  31428  31696  0
31696  31428  31429  0
31696  31697  31695  0
31416  31698  31424  0
31416  31424  31420  0
31416  31690  31698  0
31699  31700  31701  0
31429  31430  31696  0
31702  31696  31430  0
31698  31703  31424  0
31433  31424  31703  0
31704  31703  31698  0
31705  31691  31421  0
31421  31434  31705  0
31706  31705  31434  0
31434  31189  31706  0
31707  31706  31189  0
31189  31708  31707  0
31708  31701  31707  0
31430  31435  31702  0
31709  31702  31435  0
31710  31709  31435  0
31703  31711  31433  0
31437  31433  31711  0
31703  31704  31711  0
31712  31711  31704  0
31435  31438  31710  0
31438  31439  31711  0
31438  31711  31710  0
31712  31710  31711  0
31711  31439  31437  0
31440  31437  31439  0
31437  31440  31206  0
31210  31441  31442  0
31713  31442  31441  0
31714  31441  31211  0
31444  31219  31715  0
31211  31213  31714  0
31716  31714  31213  0
31214  31443  31216  0
31717  31216  31443  0
31219  31218  31718  0
31719  31718  31218  0
31720  31445  31444  0
31721  31213  31215  0
31216  31717  31446  0
31722  31446  31717  0
31218  31448  31719  0
31719  31448  31723  0
31724  31723  31448  0
31450  31445  31720  0
30910  31721  31215  0
31724  31448  31449  0
31446  31725  31451  0
31453  31447  31452  0
31449  31454  31724  0
31726  31724  31454  0
31224  31455  31450  0
31455  31224  30608  0
31452  31456  31453  0
31727  31453  31456  0
31453  31728  31457  0
31729  31457  31728  0
31453  31727  31728  0
31457  31729  31230  0
31726  31454  31458  0
31456  31730  31727  0
31456  31460  31730  0
31731  31730  31460  0
31464  31235  31230  0
31459  31732  31463  0
31460  31237  31731  0
31733  31731  31237  0
31464  31734  31242  0
31470  31242  31734  0
31735  31465  31463  0
31465  31735  31466  0
31237  31467  31733  0
30944  31469  31462  0
31736  31462  31469  0
31737  31466  31735  0
31466  31737  31468  0
31471  31468  31737  0
31475  31474  31738  0
31739  31738  31474  0
31738  31740  31475  0
31476  31475  31740  0
31738  31741  31740  0
31742  31740  31741  0
31740  31743  31476  0
31744  31476  31743  0
31740  31742  31743  0
31745  31744  31743  0
31241  31479  31467  0
31746  31467  31479  0
31472  31747  31474  0
31739  31474  31747  0
31472  31473  31747  0
31748  31747  31473  0
31476  31744  31477  0
31482  31477  31744  0
31744  31485  31482  0
31744  31745  31485  0
31749  31485  31745  0
31483  31485  31750  0
31485  31749  31750  0
31751  31750  31749  0
31750  31752  31483  0
31750  31751  31752  0
31753  31752  31751  0
31754  31752  31753  0
31752  31755  31756  0
31752  31754  31755  0
31757  31756  31755  0
31756  31479  31758  0
31756  31757  31479  0
31746  31479  31757  0
31478  31758  31479  0
31759  31480  31470  0
31487  31760  31488  0
31761  31488  31760  0
31490  31762  31487  0
31487  31762  31760  0
31762  31490  31491  0
31763  31762  31491  0
31247  31481  31491  0
31491  31481  31763  0
31764  31763  31481  0
31481  31471  31764  0
31248  31492  31473  0
31496  31473  31492  0
31473  31496  31748  0
31497  31748  31496  0
31748  31497  31765  0
31766  31765  31497  0
31497  31501  31766  0
31767  31766  31501  0
31483  31752  31486  0
31752  31756  31486  0
31503  31486  31756  0
31758  31503  31756  0
31504  31515  31758  0
31758  31478  31504  0
31259  31504  31478  0
31761  31505  31488  0
31492  31498  31496  0
31501  31500  31768  0
31513  31768  31500  0
31501  31768  31767  0
31769  31767  31768  0
31768  31513  31769  0
31770  31769  31513  0
31513  31771  31770  0
31515  31503  31758  0
31506  31505  31761  0
31506  31761  31772  0
31506  31772  31508  0
31513  31514  31771  0
31773  31771  31514  0
31771  31773  31774  0
31775  31774  31773  0
31771  31774  31770  0
31774  31775  31776  0
31508  31772  31517  0
31265  31266  31518  0
31265  31518  31263  0
31514  31521  31773  0
31773  31521  31523  0
31773  31523  31775  0
31775  31777  31776  0
31517  31772  31778  0
31523  31522  31775  0
31775  31522  31529  0
31775  31529  31777  0
31778  31275  31517  0
31522  31524  31529  0
31275  31778  31525  0
31529  31528  31779  0
31529  31779  31780  0
30677  31525  31287  0
30989  31287  31551  0
31546  31781  31545  0
31545  31781  31547  0
31547  31782  31538  0
31549  31783  31550  0
31550  31784  31289  0
31289  31784  31537  0
31551  31287  31785  0
31538  31782  31552  0
31548  31786  31787  0
31548  31787  31549  0
31549  31787  31783  0
31783  31788  31550  0
31783  31789  31788  0
31550  31788  31784  0
31551  31785  31790  0
31551  31790  31293  0
31546  31561  31781  0
31781  31561  31791  0
31781  31791  31792  0
31792  31791  31558  0
31792  31558  31557  0
31557  31552  31782  0
31557  31782  31792  0
31298  31793  31292  0
31292  31793  31553  0
31554  31553  31786  0
31554  31786  31548  0
31783  31787  31789  0
31293  31790  31559  0
31561  31565  31791  0
31791  31565  31562  0
31791  31562  31558  0
31553  31793  31794  0
31553  31794  31786  0
31565  31564  31795  0
31565  31795  31562  0
31562  31796  31797  0
31562  31797  31568  0
31562  31795  31796  0
31559  31798  31571  0
31564  31799  31795  0
31564  31563  31800  0
31564  31800  31799  0
31568  31801  31802  0
31568  31802  31569  0
31298  31309  31803  0
31309  31570  31803  0
31570  31574  31804  0
31570  31804  31803  0
31574  31575  31805  0
31574  31805  31804  0
31575  31806  31805  0
31575  31576  31806  0
31576  31577  31807  0
31576  31807  31806  0
31577  31578  31808  0
31577  31808  31807  0
31578  31809  31808  0
31578  31579  31810  0
31578  31810  31809  0
31579  31580  31811  0
31579  31811  31810  0
31798  31581  31571  0
31798  31812  31581  0
31583  31813  31563  0
31563  31813  31800  0
31573  31569  31802  0
31573  31814  31584  0
31580  31585  31815  0
31580  31815  31811  0
31581  31812  31816  0
31581  31816  31586  0
31582  31586  31583  0
31584  31814  31817  0
31584  31817  31316  0
31586  31818  31583  0
31583  31818  31813  0
31587  31316  31817  0
31587  31817  31819  0
31587  31819  31820  0
31588  31587  31820  0
31588  31821  31317  0
31021  31589  31320  0
31589  31317  31821  0
31589  31821  31822  0
31585  31027  31823  0
31320  31589  31822  0
31823  31318  31824  0
31318  31592  31824  0
31318  31823  31027  0
31599  31320  31822  0
31590  31825  31591  0
31591  31825  31826  0
31591  31826  31592  0
31592  31826  31827  0
31592  31827  31824  0
31828  31596  31829  0
31596  31598  31829  0
31596  31828  31597  0
31830  31597  31828  0
31825  31597  31830  0
31597  31825  31590  0
31825  31831  31826  0
31826  31831  31827  0
31832  31827  31831  0
31599  31833  31593  0
31593  31833  31600  0
31834  31594  31602  0
31598  31603  31595  0
31825  31835  31831  0
31836  31831  31835  0
31825  31837  31835  0
31832  31831  31836  0
31838  31833  31839  0
31833  31838  31600  0
31840  31600  31838  0
31601  31600  31840  0
31602  31604  31834  0
31835  31841  31836  0
31842  31836  31841  0
31836  31842  31832  0
31843  31832  31842  0
31844  31832  31843  0
31333  31601  31840  0
31604  31605  31834  0
31845  31053  31333  0
31605  31607  31846  0
31606  31337  31607  0
31608  31607  31337  0
31847  31607  31608  0
30749  31053  31848  0
31849  30749  31848  0
31608  31609  31847  0
31850  31847  31609  0
31609  31610  31850  0
31851  31850  31610  0
31610  31339  31613  0
31610  31613  31851  0
31852  31851  31613  0
31853  31852  31613  0
30749  31849  31612  0
31613  31342  31853  0
31854  31615  31855  0
31855  31615  31612  0
31849  31855  31612  0
31856  31617  31611  0
31615  31854  31619  0
31347  31617  31622  0
31856  31622  31617  0
31618  31343  31349  0
31618  31349  31857  0
31620  31621  31858  0
31859  31858  31621  0
31621  31622  31859  0
31622  31856  31859  0
31614  31348  31860  0
31619  31861  31351  0
31619  31862  31861  0
31863  31349  31625  0
31863  31864  31349  0
31857  31349  31864  0
31863  31625  31864  0
31865  31864  31625  0
31858  31623  31620  0
31866  31351  31861  0
31351  31866  31624  0
31867  31624  31866  0
31868  31354  31355  0
31354  31868  31352  0
31352  31868  31625  0
31865  31625  31868  0
31350  31623  31626  0
31869  31860  31627  0
31348  31627  31860  0
31624  31870  31358  0
31628  31358  31870  0
31624  31867  31870  0
31871  31628  31870  0
31081  31634  31627  0
31628  31871  31629  0
31630  31629  31871  0
31872  31355  31362  0
31362  31631  31872  0
31873  31357  31626  0
31367  31640  31634  0
31637  31636  31630  0
31874  31632  31638  0
31875  31874  31638  0
31357  31873  31633  0
31652  31633  31873  0
31644  31876  31877  0
31876  31878  31879  0
31876  31879  31877  0
31877  31639  31644  0
31368  31644  31639  0
31877  31879  31880  0
31877  31880  31639  0
31639  31880  31640  0
31637  31881  31641  0
31641  31881  31882  0
31641  31882  31642  0
31371  31643  31638  0
31638  31643  31875  0
31883  31875  31643  0
31633  31652  31374  0
31653  31884  31654  0
31885  31654  31884  0
31653  31652  31884  0
31656  31885  31878  0
31885  31884  31878  0
31878  31876  31656  0
31876  31644  31656  0
31379  31656  31644  0
31886  31647  31648  0
31648  31649  31642  0
31648  31642  31886  0
31882  31886  31642  0
31642  31649  31369  0
31643  31887  31883  0
31655  31654  31885  0
31885  31656  31655  0
31888  31889  31380  0
31888  31380  31645  0
31369  31098  31095  0
31378  31658  31650  0
31650  31887  31643  0
31650  31658  31887  0
31890  31891  31666  0
31892  31893  31894  0
31893  31892  31669  0
31893  31669  31895  0
31381  31896  31658  0
31381  31659  31897  0
31381  31897  31896  0
31659  31898  31897  0
31899  31663  31664  0
31899  31664  31666  0
31899  31666  31891  0
31899  31891  31900  0
31899  31900  31901  0
31899  31901  31663  0
31890  31666  31665  0
31890  31665  31668  0
31890  31668  31902  0
31903  31670  31892  0
31903  31892  31894  0
31892  31670  31669  0
31669  31391  31904  0
31380  31661  31108  0
31659  31662  31898  0
31663  31901  31905  0
31663  31905  31146  0
31668  31667  31906  0
31670  31903  31671  0
31391  31153  31672  0
31391  31672  31904  0
31130  31660  31137  0
31662  31393  31907  0
31393  31146  31905  0
31393  31905  31907  0
31667  31676  31906  0
31671  31908  31401  0
31676  31675  31909  0
31676  31910  31906  0
31676  31909  31910  0
31677  31401  31908  0
31677  31911  31912  0
31672  31679  31913  0
31138  31137  31914  0
31674  31915  31673  0
31675  31680  31916  0
31675  31916  31909  0
31909  31916  31917  0
31912  31678  31677  0
31138  31914  31682  0
31680  31918  31917  0
31680  31917  31916  0
31680  31683  31918  0
31912  31919  31684  0
31912  31684  31678  0
31912  31911  31920  0
31912  31920  31919  0
31681  31921  31679  0
31683  31686  31918  0
31919  31922  31684  0
31919  31920  31923  0
31919  31923  31922  0
31924  31681  31687  0
31924  31687  31925  0
31924  31926  31921  0
31924  31921  31681  0
31924  31925  31927  0
31924  31927  31926  0
31688  31685  31928  0
31688  31928  31929  0
31930  31694  31931  0
31930  31931  31932  0
31930  31932  31933  0
31930  31933  31934  0
31930  31934  31694  0
31931  31694  31695  0
31922  31690  31684  0
31922  31923  31935  0
31922  31935  31690  0
31925  31687  31692  0
31929  31928  31936  0
31929  31936  31700  0
31700  31936  31937  0
31689  31693  31686  0
31693  31425  31426  0
31693  31426  31938  0
31693  31938  31686  0
31426  31694  31934  0
31426  31934  31938  0
31695  31697  31931  0
31697  31696  31939  0
31697  31939  31940  0
31690  31941  31698  0
31690  31935  31941  0
31692  31691  31942  0
31692  31942  31925  0
31700  31937  31701  0
31943  31701  31937  0
31696  31702  31944  0
31696  31944  31939  0
31945  31709  31712  0
31945  31712  31941  0
31945  31941  31946  0
31945  31946  31709  0
31944  31709  31946  0
31941  31712  31704  0
31941  31704  31698  0
31691  31705  31942  0
31705  31706  31947  0
31706  31707  31948  0
31706  31948  31947  0
31707  31943  31948  0
31943  31707  31701  0
31702  31709  31944  0
31709  31710  31712  0
31441  31714  31713  0
31713  31949  31442  0
31950  31442  31949  0
31442  31950  31443  0
31219  31951  31715  0
31952  31715  31951  0
31219  31718  31951  0
31953  31951  31718  0
31715  31952  31444  0
31954  31444  31952  0
31714  31955  31713  0
31949  31713  31955  0
31714  31716  31955  0
31443  31950  31717  0
31723  31718  31719  0
31718  31723  31953  0
31956  31953  31723  0
31444  31954  31720  0
31213  31957  31716  0
31213  31721  31957  0
31723  31724  31956  0
31958  31956  31724  0
31959  31450  31720  0
31960  31721  30910  0
31446  31722  31725  0
31961  31725  31722  0
31450  31959  31224  0
31959  30910  31224  0
31960  30910  31959  0
31961  31451  31725  0
31729  31728  31962  0
31962  31728  31963  0
31964  31963  31728  0
31965  31729  31962  0
31724  31726  31958  0
31966  31958  31726  0
31451  31967  31459  0
31728  31727  31964  0
31729  31965  31230  0
31968  31230  31965  0
31458  31461  31726  0
31966  31726  31461  0
31969  31459  31967  0
31970  31730  31731  0
31230  31968  31464  0
31971  31966  31461  0
31459  31969  31732  0
31972  31970  31731  0
31464  31968  31734  0
31973  31734  31968  0
31461  31462  31971  0
31974  31463  31732  0
31731  31733  31972  0
31975  31734  31973  0
31736  31971  31462  0
31463  31974  31735  0
31976  31735  31974  0
31735  31976  31737  0
31977  31737  31976  0
31978  31741  31979  0
31741  31978  31742  0
31980  31742  31978  0
31742  31981  31743  0
31745  31743  31981  0
31742  31980  31981  0
31982  31981  31980  0
31981  31983  31745  0
31749  31745  31983  0
31981  31982  31983  0
31983  31984  31749  0
31985  31749  31984  0
31986  31985  31984  0
31987  31988  31986  0
31988  31987  31989  0
31990  31989  31987  0
31734  31975  31470  0
31737  31977  31471  0
31764  31471  31977  0
31738  31991  31741  0
31979  31741  31991  0
31738  31739  31991  0
31749  31985  31751  0
31753  31751  31985  0
31985  31988  31753  0
31754  31753  31988  0
31985  31986  31988  0
31988  31989  31754  0
31755  31754  31989  0
31989  31992  31755  0
31757  31755  31992  0
31989  31990  31992  0
31992  31993  31757  0
31746  31757  31993  0
31993  31467  31746  0
31733  31467  31993  0
31759  31470  31975  0
31994  31995  31760  0
31762  31994  31760  0
31763  31994  31762  0
31994  31763  31764  0
31994  31764  31996  0
31747  31748  31739  0
31765  31739  31748  0
31739  31765  31991  0
31997  31991  31765  0
31765  31766  31997  0
31998  31997  31766  0
31766  31999  31998  0
32000  31998  31999  0
31469  31480  31736  0
32001  31761  31760  0
31766  31767  31999  0
31769  31999  31767  0
31999  31769  32000  0
31769  31770  32000  0
32002  32000  31770  0
31770  31774  32002  0
32003  32002  31774  0
31774  32004  32003  0
31759  32005  31480  0
31761  32006  31772  0
31774  31776  32004  0
32007  32004  31776  0
32004  32007  32008  0
32009  32008  32007  0
31776  31777  32007  0
32007  31777  32009  0
32010  32009  31777  0
32009  32010  32011  0
32012  31778  31772  0
31777  31529  32010  0
31780  32010  31529  0
32013  32011  32010  0
32010  31780  32013  0
32014  31780  31779  0
31779  31528  32014  0
31544  32015  31527  0
31527  32015  32016  0
31527  32016  32017  0
31527  32017  31528  0
31528  32017  32014  0
31781  31792  31547  0
31547  31792  31782  0
31788  32018  31784  0
31784  32018  32019  0
31784  32019  31544  0
31784  31544  31537  0
31787  32020  31789  0
31788  31789  32018  0
31298  32021  31793  0
31794  31793  32022  0
31794  32022  32023  0
31794  32023  32024  0
31794  32024  31786  0
31786  32024  31787  0
31787  32024  32020  0
31797  31796  31801  0
31797  31801  31568  0
31793  32021  32022  0
31795  32025  31796  0
31796  32025  32026  0
31796  32026  31801  0
31801  32026  32027  0
31801  32027  31802  0
31298  31803  32021  0
31804  31805  32028  0
31804  32028  31803  0
31805  31806  32028  0
31806  32029  32028  0
31806  31807  32029  0
31807  31808  32030  0
31807  32030  32029  0
31808  31809  32031  0
31808  32031  32030  0
31809  31810  32032  0
31809  32032  32031  0
31810  31811  32033  0
31810  32033  32032  0
31811  31815  32033  0
31815  31585  32034  0
31815  32034  32035  0
31813  32036  31800  0
31814  31573  31802  0
31814  31802  32037  0
31814  32037  32038  0
31814  32038  31817  0
31585  32039  32034  0
31812  32040  31816  0
31818  32041  31813  0
31818  31586  32042  0
31813  32041  32036  0
31819  31817  32038  0
31819  32038  32043  0
31816  32040  32042  0
31816  32042  31586  0
31585  31823  32039  0
31821  31588  31820  0
31821  31820  32044  0
31822  31821  32045  0
31823  31824  32046  0
31824  31827  32046  0
31599  31822  32045  0
31829  31598  32047  0
31829  32047  32048  0
31829  32048  31828  0
31830  32049  31825  0
31830  31828  32050  0
31830  32050  32049  0
31825  32049  31837  0
31594  31834  32051  0
31594  32051  31595  0
31595  32052  32047  0
31595  32047  31598  0
31595  32051  32053  0
31595  32053  32052  0
32049  32054  32055  0
32049  32050  32056  0
32049  32056  32054  0
32049  32055  31837  0
31837  32055  31835  0
31832  31844  32057  0
32051  31834  32058  0
32051  32058  32053  0
32054  32059  32055  0
32055  32059  32060  0
32055  32060  31841  0
32055  31841  31835  0
31843  32061  32062  0
31843  32062  31844  0
31839  32063  32064  0
31839  32064  31838  0
31840  31838  32065  0
31840  32065  31333  0
31834  31605  32066  0
31834  32066  32058  0
32060  32059  32067  0
31841  32060  32068  0
31841  32068  31842  0
31842  32068  31843  0
31843  32068  32061  0
32064  32063  32069  0
31838  32064  31845  0
31838  31845  32065  0
32065  31845  31333  0
31846  32070  32066  0
31846  32066  31605  0
31846  31607  31847  0
31846  31847  32070  0
31848  32064  32069  0
32064  31848  31845  0
31053  31845  31848  0
32071  32072  31854  0
32072  32071  32069  0
32069  32071  31848  0
31849  31848  32071  0
32073  31847  31850  0
31850  31851  32073  0
32074  32073  31851  0
31851  31852  32074  0
32075  32074  31852  0
31852  31853  32075  0
32076  32075  31853  0
32077  31854  32072  0
31855  32071  31854  0
32071  31855  31849  0
31853  31342  32076  0
31342  31616  32076  0
32078  32076  31616  0
32079  31854  32077  0
31616  31618  32078  0
32079  31619  31854  0
32079  32080  31619  0
31862  31619  32080  0
31618  31857  32078  0
32081  32078  31857  0
31856  31611  32082  0
31611  31614  32082  0
32083  32082  31614  0
31860  32083  31614  0
32084  31857  31864  0
32081  31857  32084  0
32085  32084  31864  0
32086  31858  31859  0
31859  31856  32086  0
32082  32086  31856  0
31862  32087  31861  0
31866  31861  32087  0
31864  31865  32085  0
32088  32085  31865  0
32086  31623  31858  0
32089  32083  32090  0
31869  32090  32083  0
32083  31860  31869  0
31866  32091  31867  0
31868  31355  32092  0
31872  32092  31355  0
31868  32092  31865  0
32088  31865  32092  0
32093  31626  31623  0
31623  32086  32093  0
32086  32082  32094  0
31627  32095  32090  0
32090  31869  31627  0
32096  31870  31867  0
31870  32096  31871  0
32097  31871  32096  0
31871  32097  31630  0
32098  31630  32097  0
31626  32093  31873  0
32099  31873  32093  0
32100  32095  31879  0
31640  31879  32095  0
32090  32095  32100  0
32095  31627  31640  0
31634  31640  31627  0
31630  32098  31637  0
32101  31637  32098  0
32102  31872  31631  0
31631  31632  32102  0
31652  31873  32099  0
32099  32094  32103  0
32103  32100  31878  0
31879  31878  32100  0
32103  32094  32100  0
31879  31640  31880  0
31637  32101  31881  0
32104  31881  32101  0
32105  31632  31874  0
31874  31875  32105  0
32106  32105  31875  0
31875  31883  32106  0
31884  31652  32099  0
32099  32103  31884  0
31878  31884  32103  0
31881  32104  31882  0
32107  32106  31883  0
31645  31647  32108  0
32109  32108  31647  0
31645  32108  31888  0
32110  32109  31647  0
31647  31886  32110  0
32111  32110  31886  0
31886  31882  32111  0
32104  32111  31882  0
32107  31883  32112  0
31883  31887  32112  0
32113  32112  31887  0
32114  32115  32116  0
32115  32114  32117  0
32118  32117  32114  0
32119  32117  32118  0
31889  31888  32120  0
32121  31889  32120  0
32113  31887  31658  0
32122  32123  32124  0
32114  31894  32118  0
31893  32118  31894  0
32118  31893  32119  0
32125  32119  31893  0
31893  31895  32125  0
32126  31889  32121  0
31658  32127  32113  0
31658  31896  32127  0
32128  31900  31891  0
31891  31890  32128  0
32124  32128  31890  0
31902  32124  31890  0
32124  31902  32122  0
32122  31902  32129  0
32122  32129  32130  0
32129  32131  32132  0
32116  32133  32114  0
32134  32114  32133  0
31894  32114  32134  0
31896  31897  32127  0
31900  32135  31901  0
31902  31668  31906  0
31902  31906  32129  0
32129  31906  32131  0
32136  32134  32133  0
31894  32134  31903  0
32137  31380  31889  0
31898  31662  32138  0
31905  31901  32139  0
31905  32139  31907  0
32140  31907  32139  0
31906  32141  32131  0
31908  32134  32136  0
31908  32136  32142  0
32134  31908  31671  0
32134  31671  31903  0
31904  31672  32143  0
31904  32143  31669  0
31660  31392  32144  0
31380  32137  31661  0
31662  31907  32140  0
31662  32140  32138  0
31906  31910  32141  0
32142  32145  32146  0
32142  32146  31677  0
32142  31677  31908  0
31672  32147  32148  0
31672  32148  32143  0
31137  31660  32149  0
31392  31673  32144  0
31661  32150  32151  0
31661  32151  31131  0
31661  32152  32150  0
31910  32153  32141  0
31910  32154  32153  0
32146  32155  31911  0
32146  31911  31677  0
32147  31672  31913  0
31137  32149  31914  0
31673  31915  32156  0
31673  32156  32144  0
31915  32157  32156  0
32151  32150  32158  0
32158  32159  32151  0
31909  32160  32154  0
31909  32154  31910  0
31909  31917  32160  0
32155  32146  32161  0
