#!ascii file
27180  27420  27181  0
27182  27421  27417  0
27422  27417  27421  0
26958  26712  27419  0
27181  27420  26961  0
27423  26961  27420  0
27424  26962  26961  0
26962  27424  26965  0
26963  27421  27182  0
27425  27419  26712  0
26961  27423  27424  0
26712  26482  27425  0
27186  27421  26963  0
27426  27422  27421  0
27183  27427  26969  0
27428  26969  27427  0
27425  26482  26721  0
26968  26967  27429  0
27421  27186  27426  0
26969  27428  26723  0
26721  27187  27425  0
26718  26968  27429  0
26718  27429  27430  0
26718  27430  26972  0
26723  27428  27189  0
27188  27431  27186  0
27186  27431  27426  0
26970  26971  27187  0
27191  27187  26971  0
27190  27189  27432  0
27190  27432  26974  0
26974  27432  27191  0
27430  27192  26972  0
27188  27193  27431  0
27433  27431  27193  0
27434  27195  27435  0
27434  27436  27195  0
27195  27436  27437  0
27433  27193  27197  0
26976  27197  27193  0
26975  27192  27438  0
27434  27435  27439  0
27440  27439  27435  0
27435  27195  27440  0
27194  27440  27195  0
27195  27437  27196  0
26975  27438  27198  0
26977  27441  26978  0
26978  27441  27199  0
27439  27440  27442  0
27443  27442  27440  0
27440  27194  27202  0
26977  27204  27441  0
27440  27202  27443  0
27444  27443  27202  0
27202  27206  27444  0
27203  27198  27445  0
27203  27446  26985  0
27203  27445  27446  0
26985  27446  26731  0
27447  27204  26731  0
27204  27447  27448  0
26986  27205  27207  0
27449  26989  26988  0
26731  27446  27447  0
27207  27205  27450  0
27207  27450  26991  0
27208  27449  26988  0
26991  27450  27209  0
27208  26990  27451  0
26993  27451  26990  0
26744  26994  27213  0
26993  26743  27452  0
27212  27213  27453  0
27212  27453  27454  0
27212  27454  26746  0
27211  27213  26994  0
26743  26996  27452  0
26746  27454  27455  0
26746  27455  27214  0
27220  27456  27457  0
27457  27215  27220  0
27457  27458  27215  0
27215  27458  27216  0
27217  27459  27218  0
27001  27460  26997  0
27461  27456  27220  0
27219  27461  27220  0
27218  27459  27462  0
27218  27462  27221  0
27214  27463  26998  0
26998  27463  27222  0
27461  27219  27464  0
27222  27463  27223  0
27223  27465  27003  0
27464  27219  27224  0
27003  27465  27466  0
27003  27466  27225  0
27224  27226  27467  0
27224  27467  27464  0
27468  27469  27235  0
27468  27470  27471  0
27468  27471  27469  0
27468  27472  27470  0
27469  27473  27235  0
27226  27224  27005  0
27004  27225  27474  0
27472  27468  27475  0
27472  27475  27476  0
27468  27235  27475  0
27235  27473  27236  0
27473  27477  27236  0
27477  27478  27236  0
27478  27477  27479  0
27480  27231  27230  0
27480  27481  27231  0
27231  27481  27226  0
27231  27226  27006  0
27004  27474  27227  0
27482  27227  27474  0
27476  27483  27472  0
27475  27235  27233  0
27236  27478  27229  0
27478  27228  27229  0
27228  27480  27230  0
27476  27475  27241  0
27476  27241  27484  0
27476  27484  27483  0
27475  27233  27241  0
27485  27227  27482  0
27486  27487  27484  0
27483  27484  27487  0
27233  27238  27241  0
27227  27485  27010  0
27010  27011  27009  0
27010  27485  27011  0
27487  27486  27488  0
27487  27488  27489  0
27486  27484  27240  0
27486  27240  27488  0
27484  27241  27240  0
27242  27012  27490  0
27242  27490  27491  0
27012  27013  27490  0
27013  26538  27492  0
27013  27492  27490  0
26538  27017  27492  0
27017  27022  27493  0
27017  27493  27492  0
27494  26761  27011  0
27015  27242  27244  0
26761  27494  27245  0
27489  27488  27495  0
27489  27495  27496  0
27488  27240  27247  0
27014  27244  27249  0
27022  27021  27497  0
27022  27497  27493  0
27495  27488  27498  0
27488  27247  27498  0
27498  27499  27495  0
27498  27247  27250  0
27020  27248  27500  0
27254  27020  27500  0
27018  27501  27252  0
27499  27498  27502  0
27254  27503  27023  0
27254  27504  27503  0
27021  27027  27505  0
27502  27498  27506  0
27498  27250  27253  0
27498  27253  27506  0
27023  27503  27507  0
27023  27507  27255  0
27027  27257  27505  0
27506  27253  27508  0
27253  27028  27508  0
26770  27261  26543  0
26770  27252  27509  0
26770  27509  27261  0
27258  27256  27510  0
26775  27032  27257  0
27260  27258  27511  0
27257  27032  27512  0
27032  27263  27512  0
26779  27264  27263  0
27513  27033  27262  0
27033  27513  27265  0
27514  27265  27513  0
27515  27516  27265  0
27266  27265  27516  0
27517  27266  27516  0
27268  27266  27517  0
27517  27516  27518  0
27516  27519  27518  0
27042  26794  27520  0
27518  27519  27521  0
27517  26805  27268  0
27522  27269  26797  0
26805  27517  27518  0
26797  27272  27522  0
27523  27522  27272  0
27518  27274  26805  0
27518  27521  27524  0
27518  27524  27274  0
27272  27046  27523  0
27525  27523  27046  0
27048  27526  27052  0
27048  27273  27527  0
27528  27527  27273  0
27273  27047  27528  0
27270  27528  27047  0
27529  27530  27270  0
27270  27049  27529  0
27275  27274  27531  0
27524  27531  27274  0
27275  27531  27532  0
27275  27532  27276  0
27533  27525  27046  0
27052  27534  27281  0
27049  27053  27529  0
27277  27529  27053  0
27535  27277  27278  0
27278  27276  27535  0
27532  27535  27276  0
27046  27056  27533  0
27280  27281  27536  0
27534  27536  27281  0
27280  27536  27279  0
27283  27055  27282  0
27062  27279  27284  0
27537  27284  27279  0
27536  27538  27279  0
27279  27538  27537  0
27282  27539  27283  0
27283  27539  27540  0
27283  27540  27285  0
27056  27286  27541  0
27542  27541  27286  0
27065  27069  27543  0
27285  27544  27288  0
27288  27544  27545  0
27288  27545  27291  0
27286  27289  27542  0
27546  27542  27289  0
27287  27284  27547  0
27293  27068  27066  0
27069  27290  27543  0
27287  27547  27292  0
27291  27548  27294  0
27074  26826  27294  0
27294  27548  27549  0
27289  27295  27546  0
27550  27546  27295  0
27551  27552  27296  0
27297  27296  27552  0
27292  27551  27296  0
27074  27302  27073  0
27295  27299  27550  0
27553  27550  27299  0
27554  27550  27553  0
27550  27554  27552  0
27555  27552  27554  0
27550  27552  27556  0
27551  27556  27552  0
27552  27555  27297  0
27300  27297  27555  0
27557  27298  27076  0
27076  27077  27557  0
27558  27557  27077  0
27302  27559  27301  0
27078  27305  27299  0
27299  27305  27560  0
27299  27560  27553  0
27554  27553  27561  0
27554  27561  27555  0
27077  27081  27558  0
27301  27559  27562  0
27553  27560  27309  0
27553  27309  27561  0
27561  27309  27306  0
27561  27306  27555  0
27555  27306  27300  0
27081  27083  27563  0
27083  27307  27563  0
27304  27301  27564  0
27304  27565  26837  0
26837  27565  26839  0
27305  27087  27566  0
27305  27566  27560  0
27560  27566  27567  0
27560  27567  27308  0
27560  27308  27309  0
27563  27307  27568  0
27569  26839  27565  0
27087  27315  27566  0
27567  27311  27308  0
27307  27310  27570  0
27310  27312  27570  0
26840  27089  27312  0
27090  26839  27569  0
27313  27314  26842  0
27315  27571  27566  0
27566  27571  27567  0
27567  27571  27572  0
27567  27572  27311  0
27311  27572  27316  0
27089  27317  27573  0
27089  27573  27312  0
27318  27314  27574  0
27318  27574  27319  0
27319  27574  27575  0
27319  27575  27315  0
27315  27575  27571  0
27571  27576  27572  0
27320  27572  27576  0
27572  27320  27316  0
27317  27094  27577  0
27574  27578  27575  0
27094  27096  27579  0
27094  27579  27577  0
27580  27099  27321  0
27096  27322  27581  0
27099  27580  27323  0
27099  27323  27100  0
27580  27582  27323  0
27324  27323  27325  0
27324  27325  27102  0
27323  27582  27327  0
27107  27329  27583  0
27107  27583  27322  0
27327  27584  27326  0
27326  27584  27330  0
27326  27330  27325  0
27585  27330  27584  0
27330  27585  27333  0
27331  27334  27586  0
27331  27586  27345  0
27331  27345  27118  0
27114  27347  27332  0
27332  27347  27587  0
27333  27588  27338  0
27589  27339  27338  0
27342  27343  27344  0
27345  27590  27346  0
27345  27586  27590  0
27335  27346  27591  0
27335  27591  27347  0
27592  27336  27119  0
27348  27337  27593  0
27339  27594  27341  0
27339  27589  27594  0
27341  27594  27350  0
27350  27595  27351  0
27351  27596  27343  0
27344  27343  27596  0
27351  27595  27597  0
27351  27597  27596  0
27334  27126  27598  0
27334  27598  27586  0
27599  27346  27590  0
27346  27599  27591  0
27336  27592  27353  0
27127  27600  27349  0
27127  27354  27600  0
26884  27129  27601  0
26884  27601  27128  0
27129  27356  27602  0
27129  27602  27601  0
27603  27594  27604  0
27594  27603  27350  0
27350  27603  27595  0
27597  27595  27603  0
27605  27130  27352  0
27126  27131  27358  0
27126  27358  27606  0
27126  27606  27598  0
27607  27134  27353  0
27130  27605  27137  0
27132  27133  27608  0
27132  27608  27357  0
27133  27361  27608  0
27609  27361  27134  0
27370  27135  27359  0
27365  27138  27360  0
27366  27362  27140  0
27610  27611  27363  0
27363  27611  27364  0
27612  27364  27611  0
27363  27136  27610  0
27613  27610  27136  0
27136  27137  27613  0
27605  27613  27137  0
27609  27608  27361  0
27366  27367  27614  0
27615  27614  27367  0
27367  27364  27612  0
27367  27612  27615  0
27616  27146  27365  0
27146  27616  27372  0
27368  27145  27371  0
27617  27371  27145  0
27371  27618  27369  0
27619  27369  27618  0
27371  27617  27618  0
27374  27372  27616  0
27620  27145  27373  0
27145  27620  27617  0
27621  27373  27375  0
27373  27621  27620  0
27622  27617  27620  0
27374  27623  27376  0
27375  27377  27621  0
27376  27623  27624  0
27376  27624  27382  0
27625  27377  27379  0
27626  27625  27379  0
27379  27380  27626  0
27627  27626  27380  0
27380  27381  27627  0
27628  27627  27381  0
27381  27383  27628  0
27382  27624  27629  0
27629  27383  27382  0
27154  27630  27631  0
27154  27631  27385  0
27154  27384  27630  0
27384  27155  27632  0
27387  27632  27155  0
27386  27385  27633  0
27386  27633  27159  0
27387  27388  27634  0
27402  27159  27633  0
27402  27633  27635  0
27636  27389  27391  0
27637  27636  27391  0
27389  27636  27638  0
27389  27638  27390  0
27390  27638  27639  0
27390  27639  27392  0
26929  27159  27402  0
27393  27637  27391  0
27392  27639  27640  0
27392  27640  27641  0
27392  27641  27165  0
27388  27161  27398  0
27388  27398  27642  0
27397  27642  27398  0
27637  27393  27643  0
27394  27643  27393  0
27165  27641  27396  0
26934  27400  27167  0
27401  27167  27400  0
27644  27645  27400  0
27646  27644  27400  0
27400  27645  27401  0
27168  27401  27647  0
27168  27647  27404  0
27648  27395  27164  0
27169  27649  27650  0
27169  27650  27407  0
27400  27399  27651  0
27403  27651  27399  0
27400  27651  27646  0
27404  27652  27409  0
27164  27406  27648  0
27407  27650  27653  0
27407  27653  27411  0
27654  27651  27403  0
27403  27408  27654  0
27413  27409  27652  0
27655  27654  27408  0
27408  27410  27655  0
27411  27656  27412  0
27412  27656  27180  0
27405  27175  27418  0
27405  27418  27657  0
27180  27656  27658  0
27654  27655  27659  0
27417  27655  27410  0
27660  27657  27418  0
27180  27658  27420  0
27661  27659  27655  0
27416  27662  27179  0
26964  27179  27662  0
27418  27419  27660  0
27655  27417  27661  0
26964  27662  27183  0
27420  27663  27423  0
27417  27422  27661  0
27183  27662  27664  0
27419  27425  27665  0
27666  27661  27422  0
27183  27664  27427  0
27666  27422  27667  0
27666  27667  27668  0
27422  27426  27667  0
27668  27667  27669  0
27429  27670  27430  0
27667  27671  27669  0
27672  27189  27428  0
27671  27667  27433  0
27671  27433  27673  0
27671  27673  27674  0
27667  27426  27431  0
27667  27431  27433  0
27189  27675  27432  0
27676  27432  27675  0
27187  27191  27677  0
27191  27432  27678  0
27191  27678  27677  0
27192  27430  27679  0
27438  27192  27679  0
27680  27681  27682  0
27681  27683  27684  0
27681  27684  27682  0
27681  27680  27434  0
27673  27433  27197  0
27683  27685  27684  0
27681  27434  27439  0
27681  27439  27683  0
27673  27437  27436  0
27673  27197  27196  0
27673  27196  27437  0
27683  27439  27442  0
27683  27442  27685  0
27686  27199  27441  0
27685  27442  27687  0
27685  27687  27688  0
27442  27443  27687  0
27438  27689  27198  0
27204  27448  27690  0
27204  27690  27441  0
27199  27686  27200  0
27691  27200  27686  0
27443  27692  27687  0
27443  27444  27692  0
27444  27206  27693  0
27198  27694  27445  0
27200  27691  27205  0
26989  27695  27206  0
26989  27449  27695  0
27696  27446  27445  0
27446  27696  27697  0
27446  27697  27447  0
27208  27451  27449  0
27451  26993  27698  0
27699  27209  27450  0
26993  27452  27698  0
27209  27699  27210  0
27213  27211  27700  0
27213  27700  27453  0
27211  27701  27700  0
27211  27210  27699  0
27211  27699  27701  0
27452  26996  26997  0
27452  26997  27702  0
27457  27456  27703  0
27704  27216  27458  0
27216  27704  27217  0
27217  27704  27459  0
27001  27705  27460  0
27702  26997  27460  0
27706  27214  27455  0
27707  27703  27708  0
27707  27709  27703  0
27457  27703  27709  0
27703  27456  27461  0
27705  27221  27462  0
27221  27705  27001  0
27214  27706  27463  0
27703  27461  27464  0
27463  27710  27223  0
27711  27471  27712  0
27708  27703  27713  0
27703  27464  27713  0
27223  27714  27465  0
27471  27711  27469  0
27471  27715  27712  0
27711  27716  27473  0
27711  27473  27469  0
27717  27716  27711  0
27718  27716  27717  0
27713  27719  27708  0
27713  27464  27467  0
27715  27471  27470  0
27720  27470  27472  0
27473  27716  27477  0
27716  27721  27479  0
27716  27479  27477  0
27722  27479  27721  0
27719  27713  27481  0
27722  27719  27481  0
27713  27467  27481  0
27226  27481  27467  0
27479  27723  27478  0
27228  27478  27723  0
27479  27722  27723  0
27480  27228  27723  0
27723  27481  27480  0
27723  27722  27481  0
27472  27724  27720  0
27472  27483  27724  0
27725  27724  27483  0
27487  27725  27483  0
27491  27490  27726  0
27726  27490  27727  0
27492  27728  27490  0
27490  27728  27727  0
27487  27729  27725  0
27487  27489  27729  0
27730  27244  27491  0
27242  27491  27244  0
27011  27485  27494  0
27496  27729  27489  0
27731  27732  27733  0
27734  27733  27732  0
27731  27733  27735  0
27736  27733  27734  0
27737  27733  27736  0
27738  27737  27736  0
27249  27730  27739  0
27739  27730  27740  0
27730  27249  27244  0
27741  27736  27734  0
27736  27741  27738  0
27742  27738  27741  0
27738  27742  27743  0
27744  27248  27739  0
27249  27739  27248  0
27493  27497  27745  0
27018  27245  27746  0
27245  27494  27746  0
27732  27747  27734  0
27748  27734  27747  0
27732  27731  27747  0
27734  27749  27741  0
27750  27742  27741  0
27742  27750  27751  0
27744  27500  27248  0
27497  27752  27745  0
27497  27021  27752  0
27018  27746  27501  0
27496  27495  27753  0
27499  27753  27495  0
27496  27753  27754  0
27747  27755  27748  0
27749  27734  27748  0
27756  27741  27749  0
27741  27756  27750  0
27757  27758  27750  0
27744  27504  27500  0
27254  27500  27504  0
27744  27759  27760  0
27744  27760  27504  0
27505  27752  27021  0
27748  27761  27749  0
27748  27755  27761  0
27749  27762  27756  0
27763  27756  27762  0
27756  27763  27757  0
27756  27757  27750  0
27504  27760  27764  0
27504  27764  27503  0
27502  27753  27499  0
27765  27749  27761  0
27762  27749  27765  0
27252  27501  27509  0
27766  27753  27502  0
27502  27506  27767  0
27502  27767  27766  0
27768  27766  27767  0
27761  27769  27765  0
27762  27770  27763  0
27256  27255  27510  0
27507  27510  27255  0
27507  27503  27771  0
27764  27771  27503  0
27507  27771  27772  0
27773  27768  27767  0
27258  27510  27511  0
27774  27511  27510  0
27510  27507  27774  0
27767  27506  27773  0
27506  27508  27775  0
27508  27028  27775  0
27259  27775  27028  0
27260  27511  27776  0
27777  27776  27511  0
27511  27774  27777  0
27261  27509  27778  0
27776  27777  27779  0
27512  27780  27257  0
27512  27263  27781  0
27261  27778  27262  0
27513  27262  27778  0
27263  27264  27782  0
27264  27035  27782  0
27515  27783  27516  0
27519  27516  27783  0
27515  27514  27783  0
27515  27265  27514  0
27520  26794  27269  0
27520  27269  27784  0
27520  27784  27785  0
27269  27522  27784  0
27526  27048  27527  0
27521  27786  27524  0
27787  27524  27786  0
27534  27052  27526  0
27270  27530  27528  0
27531  27524  27787  0
27787  27532  27531  0
27530  27529  27788  0
27529  27789  27788  0
27529  27790  27789  0
27529  27277  27790  0
27277  27791  27790  0
27277  27535  27791  0
27535  27532  27792  0
27535  27792  27793  0
27532  27787  27794  0
27532  27794  27792  0
27787  27795  27794  0
27787  27796  27795  0
27533  27056  27797  0
27536  27534  27798  0
27793  27792  27799  0
27794  27795  27792  0
27800  27801  27540  0
27800  27540  27539  0
27801  27802  27540  0
27803  27540  27802  0
27056  27541  27797  0
27799  27792  27804  0
27799  27804  27805  0
27792  27795  27804  0
27804  27795  27806  0
27282  27065  27543  0
27282  27543  27539  0
27539  27543  27807  0
27539  27807  27800  0
27540  27544  27285  0
27540  27803  27544  0
27808  27537  27538  0
27805  27804  27809  0
27542  27546  27556  0
27542  27556  27810  0
27284  27537  27808  0
27284  27808  27547  0
27543  27290  27811  0
27543  27811  27812  0
27545  27548  27291  0
27813  27548  27545  0
27546  27550  27556  0
27814  27551  27292  0
27814  27292  27815  0
27814  27816  27551  0
27556  27551  27816  0
27815  27292  27547  0
27290  27298  27811  0
27548  27813  27549  0
27817  27294  27549  0
27294  27818  27074  0
27294  27817  27818  0
27298  27557  27819  0
27820  27074  27818  0
27074  27820  27302  0
27559  27302  27820  0
27081  27563  27558  0
27821  27558  27563  0
27562  27564  27301  0
27564  27565  27304  0
27822  27568  27307  0
27565  27823  27569  0
27307  27570  27822  0
27569  27823  27090  0
27090  27824  27313  0
27570  27312  27825  0
27313  27826  27314  0
27827  27314  27826  0
27313  27824  27826  0
27574  27314  27827  0
27576  27571  27575  0
27576  27828  27320  0
27577  27573  27317  0
27826  27829  27827  0
27574  27827  27830  0
27574  27830  27578  0
27578  27831  27575  0
27575  27831  27832  0
27575  27832  27576  0
27321  27320  27828  0
27828  27576  27833  0
27573  27577  27834  0
27578  27830  27831  0
27828  27580  27321  0
27828  27833  27835  0
27828  27835  27580  0
27577  27579  27836  0
27581  27579  27096  0
27580  27835  27837  0
27580  27837  27582  0
27838  27581  27322  0
27582  27839  27327  0
27322  27583  27838  0
27840  27838  27583  0
27584  27327  27841  0
27584  27841  27842  0
27584  27842  27843  0
27584  27843  27585  0
27585  27843  27333  0
27332  27587  27329  0
27329  27840  27583  0
27333  27843  27588  0
27338  27588  27844  0
27338  27844  27589  0
27119  27348  27592  0
27845  27592  27348  0
27348  27593  27845  0
27846  27593  27337  0
27337  27349  27846  0
27589  27844  27847  0
27589  27847  27848  0
27589  27848  27594  0
27596  27849  27344  0
27850  27596  27597  0
27344  27849  27352  0
27586  27598  27590  0
27590  27851  27852  0
27590  27598  27851  0
27590  27852  27599  0
27599  27853  27591  0
27591  27853  27854  0
27591  27854  27347  0
27347  27854  27587  0
27855  27856  27353  0
27353  27592  27855  0
27857  27855  27592  0
27592  27845  27857  0
27846  27349  27600  0
27858  27600  27354  0
27601  27355  27128  0
27603  27611  27597  0
27859  27597  27611  0
27597  27859  27850  0
27860  27850  27859  0
27352  27849  27605  0
27598  27606  27851  0
27353  27856  27607  0
27354  27135  27858  0
27370  27858  27135  0
27861  27360  27355  0
27355  27601  27862  0
27602  27862  27601  0
27355  27862  27863  0
27355  27863  27861  0
27602  27356  27864  0
27603  27865  27611  0
27603  27604  27865  0
27610  27859  27611  0
27859  27610  27860  0
27613  27860  27610  0
27134  27607  27609  0
27866  27867  27370  0
27360  27861  27365  0
27868  27365  27861  0
27139  27362  27869  0
27614  27362  27366  0
27865  27612  27611  0
27606  27358  27870  0
27358  27357  27870  0
27871  27365  27868  0
27612  27865  27872  0
27612  27872  27615  0
27619  27370  27369  0
27370  27619  27866  0
27365  27871  27616  0
27616  27871  27374  0
27873  27374  27871  0
27617  27622  27618  0
27618  27622  27874  0
27618  27874  27619  0
27374  27873  27623  0
27621  27875  27620  0
27620  27875  27622  0
27622  27875  27876  0
27621  27377  27875  0
27875  27377  27625  0
27875  27625  27876  0
27623  27877  27624  0
27625  27626  27878  0
27627  27628  27879  0
27627  27879  27626  0
27628  27383  27629  0
27628  27629  27879  0
27630  27384  27632  0
27630  27880  27631  0
27881  27385  27631  0
27385  27881  27633  0
27387  27634  27632  0
27633  27881  27882  0
27883  27634  27388  0
27633  27882  27635  0
27636  27637  27884  0
27636  27885  27638  0
27886  27638  27885  0
27638  27886  27639  0
27887  27639  27886  0
27640  27639  27887  0
27388  27642  27883  0
27637  27643  27888  0
27637  27888  27884  0
27640  27889  27641  0
27890  27642  27397  0
27649  27635  27882  0
27890  27396  27641  0
27396  27890  27397  0
27649  27169  27402  0
27649  27402  27635  0
27394  27395  27891  0
27394  27891  27643  0
27645  27892  27401  0
27401  27892  27647  0
27395  27648  27891  0
27646  27651  27893  0
27646  27893  27894  0
27895  27892  27645  0
27892  27895  27896  0
27647  27892  27652  0
27647  27652  27404  0
27894  27893  27897  0
27893  27651  27898  0
27893  27898  27899  0
27651  27654  27898  0
27892  27896  27413  0
27892  27413  27652  0
27406  27405  27648  0
27653  27656  27411  0
27653  27900  27656  0
27893  27899  27901  0
27893  27901  27897  0
27898  27654  27899  0
27405  27657  27648  0
27656  27900  27902  0
27899  27903  27904  0
27899  27904  27901  0
27899  27659  27903  0
27899  27654  27659  0
27905  27896  27906  0
27896  27907  27413  0
27413  27907  27414  0
27656  27902  27908  0
27656  27908  27658  0
27902  27909  27908  0
27909  27910  27908  0
27911  27908  27910  0
27903  27912  27904  0
27896  27905  27907  0
27907  27913  27914  0
27907  27905  27913  0
27907  27914  27415  0
27907  27415  27414  0
27657  27660  27915  0
27908  27916  27658  0
27908  27911  27916  0
27903  27659  27917  0
27415  27914  27662  0
27415  27662  27416  0
27658  27916  27663  0
27658  27663  27420  0
27918  27663  27916  0
27659  27661  27917  0
27913  27919  27914  0
27914  27919  27662  0
27419  27665  27660  0
27663  27918  27920  0
27917  27666  27921  0
27917  27661  27666  0
27919  27922  27664  0
27919  27664  27662  0
27185  27923  27924  0
27925  26967  27185  0
27926  27927  27928  0
27664  27929  27427  0
27664  27922  27929  0
27429  27930  27670  0
27429  26967  27930  0
27925  27930  26967  0
27931  27926  27928  0
27928  27932  27931  0
27933  27931  27932  0
27666  27668  27934  0
27935  27934  27668  0
27427  27929  27428  0
27936  27933  27937  0
27933  27932  27937  0
27668  27669  27935  0
27187  27938  27939  0
27187  27939  27425  0
27670  27940  27430  0
27926  27931  27941  0
27926  27941  27942  0
27943  27942  27941  0
27931  27933  27941  0
27936  27941  27933  0
27671  27935  27669  0
27675  27189  27672  0
27677  27938  27187  0
27430  27940  27944  0
27430  27944  27679  0
27941  27936  27945  0
27946  27945  27936  0
27936  27947  27946  0
27935  27671  27674  0
27935  27674  27948  0
27684  27946  27947  0
27947  27682  27684  0
27682  27947  27680  0
27680  27949  27434  0
27434  27949  27436  0
27436  27949  27948  0
27436  27948  27674  0
27673  27436  27674  0
27432  27676  27678  0
27685  27950  27684  0
27438  27679  27951  0
27684  27950  27952  0
27688  27950  27685  0
27438  27951  27689  0
27686  27441  27953  0
27950  27688  27954  0
27688  27687  27955  0
27441  27690  27953  0
27686  27953  27956  0
27686  27956  27691  0
27692  27444  27957  0
27693  27957  27444  0
27198  27689  27694  0
27690  27958  27953  0
27695  27693  27206  0
27445  27694  27696  0
27959  27448  27447  0
27448  27959  27958  0
27448  27958  27690  0
27205  27691  27960  0
27205  27960  27450  0
27449  27451  27961  0
27962  27961  27451  0
27696  27963  27697  0
27697  27963  27447  0
27447  27963  27959  0
27450  27960  27964  0
27698  27962  27451  0
27963  27696  27965  0
27450  27964  27699  0
27699  27964  27966  0
27698  27452  27967  0
27453  27700  27968  0
27453  27968  27454  0
27701  27699  27969  0
27966  27969  27699  0
27452  27702  27967  0
27970  27971  27972  0
27709  27972  27971  0
27970  27973  27971  0
27457  27709  27971  0
27971  27973  27974  0
27971  27974  27457  0
27457  27974  27458  0
27975  27458  27974  0
27458  27975  27704  0
27976  27704  27975  0
27459  27704  27976  0
27705  27977  27460  0
27460  27977  27702  0
27978  27972  27979  0
27972  27709  27979  0
27707  27979  27709  0
27980  27459  27976  0
27459  27980  27462  0
27981  27462  27980  0
27462  27981  27705  0
27710  27463  27706  0
27978  27979  27982  0
27983  27982  27979  0
27979  27707  27983  0
27708  27983  27707  0
27710  27984  27223  0
27985  27711  27986  0
27711  27712  27986  0
27711  27985  27717  0
27987  27717  27985  0
27718  27717  27987  0
27982  27983  27721  0
27982  27721  27718  0
27983  27988  27721  0
27983  27708  27988  0
27714  27223  27984  0
27714  27989  27465  0
27465  27989  27466  0
27718  27721  27716  0
27988  27708  27719  0
27989  27990  27466  0
27991  27466  27990  0
27466  27991  27225  0
27470  27720  27715  0
27715  27992  27712  0
27715  27993  27992  0
27721  27988  27722  0
27988  27719  27722  0
27994  27474  27225  0
27720  27995  27715  0
27715  27995  27993  0
27724  27996  27720  0
27720  27996  27995  0
27474  27994  27482  0
27997  27482  27994  0
27724  27725  27996  0
27996  27998  27995  0
27999  28000  27491  0
27999  28001  28000  0
27999  27491  27726  0
27999  27726  27727  0
27999  27727  28002  0
27727  28003  28002  0
27727  28004  28003  0
28004  27727  27728  0
27725  27735  28005  0
27725  28005  27996  0
27996  28005  27998  0
27998  28006  27995  0
28007  28008  28009  0
28007  28009  28010  0
28007  28010  27730  0
28007  27730  28000  0
28007  28000  28008  0
28000  28001  28008  0
28000  27730  27491  0
27728  27492  28004  0
27492  27493  28011  0
27482  27997  27485  0
27725  27729  27735  0
27735  27733  28005  0
28005  27733  27737  0
28005  27737  27998  0
27998  27737  28006  0
28010  28009  27740  0
28012  27740  28009  0
28010  27740  27730  0
27493  28013  28011  0
27729  27496  27731  0
27729  27731  27735  0
27737  27738  27743  0
27737  27743  28006  0
28006  27743  28014  0
28012  28015  28016  0
28012  28016  27744  0
28012  27744  27740  0
27740  27744  27739  0
27743  27742  28017  0
27743  28017  28018  0
27743  28018  28014  0
28017  27742  27751  0
28017  27751  28019  0
28017  28019  28020  0
28017  28020  28018  0
28019  27751  28021  0
28019  28021  28016  0
28019  28016  28022  0
28019  28022  28020  0
28016  28015  28022  0
28016  28021  27759  0
28016  27759  27744  0
27493  27745  28013  0
28023  27746  27494  0
27496  27754  27747  0
27496  27747  27731  0
27751  27750  27758  0
27751  27758  28021  0
28021  28024  27759  0
27754  27755  27747  0
27758  27757  28025  0
27758  28025  28021  0
28021  28025  28024  0
28024  27760  27759  0
27752  27505  28026  0
27746  28023  27501  0
27754  27753  28027  0
27754  28027  27755  0
27763  28028  27757  0
27757  28028  28025  0
28025  28029  28024  0
28024  28029  27764  0
28024  27764  27760  0
27753  27766  28027  0
28027  27766  27769  0
28027  27769  27755  0
27755  27769  27761  0
27763  27770  28028  0
28028  28030  28025  0
28029  28025  28030  0
28029  27771  27764  0
28031  27771  28029  0
27505  27257  28032  0
28033  27501  28023  0
27766  28034  27769  0
27766  27768  28035  0
27766  28035  28034  0
28028  27770  28030  0
28036  28030  27770  0
27771  28031  27772  0
28037  28032  27257  0
27509  27501  28033  0
28038  27509  28033  0
27773  28039  27768  0
28035  27768  28039  0
28040  27769  28034  0
27769  28040  27765  0
28041  27765  28040  0
27765  28041  27762  0
28042  27762  28041  0
28043  27762  28042  0
27762  28043  27770  0
28036  27770  28044  0
27770  28043  28044  0
27507  27772  27774  0
28036  27774  27772  0
27772  28031  28036  0
27775  27773  27506  0
28040  28045  28041  0
27777  27774  28046  0
28036  28046  27774  0
27257  28047  28037  0
27257  27780  28047  0
28048  28047  27780  0
27509  28038  27778  0
27773  27775  28049  0
28050  28049  27775  0
27775  27259  28051  0
27777  28046  28052  0
27512  27781  27780  0
27775  28051  28050  0
28053  28050  28051  0
27779  27777  28052  0
27779  28052  28054  0
27779  28054  28055  0
27781  28048  27780  0
27781  27263  28048  0
28056  28048  27263  0
27778  28057  27513  0
28051  28058  28053  0
28059  28053  28058  0
28060  28055  28054  0
28060  28054  28061  0
27263  27782  28056  0
27513  28057  27514  0
28058  28062  28059  0
28061  28059  28062  0
28063  27783  27514  0
28057  28063  27514  0
27035  28064  27782  0
27783  28065  27519  0
28066  28067  28068  0
28068  28069  28066  0
27785  28066  28069  0
27519  28070  27521  0
28066  27785  28071  0
27785  27784  28072  0
28073  28072  27784  0
27784  27522  28073  0
27522  27523  28073  0
27526  27527  28074  0
27786  28075  27787  0
28076  27523  27525  0
27526  28074  27534  0
27527  27528  28074  0
28077  28074  27528  0
28078  28077  27528  0
27528  27530  28078  0
27788  28078  27530  0
28079  28080  27796  0
28079  28081  28080  0
28075  28079  27796  0
28082  27796  28080  0
28080  28081  28083  0
28080  28083  28084  0
28080  28084  28082  0
27525  27533  28076  0
27797  28076  27533  0
27534  28074  27798  0
28085  27798  28074  0
28085  28074  28077  0
28085  28077  28086  0
27789  27790  28087  0
27787  28075  27796  0
27806  27795  27796  0
27796  28082  27806  0
27802  27801  27800  0
27800  28088  27802  0
27798  28089  27536  0
27798  28085  28090  0
28091  27806  28082  0
28082  28084  28091  0
27802  28088  27803  0
27803  28092  27544  0
28093  27797  27541  0
28094  27538  27536  0
27536  28089  28094  0
28091  28095  27806  0
27806  28095  27804  0
27544  28096  27545  0
27544  28092  28097  0
27544  28097  28096  0
27541  27542  28093  0
27538  28094  27808  0
28098  27808  28094  0
27809  27804  28095  0
27807  27543  27812  0
28099  27807  27812  0
28100  28099  27812  0
28096  27813  27545  0
27542  27810  28093  0
28101  28093  27810  0
27810  27556  27816  0
27810  27816  28102  0
27547  27808  28103  0
27547  28103  27815  0
28104  27815  28103  0
27808  28098  28103  0
27812  27811  28100  0
27816  27814  28102  0
27814  27815  28104  0
27814  28104  28102  0
27811  27298  27819  0
27811  27819  28105  0
27811  28105  28100  0
27813  28106  27817  0
27813  27817  27549  0
28107  27818  27817  0
27819  27557  28108  0
27819  28108  28105  0
27818  28107  27820  0
27557  27558  28108  0
27820  28109  27559  0
28108  27558  28110  0
27558  27821  28110  0
27821  27563  28111  0
27559  28112  27562  0
27562  28112  27564  0
27563  27568  28111  0
27564  28113  27565  0
27565  28113  27823  0
27822  27570  28114  0
28115  27823  28113  0
27823  28115  27824  0
27823  27824  27090  0
28114  27570  28116  0
27570  27825  28116  0
27825  27312  28117  0
27826  27824  28115  0
27312  27573  28118  0
27312  28118  28117  0
27829  27826  28119  0
27829  28120  27827  0
27830  27827  28120  0
27832  27833  27576  0
27834  27577  27836  0
28121  27831  27830  0
28122  27833  27832  0
27833  28122  27835  0
28123  27835  28122  0
28123  27837  27835  0
27836  27579  28124  0
27579  27581  28125  0
27579  28125  28124  0
27581  27838  28125  0
27837  28126  27582  0
27839  27582  28126  0
27839  28127  27327  0
27327  28127  27841  0
27842  27841  28128  0
27840  27329  28129  0
27843  28130  27588  0
27588  28130  27844  0
27587  28129  27329  0
27587  27854  28129  0
27847  28131  27848  0
27596  27850  28132  0
27596  28132  27849  0
27851  28133  27852  0
27599  27852  27853  0
27853  28134  27854  0
27845  28135  27857  0
27845  27593  28136  0
27845  28136  28135  0
27593  27846  28136  0
27846  27600  28137  0
27846  28137  28136  0
27600  27858  28138  0
27848  27604  27594  0
28139  27848  28131  0
27850  27860  28132  0
28132  27860  27605  0
28132  27605  27849  0
27851  27606  28140  0
27851  28140  28133  0
28141  27852  28133  0
27852  28141  27853  0
28134  27853  28141  0
27855  27857  27856  0
28135  28136  28142  0
27858  28143  28138  0
27858  27370  27867  0
27858  27867  28143  0
27356  27139  27869  0
27356  27869  27864  0
27848  28139  27604  0
27605  27860  27613  0
27606  27870  28140  0
28144  27607  27856  0
27856  27857  28145  0
28146  28145  27857  0
27856  28145  28144  0
28147  28146  27857  0
27857  28135  28147  0
28142  28147  28135  0
28148  27867  27866  0
27863  28149  27861  0
27864  27869  28150  0
28151  27869  27362  0
27362  27614  28151  0
28152  28151  27614  0
27604  28153  27865  0
28154  27870  27357  0
27357  27608  28154  0
28155  28154  27608  0
27608  27609  28155  0
27609  27607  28156  0
28144  28156  27607  0
27609  28156  28155  0
28157  28148  27866  0
27861  28149  27868  0
27615  28152  27614  0
27865  28153  27872  0
28158  28154  28155  0
28156  28158  28155  0
27866  27619  28157  0
27615  27872  28152  0
27874  28157  27619  0
27871  28159  27873  0
27622  27876  27874  0
27623  27873  27877  0
27876  27625  28160  0
27877  28161  27624  0
27624  28161  28162  0
27624  28162  27629  0
27625  27878  28160  0
28163  27878  27626  0
27626  27879  28163  0
28164  28163  27879  0
27879  27629  28164  0
27631  27880  28165  0
27631  28165  27881  0
27630  28166  28167  0
27630  28167  27880  0
27630  27632  28166  0
28168  28166  27632  0
27881  28165  28169  0
27632  27634  28168  0
27881  28169  28170  0
27883  28171  28168  0
27883  28168  27634  0
28170  27882  27881  0
27636  27884  27885  0
28172  27886  27885  0
27886  28172  28173  0
27886  28173  27887  0
27889  27640  27887  0
27887  28173  28174  0
27883  27642  28171  0
28175  28171  27642  0
27888  28176  27884  0
27884  28176  28177  0
27884  28177  27885  0
27885  28177  28172  0
27889  28178  27641  0
27890  27641  28178  0
27890  28178  28175  0
27890  28175  27642  0
27882  28170  28179  0
27882  28179  27649  0
27649  28179  27650  0
27888  27643  28180  0
27891  28180  27643  0
27888  28180  28181  0
27650  28179  28182  0
27650  28182  28183  0
27650  28183  27653  0
27646  27894  27644  0
28184  27644  27894  0
27644  28184  27645  0
27895  27645  28184  0
27900  27653  28183  0
28183  28185  27900  0
28183  28182  28185  0
28185  28186  28187  0
28187  28186  28188  0
28187  28188  27909  0
27897  28189  27894  0
28184  28190  27895  0
27906  27896  27895  0
27902  27900  28185  0
28185  28187  27902  0
27909  27902  28187  0
27909  28188  28191  0
27909  28191  27910  0
27897  27901  28189  0
28190  28192  27895  0
27657  28193  27648  0
28189  27901  28194  0
27904  28194  27901  0
28195  28189  28194  0
28192  28196  27895  0
27906  27895  28196  0
27915  28193  27657  0
28191  28197  27910  0
27910  28197  27911  0
28198  28195  28194  0
28194  27904  28199  0
28200  27906  28196  0
28201  27906  28200  0
27906  28201  27905  0
27913  27905  28201  0
27911  28197  28202  0
28198  28194  28203  0
28199  28203  28194  0
28199  27904  28204  0
27912  28204  27904  0
28200  28205  28201  0
27916  27911  27918  0
27911  28202  27918  0
28206  28203  28207  0
28208  28207  28203  0
28206  28198  28203  0
28203  28199  28208  0
28204  28208  28199  0
27912  27903  27921  0
27917  27921  27903  0
28205  28209  28201  0
28201  28209  28210  0
28201  28210  27913  0
28207  28211  28212  0
28207  28213  28206  0
28207  28212  28213  0
28207  28208  28211  0
28208  28204  28211  0
28204  27912  27921  0
28214  28209  28205  0
28209  28215  28210  0
28210  28216  27913  0
27913  28216  27919  0
27665  28217  27660  0
28218  27924  28219  0
28220  28212  28221  0
28220  28213  28212  0
28220  28222  28213  0
28212  28211  28223  0
28212  28223  28221  0
28211  28204  28224  0
28211  28224  28223  0
27921  27666  27934  0
28209  28214  28215  0
28210  28215  28216  0
28216  28225  27919  0
27919  28225  27922  0
27665  27425  28217  0
27185  27924  28226  0
27185  28226  27925  0
27928  28220  27932  0
27928  27927  28220  0
28222  28220  27927  0
28220  28221  27932  0
28224  28204  28227  0
28204  27921  28227  0
27921  27934  28227  0
28228  28215  28229  0
28215  28228  28216  0
27425  27939  28217  0
27926  28230  27927  0
27932  28221  27937  0
28223  28224  28231  0
28224  28227  28231  0
28225  28232  27922  0
27922  28232  27929  0
27939  27938  28233  0
27939  28233  28217  0
27926  28234  28230  0
27937  28221  27936  0
28221  28223  28235  0
28221  28235  27936  0
28223  28231  28235  0
28231  28227  28236  0
28227  27934  28236  0
27934  27935  28236  0
28228  28237  28238  0
28228  28238  28216  0
28228  28239  28237  0
28216  28238  28240  0
28216  28240  28225  0
28225  28240  28241  0
28225  28241  28232  0
27929  28232  27672  0
27929  27672  27428  0
27940  27670  28242  0
27942  27943  28234  0
27942  28234  27926  0
27936  28235  27947  0
28236  27935  27948  0
28238  28237  28243  0
28238  28243  28240  0
28240  28243  28241  0
28241  28244  28232  0
28232  28244  27672  0
27672  28244  27675  0
27938  27677  28245  0
27943  27941  28246  0
27943  28246  28247  0
27943  28247  28248  0
27943  28248  28234  0
27941  27945  28246  0
28235  28231  27680  0
28235  27680  27947  0
28231  27949  27680  0
28231  28236  27949  0
28236  27948  27949  0
28237  28249  28243  0
28243  28250  28241  0
28241  28250  28244  0
28244  28250  28251  0
28244  28252  27675  0
27675  28252  27676  0
28245  27677  28253  0
27677  27678  28253  0
28247  28254  28248  0
28246  28255  28247  0
28246  27945  28255  0
28237  28256  28249  0
28243  28249  28257  0
28243  28257  28250  0
28258  27679  28259  0
28247  28255  28254  0
27945  27946  27952  0
27945  27952  28255  0
27946  27684  27952  0
27679  28258  27951  0
28255  27952  28260  0
27952  27950  28260  0
27950  27954  28260  0
28261  27951  28258  0
27955  27954  27688  0
27955  27687  28262  0
27687  27692  28262  0
27957  28262  27692  0
27951  28261  27689  0
28263  27689  28261  0
27956  27953  27958  0
28264  27957  27693  0
27689  28263  27694  0
28265  27694  28263  0
28266  27956  27958  0
27956  28267  27691  0
28266  27958  27959  0
27691  28267  27960  0
27961  27695  27449  0
28268  27961  27962  0
28269  27959  27963  0
27959  28269  28266  0
27965  27696  28270  0
27965  28271  27963  0
28272  27963  28271  0
27963  28272  28269  0
27962  27698  27967  0
27962  27967  28268  0
28273  28268  27967  0
27964  28274  27966  0
28275  27966  28274  0
27701  27968  27700  0
28275  27969  27966  0
27454  27968  28276  0
28277  28276  27968  0
27454  28276  28278  0
27454  28278  27455  0
27968  27701  28277  0
28275  27701  27969  0
28279  28280  28281  0
28282  28279  28281  0
27978  28281  28280  0
27972  27978  28280  0
28280  28279  28283  0
28280  27970  27972  0
28280  28283  28284  0
28280  28284  27970  0
27970  28284  27973  0
27973  28285  27974  0
27973  28284  28285  0
28286  27974  28285  0
27974  28286  27975  0
27705  27981  27977  0
27455  28278  28287  0
27455  28287  27706  0
28281  28288  28282  0
28289  28282  28288  0
28281  27978  28288  0
27982  28288  27978  0
27975  28290  27976  0
27976  28290  27980  0
28291  27980  28290  0
27980  28292  27981  0
27981  28292  28293  0
27981  28293  27977  0
27987  27985  28288  0
28288  27985  28289  0
28294  28289  27985  0
28288  27982  27987  0
27718  27987  27982  0
27975  28286  28290  0
27712  27985  27986  0
27985  27712  28294  0
28295  28294  27712  0
27984  28296  27714  0
27712  27992  28295  0
27714  28297  27989  0
27989  28297  27990  0
27992  27993  28295  0
28298  28295  27993  0
27225  27991  27994  0
27993  27995  28298  0
27999  28299  28001  0
28299  27999  28002  0
28006  28298  27995  0
28298  28006  28300  0
28301  28008  28001  0
28299  28301  28001  0
28014  28300  28006  0
28009  28008  28302  0
28301  28302  28008  0
28004  27492  28303  0
28304  28303  27492  0
27492  28011  28304  0
28305  28306  28014  0
28307  28012  28009  0
27997  28308  27485  0
27494  27485  28308  0
28014  28018  28305  0
28020  28305  28018  0
28020  28022  28309  0
28022  28015  28309  0
28307  28309  28015  0
28015  28012  28307  0
28013  27745  28310  0
27752  28310  27745  0
27494  28308  28023  0
27752  28026  28311  0
28030  28031  28029  0
28032  28026  27505  0
28023  28312  28033  0
28030  28036  28031  0
28032  28037  28313  0
28039  28314  28315  0
28039  28315  28035  0
28039  27773  28314  0
28035  28315  28034  0
28034  28045  28040  0
28034  28315  28045  0
28044  28046  28036  0
28047  28316  28313  0
28047  28313  28037  0
28038  28033  28317  0
28045  28318  28041  0
28041  28318  28042  0
28042  28318  28319  0
28042  28319  28043  0
28043  28319  28046  0
28043  28046  28044  0
28047  28048  28316  0
28319  28052  28046  0
28050  28053  28320  0
28050  28320  28049  0
28321  28054  28052  0
28321  28052  28319  0
28321  28319  28318  0
28321  28318  28322  0
28321  28322  28054  0
28053  28059  28323  0
28053  28323  28320  0
28323  28059  28061  0
28323  28061  28054  0
28323  28054  28322  0
27782  28324  28056  0
28057  28325  28063  0
28326  28063  28325  0
27783  28326  28327  0
27783  28063  28326  0
28064  28328  27782  0
28324  27782  28328  0
28065  27783  28327  0
28067  28329  28064  0
28328  28064  28329  0
28065  28070  27519  0
28065  28330  28070  0
28331  28066  28071  0
28331  28071  28332  0
28331  28333  28066  0
28067  28066  28333  0
28071  27785  28072  0
28332  28071  28334  0
28071  28072  28335  0
28071  28335  28334  0
28072  28073  28336  0
28072  28336  28335  0
27521  28337  27786  0
28338  27786  28337  0
28073  28339  28336  0
27786  28338  28075  0
28079  28075  28338  0
28073  27523  28340  0
28073  28340  28339  0
27523  28076  28340  0
28077  28078  28341  0
28078  28342  28341  0
28083  28343  28084  0
28076  27797  28344  0
28077  28342  28086  0
28077  28341  28342  0
28078  27788  28345  0
28078  28345  28342  0
27788  27789  28346  0
27788  28346  28345  0
27789  28087  28346  0
28087  27790  28347  0
28084  28343  28348  0
27798  28090  28349  0
27798  28349  28089  0
28090  28085  28350  0
28090  28350  28351  0
28090  28351  28349  0
28085  28352  28350  0
28085  28086  28352  0
28342  28353  28086  0
28342  28345  28353  0
28346  28087  28354  0
28087  28347  28354  0
28355  28354  28347  0
28084  28348  28356  0
28084  28356  28091  0
27800  27807  28088  0
28092  27803  28088  0
28089  28351  28094  0
28349  28351  28089  0
28351  28350  28357  0
28358  28357  28350  0
28086  28359  28352  0
28353  28359  28086  0
28360  28345  28346  0
28346  28354  28360  0
28099  28088  27807  0
28088  28099  28092  0
28092  28361  28097  0
28092  28099  28361  0
28097  28362  28096  0
28097  28361  28362  0
28363  28362  28361  0
28094  28351  28098  0
28357  28098  28351  0
28353  28345  28364  0
28365  28364  28345  0
28345  28360  28365  0
28366  28365  28360  0
27809  28095  28367  0
28096  28362  27813  0
28368  27813  28362  0
28362  28363  28368  0
28369  28101  27810  0
27810  28102  28369  0
28370  28104  28103  0
28103  28098  28370  0
28098  28357  28358  0
28098  28358  28370  0
28360  28371  28366  0
28372  28366  28371  0
28371  28373  28372  0
28374  28372  28373  0
27813  28368  28106  0
28375  28106  28368  0
28373  28376  28374  0
28100  28105  28377  0
28106  28375  27817  0
28105  28378  28379  0
27817  28375  28107  0
28380  28107  28375  0
28105  28108  28378  0
28107  28381  27820  0
28109  27820  28381  0
28107  28380  28381  0
28110  28378  28108  0
28378  28110  28382  0
28383  28382  28110  0
28112  27559  28109  0
28109  28381  28384  0
28110  27821  28383  0
28111  28383  27821  0
28109  28384  28112  0
28112  28384  28385  0
28113  27564  28112  0
27822  28111  27568  0
28113  28112  28386  0
28111  27822  28387  0
28114  28387  27822  0
28113  28386  28388  0
28113  28388  28115  0
28114  28116  28389  0
28114  28389  28390  0
28115  28388  28391  0
28115  28391  28119  0
28115  28119  27826  0
28116  27825  28389  0
28117  28389  27825  0
28119  28391  28392  0
28119  28392  27829  0
27829  28392  28120  0
28120  28393  27830  0
27832  27831  28121  0
27834  28118  27573  0
28121  28394  27832  0
27832  28394  28122  0
28118  27834  28395  0
27836  28395  27834  0
28396  27837  28123  0
28396  28123  28397  0
28398  28397  28123  0
28122  28398  28123  0
28395  27836  28399  0
27836  28124  28399  0
28400  28399  28124  0
28125  28400  28124  0
27837  28396  28126  0
28125  27838  28401  0
28126  28402  27839  0
28127  27839  28403  0
27838  27840  28404  0
28127  28405  27841  0
27842  28128  27843  0
27843  28128  28130  0
27840  28129  28404  0
28405  28406  27841  0
27841  28406  28407  0
27841  28407  28128  0
28128  28407  28408  0
28128  28408  28130  0
27847  28409  28131  0
28131  28409  28410  0
27854  28411  28129  0
28136  28137  28412  0
27600  28138  28137  0
28131  28410  28413  0
28131  28413  28139  0
28133  28140  28414  0
28133  28414  28141  0
28141  28415  28416  0
28141  28416  28134  0
28141  28414  28415  0
28134  28411  27854  0
28136  28412  28417  0
28136  28417  28142  0
27862  27602  28418  0
27862  28418  27863  0
27602  27864  28418  0
28419  27869  28151  0
28419  28151  28139  0
28419  28139  28413  0
28419  28413  28420  0
28139  28151  28153  0
28139  28153  27604  0
28140  27870  28414  0
28147  28142  28421  0
28147  28421  28422  0
28147  28422  28146  0
28142  28417  28421  0
27867  28423  28143  0
27867  28148  28423  0
27864  28150  28418  0
28150  27869  28419  0
28151  28152  28153  0
27870  28154  28414  0
28414  28154  28415  0
28144  28145  28424  0
28145  28146  28424  0
28146  28422  28425  0
28146  28425  28424  0
28154  28158  28426  0
28154  28426  28415  0
28156  28144  28427  0
28156  28427  28158  0
28144  28424  28427  0
28157  28428  28148  0
28152  27872  28153  0
28157  27874  28429  0
28157  28429  28428  0
27868  28430  27871  0
27874  28431  28429  0
27871  28430  28159  0
27874  27876  28431  0
27876  28432  28431  0
27873  28161  27877  0
27873  28159  28433  0
27873  28433  28161  0
28161  28433  28434  0
28160  28432  27876  0
28161  28434  28435  0
28161  28435  28162  0
28160  27878  28436  0
27878  28163  28437  0
27878  28437  28436  0
28163  28164  28438  0
28163  28438  28437  0
28164  27629  28162  0
28164  28162  28435  0
28164  28435  28438  0
27880  28167  28165  0
28167  28439  28165  0
28167  28166  28439  0
28165  28440  28169  0
28165  28439  28440  0
28168  28441  28166  0
28166  28441  28439  0
28440  28442  28169  0
28443  28169  28442  0
28168  28444  28441  0
28168  28171  28444  0
28170  28169  28443  0
28172  28445  28173  0
28446  28174  28173  0
28173  28445  28447  0
28174  27889  27887  0
28448  27889  28174  0
28171  28449  28444  0
28450  28170  28451  0
28176  28452  28177  0
28172  28177  28453  0
28172  28453  28445  0
28445  28453  28447  0
27889  28448  28178  0
28178  28448  28175  0
28454  28175  28448  0
28175  28454  28171  0
28449  28171  28454  0
28170  28450  28179  0
28176  27888  28181  0
28176  28181  28452  0
28452  28181  28455  0
28452  28455  28456  0
28457  28179  28450  0
28181  28180  28458  0
28181  28458  28455  0
28177  28452  28456  0
28179  28457  28182  0
28459  28182  28457  0
28460  28461  28462  0
28461  28463  28462  0
28464  28462  28463  0
28459  28460  28185  0
28459  28185  28182  0
28460  28462  28186  0
28460  28186  28185  0
28462  28464  28186  0
28188  28186  28464  0
27891  27648  28193  0
27891  28193  28465  0
27891  28465  28180  0
28189  28466  27894  0
27894  28466  28184  0
28465  28193  28467  0
28188  28468  28191  0
28469  28191  28468  0
28466  28190  28184  0
